2.16781222 0.87924952 0.00167924 0.00000000
4.35991618 0.27319601 -0.00112935 0.00000000
3.28615978 1.30906180 0.00139856 0.00000000
0.55948456 0.81592402 -0.00174314 0.00000000
2.29378584 1.11839103 -0.00059345 0.00000000
4.61741688 1.20664458 -0.00036651 0.00000000
0.98547529 0.97666193 0.00163872 0.00000000
1.21812649 0.53210689 0.00349703 0.00000000
0.07363618 1.16339869 0.00099583 0.00000000
3.08859276 0.69903253 0.00038577 0.00000000
2.55178224 0.56628323 -0.00339185 0.00000000
1.44475211 1.29012505 -0.00047323 0.00000000
3.32536196 0.44810216 -0.00109357 0.00000000
2.19160052 1.35749189 0.00051722 0.00000000
1.43601795 0.43970475 -0.00075074 0.00000000
4.69823814 0.67476061 -0.00180604 0.00000000
1.79940284 1.15840962 -0.00289414 0.00000000
4.16666561 0.78420375 0.00051144 0.00000000
1.18180167 0.56531585 0.00297342 0.00000000
2.11243244 0.80140105 -0.00699364 0.00000000
1.92004280 0.47050094 0.00108482 0.00000000
3.05133526 0.82645272 -0.00186503 0.00000000
0.19747346 0.17551991 0.00042240 0.00000000
0.75330518 0.97989199 -0.00110469 0.00000000
3.94662269 0.00075631 -0.00186621 0.00000000
2.63136567 1.49698865 -0.00195073 0.00000000
1.48751846 1.17486055 -0.00527935 0.00000000
1.91636424 0.29436324 0.00236723 0.00000000
0.62534642 1.53439608 -0.00413160 0.00000000
0.66238483 0.19479017 0.00232963 0.00000000
0.95089682 1.06977743 -0.00413335 0.00000000
1.16714687 0.69182856 0.00204850 0.00000000
1.25411906 0.02173937 -0.00029855 0.00000000
0.61305582 1.13039316 -0.00332095 0.00000000
2.31284819 0.34355184 -0.00254413 0.00000000
0.67072924 1.40974886 -0.00241909 0.00000000
4.46769027 0.70107390 -0.00371100 0.00000000
3.71092254 1.36936061 -0.00204622 0.00000000
2.46661313 1.63532799 0.00184494 0.00000000
1.19341664 1.25138310 0.00139020 0.00000000
2.96569389 0.20485897 0.00133493 0.00000000
2.95830220 0.56454958 0.00152890 0.00000000
1.37365548 0.50246320 -0.00182651 0.00000000
3.41542437 0.75256734 0.00494287 0.00000000
2.10795119 1.00927633 -0.00099326 0.00000000
4.33491711 1.04957360 0.00014417 0.00000000
0.08259077 1.09267695 -0.00203217 0.00000000
3.66899353 1.45926065 0.00151976 0.00000000
3.23285573 0.66274615 -0.00051154 0.00000000
1.69130785 0.78653937 0.00250343 0.00000000
1.77701981 0.73709504 -0.00324435 0.00000000
3.39574050 0.82038382 -0.00185464 0.00000000
4.51997364 1.30033871 -0.00189978 0.00000000
4.01987821 1.68532030 -0.00007003 0.00000000
2.63616713 0.85883417 -0.00373006 0.00000000
2.79374279 0.85750477 0.00322515 0.00000000
3.29447879 0.66757945 0.00061477 0.00000000
0.94132861 1.07366854 0.00332448 0.00000000
0.66963987 0.87590471 -0.00290883 0.00000000
3.70065743 1.47596351 -0.00053979 0.00000000
1.36647031 1.61027779 0.00493926 0.00000000
0.18109644 1.19843118 -0.00473524 0.00000000
3.87152002 0.34345030 -0.00457779 0.00000000
1.41289225 1.23409885 0.00092310 0.00000000
1.97392730 1.54653505 -0.00099652 0.00000000
2.99839475 0.65304954 -0.00277321 0.00000000
4.43182313 0.39176514 0.00128431 0.00000000
1.84066339 0.08805031 -0.00074631 0.00000000
0.09200187 1.33382622 -0.00285479 0.00000000
2.31773822 0.33298038 0.00291219 0.00000000
1.62429238 0.74955217 -0.00110846 0.00000000
3.28210328 1.47607313 -0.00059874 0.00000000
4.14016306 0.60098977 -0.00315948 0.00000000
1.45157701 0.33412751 -0.00027328 0.00000000
0.76083901 0.19251635 0.00231443 0.00000000
0.67975442 0.65300345 0.00007835 0.00000000
0.90507347 1.06252915 0.00057521 0.00000000
2.89631152 1.48878413 -0.00005418 0.00000000
0.61454576 1.48229086 -0.00113980 0.00000000
1.31983265 1.67564602 -0.00002087 0.00000000
2.97077590 1.24256035 0.00062776 0.00000000
1.19697873 0.15707007 0.00003415 0.00000000
3.01749435 0.07273132 -0.00048812 0.00000000
2.48115898 0.81894983 0.00092223 0.00000000
3.01190628 1.04723005 0.00307333 0.00000000
1.16952156 0.61147797 0.00156303 0.00000000
3.04390227 0.52996435 0.00062237 0.00000000
3.39030591 1.19821426 -0.00394278 0.00000000
2.63698601 0.60196296 -0.00311175 0.00000000
4.43315306 0.75752794 0.00237298 0.00000000
0.09421218 0.74286041 0.00068225 0.00000000
1.63520711 0.04680987 0.00031857 0.00000000
3.05380103 0.43867472 -0.00455363 0.00000000
3.60978630 0.15568104 -0.00286058 0.00000000
4.68113833 1.65708649 -0.00279699 0.00000000
3.55417133 0.14756659 0.00247506 0.00000000
2.11428579 0.78270288 0.00527637 0.00000000
2.04928731 1.42038579 -0.00171197 0.00000000
4.74387201 0.17056962 0.00281900 0.00000000
2.31659894 1.08432972 -0.00346813 0.00000000
2.20292744 0.64158122 -0.00159989 0.00000000
3.46860471 0.22456327 -0.00041991 0.00000000
1.49370690 0.73752759 -0.00151314 0.00000000
4.42211755 1.22166203 -0.00285106 0.00000000
4.10227286 1.21688068 0.00072001 0.00000000
3.35905525 1.14048237 0.00318034 0.00000000
3.79089510 0.95267533 0.00555254 0.00000000
0.15648344 1.23943474 -0.00566956 0.00000000
3.95891995 1.59789607 0.00324515 0.00000000
0.19924999 0.64445019 0.00202993 0.00000000
3.07321064 0.64309742 0.00067511 0.00000000
4.51714920 1.40005125 0.00050695 0.00000000
4.15557530 1.18542496 0.00293242 0.00000000
3.26579281 0.50690050 0.00035585 0.00000000
3.90150155 0.65965477 0.00119932 0.00000000
3.80116656 1.13429779 -0.00253190 0.00000000
2.62566394 0.59077033 -0.00037334 0.00000000
0.51899611 0.51929916 -0.00179887 0.00000000
0.03332390 1.68947610 -0.00589517 0.00000000
2.32618717 0.24629326 -0.00199306 0.00000000
3.70933274 0.36825146 -0.00338769 0.00000000
1.88825753 0.37278429 0.00366971 0.00000000
4.23125486 1.11143634 0.00338189 0.00000000
0.07385354 0.68115852 0.00567089 0.00000000
0.56222842 0.45434959 0.00175865 0.00000000
3.40803220 0.38786987 0.00120825 0.00000000
4.37226299 0.35518564 0.00071890 0.00000000
1.92199653 0.96406848 -0.00247117 0.00000000
1.56020646 1.07203652 -0.00077139 0.00000000
2.43007104 0.67830611 0.00175281 0.00000000
3.63407517 0.96752983 0.00440561 0.00000000
3.79170315 0.15513242 0.00148171 0.00000000
2.21341979 1.69012757 0.00440491 0.00000000
3.47764267 1.38356918 0.00188030 0.00000000
4.53812889 1.49116768 0.00180051 0.00000000
0.04537879 0.84239271 -0.00080882 0.00000000
3.02262051 0.12578120 0.00630964 0.00000000
4.26268814 0.23380117 -0.00437464 0.00000000
2.95537150 0.81604914 -0.00064299 0.00000000
2.31516898 1.12356623 -0.00260103 0.00000000
1.79585274 1.41808616 0.00028479 0.00000000
4.24435678 1.08895174 -0.00010623 0.00000000
3.43294350 0.41557846 -0.00128947 0.00000000
0.99275032 0.59031649 -0.00297166 0.00000000
2.62218452 0.09705839 0.00269799 0.00000000
4.46838783 0.23511997 -0.00135000 0.00000000
0.86045214 1.09447602 -0.00074409 0.00000000
3.19861247 0.05215367 0.00080564 0.00000000
2.90638716 1.06195032 -0.00280068 0.00000000
1.25772899 1.37062442 -0.00003435 0.00000000
4.44540490 1.47425561 0.00098145 0.00000000
0.03129001 0.35670727 0.00753931 0.00000000
3.26672801 0.41285175 -0.00106042 0.00000000
2.17794612 0.00219891 -0.00197764 0.00000000
0.93458463 0.99883650 -0.00049962 0.00000000
2.69478772 0.07386685 0.00171875 0.00000000
3.09671542 1.15570032 -0.00166530 0.00000000
3.89094347 0.86849787 0.00221107 0.00000000
2.16070630 0.08277045 -0.00419996 0.00000000
1.18509830 1.08866623 -0.00192478 0.00000000
1.72526171 0.81044796 -0.00177722 0.00000000
3.48442400 0.95678786 -0.00349786 0.00000000
0.12941895 0.49107026 0.00179905 0.00000000
3.36000110 1.20362930 -0.00185091 0.00000000
4.28483133 1.44252329 0.00006091 0.00000000
3.79593513 1.10325708 0.00077368 0.00000000
1.35040955 1.60819616 0.00295104 0.00000000
0.90535413 1.65592598 0.00277025 0.00000000
3.01171022 0.15633673 0.00079680 0.00000000
0.82779455 0.34170087 0.00090964 0.00000000
3.31758136 0.39408772 0.00102250 0.00000000
0.51470979 0.19385661 0.00053300 0.00000000
0.46936404 0.84421745 0.00015799 0.00000000
2.53635737 0.76219090 0.00072326 0.00000000
4.10425036 0.20290349 -0.00077804 0.00000000
2.26734480 1.57839254 -0.00148595 0.00000000
0.13305248 0.06346223 0.00169426 0.00000000
4.60585120 0.76383772 0.00197058 0.00000000
3.24561834 0.15564242 0.00254235 0.00000000
0.13746459 1.63221795 0.00151825 0.00000000
1.40830028 1.52859257 0.00122244 0.00000000
1.62648965 1.25307668 0.00177341 0.00000000
2.43685373 1.07450994 0.00704565 0.00000000
4.14351631 0.15625410 -0.00001523 0.00000000
4.74528987 1.64318614 -0.00293447 0.00000000
0.02157910 1.22811754 -0.00051754 0.00000000
2.78758902 0.86946490 -0.00574518 0.00000000
3.55629119 0.41438660 0.00433369 0.00000000
4.57802224 0.25528717 0.00070477 0.00000000
2.37034512 1.01717191 0.00405239 0.00000000
4.71173374 0.82312224 0.00071115 0.00000000
3.47850154 1.47348777 0.00132701 0.00000000
1.01624809 0.49071770 0.00118229 0.00000000
3.76011631 1.60162553 -0.00319179 0.00000000
3.45594140 1.53080847 -0.00037516 0.00000000
4.49728023 1.41070882 0.00163613 0.00000000
1.34919290 1.25322233 0.00362990 0.00000000
2.19605090 0.29078813 -0.00520525 0.00000000
0.48211327 0.59630375 0.00007753 0.00000000
1.77370972 0.28492488 -0.00023488 0.00000000
0.46165073 1.08314968 -0.00207576 0.00000000
1.61141391 0.19718398 0.00343677 0.00000000
0.78261997 1.46454288 -0.00078872 0.00000000
3.47406428 0.41834651 0.00315740 0.00000000
1.60425063 1.42552401 0.00328219 0.00000000
3.86517488 0.04492570 -0.00367767 0.00000000
4.03642078 1.43312075 -0.00371853 0.00000000
3.76691404 1.02507715 -0.00099360 0.00000000
0.67638677 0.04534490 -0.00128273 0.00000000
4.37081867 0.84928683 0.00142921 0.00000000
2.43451684 0.68144042 -0.00000924 0.00000000
2.08794642 0.77117879 0.00227463 0.00000000
0.22676472 1.17018825 0.00210375 0.00000000
4.30177892 1.05315828 -0.00392918 0.00000000
1.96616377 0.57340287 0.00112137 0.00000000
0.47082754 0.47965581 0.00052867 0.00000000
4.59954206 1.17422268 0.00234961 0.00000000
1.14915701 1.06305011 0.00463852 0.00000000
0.12214477 1.04087207 -0.00112872 0.00000000
0.36464233 0.07465705 -0.00231141 0.00000000
3.42506344 0.85958133 0.00045186 0.00000000
3.08825134 0.19531935 -0.00013502 0.00000000
1.92153722 1.62046460 -0.00014712 0.00000000
3.24204266 0.48640749 -0.00143708 0.00000000
4.49880076 0.18298674 -0.00035747 0.00000000
3.16241557 1.19381994 0.00078037 0.00000000
2.86346697 0.76961251 0.00126254 0.00000000
1.16660959 0.04454394 0.00054146 0.00000000
3.60529193 1.38443014 -0.00095111 0.00000000
2.72055633 0.68316848 0.00157813 0.00000000
2.76684668 0.08138724 0.00091330 0.00000000
0.78735112 0.35613842 0.00302558 0.00000000
1.93709177 0.03401557 -0.00179714 0.00000000
0.15199461 0.53828617 0.00092216 0.00000000
4.03303129 0.80808412 0.00149579 0.00000000
0.09854014 0.60511374 0.00247777 0.00000000
1.47063580 1.41982786 -0.00084124 0.00000000
0.45323240 1.31551882 -0.00180242 0.00000000
4.62217465 0.66503219 0.00150410 0.00000000
3.87469423 0.25069086 0.00116331 0.00000000
2.59938483 1.34742142 -0.00037522 0.00000000
2.84934298 1.10504144 -0.00523795 0.00000000
3.90601731 0.20119323 -0.00232658 0.00000000
4.25940249 0.67798776 0.00314742 0.00000000
0.80099705 1.09358027 0.00091798 0.00000000
3.37500328 1.64777861 -0.00260191 0.00000000
0.31724219 0.52635475 0.00149087 0.00000000
2.53412636 1.55367723 -0.00279105 0.00000000
4.31031123 0.61848748 0.00460050 0.00000000
4.36495363 0.79123904 0.00176260 0.00000000
4.21039258 0.45279806 -0.00273505 0.00000000
3.02306084 0.34733235 0.00303677 0.00000000
2.32294125 0.08411603 0.00137058 0.00000000
3.35389797 1.63518681 0.00025247 0.00000000
3.09401208 1.26349030 0.00176951 0.00000000
2.44496787 1.42882511 0.00248806 0.00000000
2.34709628 1.39135022 -0.00162936 0.00000000
3.80584125 1.13657492 -0.00175890 0.00000000
0.06825872 1.55034863 -0.00208683 0.00000000
1.89094052 0.23788462 0.00136566 0.00000000
2.49757405 0.61784016 0.00054271 0.00000000
0.56791916 1.47670778 -0.00173626 0.00000000
1.73216178 0.34530141 -0.00136060 0.00000000
2.52017174 1.13951715 -0.00111488 0.00000000
2.69238660 0.02389194 0.00311154 0.00000000
3.80670216 0.01293385 0.00284821 0.00000000
2.23538663 0.39996300 -0.00051914 0.00000000
0.98634316 0.13713384 0.00059036 0.00000000
4.70761195 1.23469590 0.00588380 0.00000000
3.36001374 0.58440252 0.00257988 0.00000000
1.13182176 1.69805668 0.00090195 0.00000000
4.46565667 0.62817303 -0.00675098 0.00000000
0.74245567 1.62755886 -0.00540503 0.00000000
2.68812888 1.25340697 -0.00010423 0.00000000
2.16145302 1.66802971 0.00299098 0.00000000
2.85062412 1.67014702 0.00270625 0.00000000
4.24780337 1.46609641 0.00058736 0.00000000
2.83871164 1.35809782 0.00020705 0.00000000
3.60562866 1.43841373 0.00138285 0.00000000
2.09173758 0.97222289 -0.00160665 0.00000000
1.54695201 1.68270559 0.00263024 0.00000000
3.74414213 0.31598457 -0.00001812 0.00000000
2.04613383 0.46913372 0.00068592 0.00000000
2.58132906 0.00109486 0.00136899 0.00000000
0.48548049 0.31583920 0.00252965 0.00000000
1.01120538 0.93908504 0.00258037 0.00000000
0.79328679 0.30355018 0.00001205 0.00000000
3.84590653 0.95347545 -0.00072321 0.00000000
0.81573264 0.44236912 -0.00072707 0.00000000
3.08226664 0.79317467 0.00244985 0.00000000
4.12470426 1.25293841 0.00030195 0.00000000
0.86543955 1.59684514 0.00404003 0.00000000
0.65178626 0.03575978 -0.00055563 0.00000000
2.85501894 1.55860917 -0.00442461 0.00000000
3.29655700 0.16330243 0.00511722 0.00000000
0.26659482 1.04704576 -0.00472436 0.00000000
2.30318995 0.40234668 -0.00409798 0.00000000
2.56471868 1.11003119 0.00119710 0.00000000
0.38827250 0.77712801 0.00002583 0.00000000
4.75086273 0.98419663 0.00287231 0.00000000
0.81765982 0.26819317 -0.00215826 0.00000000
2.01425502 0.45021264 -0.00198858 0.00000000
0.53832790 0.58013385 -0.00275694 0.00000000
0.34678214 1.20892766 -0.00434804 0.00000000
4.29736973 1.63833065 -0.00228625 0.00000000
4.12017972 1.48904750 -0.00121139 0.00000000
3.73800273 0.96765171 -0.00232104 0.00000000
3.93759120 0.91626962 -0.00305385 0.00000000
3.91080412 0.93673539 -0.00165436 0.00000000
2.88802428 1.65159790 0.00421815 0.00000000
2.40013646 0.99027267 -0.00390645 0.00000000
2.93221183 0.85994724 0.00344563 0.00000000
2.50451786 0.76134659 0.00272696 0.00000000
1.55488668 0.52515629 0.00267108 0.00000000
3.32860302 1.08540346 0.00034786 0.00000000
3.14192387 0.73428817 -0.00015276 0.00000000
1.93209422 1.60663336 0.00258672 0.00000000
1.24064246 0.42673712 0.00079727 0.00000000
3.06392173 0.12835302 0.00030188 0.00000000
3.22696669 1.25744143 -0.00099614 0.00000000
3.87922424 0.22625331 -0.00273996 0.00000000
3.02826430 1.11229276 0.00047226 0.00000000
1.27614883 0.60305975 0.00026343 0.00000000
2.38808148 1.29823140 0.00047870 0.00000000
3.52374010 1.55550990 0.00056479 0.00000000
1.67549393 0.36738287 0.00089421 0.00000000
3.64346283 0.73994208 0.00390292 0.00000000
4.62150728 0.18477168 0.00049320 0.00000000
2.34266406 1.06007372 0.00394366 0.00000000
0.98298520 0.28572514 0.00280074 0.00000000
1.97015006 1.27219916 0.00010061 0.00000000
1.98895690 0.51131560 0.00101606 0.00000000
4.59969340 0.70577603 -0.00014951 0.00000000
1.23935479 1.61115685 -0.00610450 0.00000000
3.13298005 1.54171466 -0.00334155 0.00000000
0.69609768 1.48289667 0.00061014 0.00000000
3.54363540 0.58583364 0.00315935 0.00000000
0.32623906 0.63163967 0.00106925 0.00000000
0.94445257 0.01110294 -0.00225471 0.00000000
4.42484049 0.21377911 -0.00436904 0.00000000
1.80369005 1.19052080 -0.00252547 0.00000000
2.63085799 0.58218563 0.00346201 0.00000000
0.62834503 1.12724115 -0.00265837 0.00000000
1.00432751 0.73752737 -0.00126260 0.00000000
4.38261954 1.04721719 -0.00107164 0.00000000
2.55496166 1.49027663 -0.00163305 0.00000000
2.22863114 1.22115555 0.00578966 0.00000000
2.48098722 0.08986173 0.00077949 0.00000000
3.60420506 1.06724579 -0.00137013 0.00000000
1.80026696 1.68758123 -0.00024149 0.00000000
2.02093808 0.37917239 -0.00203149 0.00000000
3.81209534 0.48617749 0.00183730 0.00000000
0.28445393 1.46895028 0.00086017 0.00000000
1.43973378 0.48239212 0.00196012 0.00000000
4.33364234 1.57819100 0.00182707 0.00000000
4.25706264 0.82918433 0.00077349 0.00000000
3.31610651 1.42591356 -0.00290277 0.00000000
3.03989873 1.00094682 -0.00410097 0.00000000
2.99368067 0.49971118 -0.00141307 0.00000000
1.42175226 0.02966216 -0.00296195 0.00000000
4.75931142 0.30241443 -0.00377898 0.00000000
4.69022016 0.69581195 -0.00041110 0.00000000
2.74235094 0.11780957 -0.00127936 0.00000000
3.43140831 0.27583316 0.00480811 0.00000000
0.53331953 0.81388908 0.00220966 0.00000000
1.16501789 1.44020729 0.00232976 0.00000000
3.14584273 1.27538865 0.00255130 0.00000000
3.59434200 0.51687582 -0.00025350 0.00000000
2.86377614 0.80178117 -0.00189171 0.00000000
4.06341098 1.35782024 -0.00576478 0.00000000
4.14216371 0.47413227 -0.00148404 0.00000000
1.28535609 1.14298174 0.00182579 0.00000000
0.56309667 0.90056361 -0.00044715 0.00000000
2.82652889 0.44362808 0.00276522 0.00000000
1.50604931 1.09976312 0.00065689 0.00000000
2.88950819 0.38567922 0.00415525 0.00000000
1.31707258 0.47017207 -0.00095962 0.00000000
0.59929345 1.06330648 -0.00370421 0.00000000
0.46780607 1.54562746 -0.00650231 0.00000000
3.68849873 0.87009093 0.00090307 0.00000000
2.28817601 1.02298768 -0.00134137 0.00000000
3.49021709 1.11637902 -0.00220681 0.00000000
1.02290764 1.54772797 0.00285597 0.00000000
0.75103118 0.08136261 -0.00049889 0.00000000
0.48225465 0.68469381 -0.00305880 0.00000000
3.75294389 1.05684644 -0.00155726 0.00000000
1.31351421 0.07749568 0.00013488 0.00000000
0.99080510 0.22935191 0.00244145 0.00000000
3.36721420 1.04076560 -0.00136328 0.00000000
3.85149219 1.38364960 0.00021560 0.00000000
1.85017888 1.27835774 0.00302025 0.00000000
4.31180747 0.74583661 0.00331609 0.00000000
3.37825419 1.37238864 -0.00135186 0.00000000
0.67518997 0.52720225 -0.00238746 0.00000000
2.75882435 0.72606229 -0.00300689 0.00000000
2.00294339 0.64211761 -0.00422753 0.00000000
4.57872410 0.62182578 -0.00052850 0.00000000
3.82567394 0.14323456 0.00071594 0.00000000
2.25203604 1.21334397 0.00335696 0.00000000
0.00788413 1.47828000 0.00273130 0.00000000
2.88079879 1.52578171 0.00240513 0.00000000
4.32197096 0.14064972 -0.00279750 0.00000000
3.95232571 0.28183349 0.00047663 0.00000000
1.23980207 1.31023452 -0.00302993 0.00000000
2.52319351 1.01226314 -0.00225203 0.00000000
3.05693324 1.47045184 0.00113350 0.00000000
0.95314945 1.35448788 -0.00098439 0.00000000
1.36066723 0.87167887 0.00415133 0.00000000
4.03914697 0.91811877 -0.00213452 0.00000000
0.76804738 1.55091486 0.00106634 0.00000000
0.73651557 0.12148553 -0.00012104 0.00000000
2.97818504 1.60266511 -0.00081127 0.00000000
4.68956026 0.21300191 0.00200410 0.00000000
2.26638650 0.97278237 0.00430876 0.00000000
2.69571117 0.39444773 0.00008954 0.00000000
0.75859504 0.16561163 -0.00060992 0.00000000
1.68445680 0.79050992 -0.00191699 0.00000000
4.34218239 0.50021094 0.00476598 0.00000000
2.17036621 1.30966258 -0.00124712 0.00000000
0.73668543 0.41918953 -0.00184217 0.00000000
4.52205137 0.73026907 -0.00226390 0.00000000
3.66955438 0.27759810 -0.00092977 0.00000000
1.09256236 1.42569299 -0.00141091 0.00000000
4.24056885 1.67855823 0.00166059 0.00000000
0.96254693 0.81296466 -0.00119752 0.00000000
0.85105202 0.83030126 0.00149861 0.00000000
4.18708733 0.39003579 -0.00333078 0.00000000
0.41355794 0.50803994 -0.00039607 0.00000000
2.32521093 0.66134258 0.00224598 0.00000000
2.79047108 0.32056338 -0.00111349 0.00000000
3.52737478 0.37892070 0.00092830 0.00000000
4.07277571 0.49652476 -0.00028444 0.00000000
1.30070821 0.61850115 -0.00083953 0.00000000
1.84269492 0.94243892 0.00377937 0.00000000
2.27681644 1.36751717 0.00338118 0.00000000
2.24989989 1.51801386 -0.00352702 0.00000000
2.14903711 0.46541110 0.00137771 0.00000000
2.87278427 0.09542836 0.00066977 0.00000000
3.79671644 1.64766261 -0.00018090 0.00000000
1.84282138 1.08079185 0.00175154 0.00000000
1.47922732 1.28327511 -0.00262300 0.00000000
1.88161047 1.01315743 -0.00408086 0.00000000
4.41508750 0.95598501 0.00222821 0.00000000
2.00716615 0.32826598 0.00228207 0.00000000
0.98591268 1.03529128 -0.00079653 0.00000000
2.86463147 1.38737903 -0.00276039 0.00000000
0.92684024 0.72600062 0.00236453 0.00000000
2.69658832 0.16932650 -0.00331919 0.00000000
3.54369800 1.23364672 -0.00086740 0.00000000
3.27607846 0.15408977 0.00086205 0.00000000
3.71773578 0.90815568 0.00211759 0.00000000
2.59821783 0.88187099 -0.00061161 0.00000000
1.72918914 1.38723319 0.00007550 0.00000000
0.42228578 0.00360066 -0.00378962 0.00000000
4.43978641 1.20641610 -0.00212467 0.00000000
4.13691998 0.78810530 0.00052956 0.00000000
4.41454695 0.02775547 -0.00011383 0.00000000
0.61679517 0.96473727 0.00002025 0.00000000
0.18602432 1.38844635 -0.00611593 0.00000000
3.71637557 1.51810093 -0.00259645 0.00000000
0.06196815 1.66396607 0.00167722 0.00000000
3.56864010 0.77550298 -0.00217493 0.00000000
2.82352558 0.76395118 0.00091581 0.00000000
0.95740968 0.19562161 -0.00181684 0.00000000
1.08110405 0.32693776 -0.00159515 0.00000000
0.12987194 1.40915846 -0.00276581 0.00000000
2.91961797 1.32784777 0.00050708 0.00000000
2.67345370 1.30956057 0.00125474 0.00000000
2.48666397 1.42226990 0.00438299 0.00000000
4.37270299 0.99447732 -0.00203445 0.00000000
0.32299213 1.65466828 0.00035139 0.00000000
1.32732618 0.28854845 0.00459547 0.00000000
4.61803506 0.41256105 0.00121800 0.00000000
1.58823636 1.23645383 -0.00034620 0.00000000
2.90739752 0.57015440 -0.00170063 0.00000000
2.44572330 0.48710106 -0.00132709 0.00000000
1.71547405 0.94122660 0.00210837 0.00000000
3.37465986 1.03972044 0.00013051 0.00000000
4.06037260 1.47362130 -0.00223164 0.00000000
4.54470515 1.35392133 -0.00127520 0.00000000
1.98053119 0.74941289 -0.00238657 0.00000000
3.68502224 0.54974188 -0.00258217 0.00000000
3.12086354 0.79644877 -0.00120915 0.00000000
0.53774345 0.17548974 0.00047921 0.00000000
3.54553658 0.03627834 0.00151141 0.00000000
2.75365747 1.18971873 -0.00246030 0.00000000
1.95924221 1.43458717 0.00228511 0.00000000
4.23489520 0.60748061 0.00060558 0.00000000
0.45094173 1.54355130 0.00019750 0.00000000
3.92170562 0.52843667 -0.00041900 0.00000000
4.02753830 0.75744458 0.00098718 0.00000000
1.64232016 0.50721179 0.00121556 0.00000000
2.68212047 0.26608033 -0.00049963 0.00000000
2.41049106 0.19593164 0.00238350 0.00000000
2.14490747 1.60819163 0.00168387 0.00000000
0.80476077 0.53899857 0.00289114 0.00000000
3.18880710 0.54125618 0.00074958 0.00000000
3.88034106 0.73963169 -0.00006917 0.00000000
0.15302349 1.43366181 0.00074682 0.00000000
3.69826804 0.49386285 -0.00504449 0.00000000
3.05819691 0.64410691 -0.00179567 0.00000000
3.56027602 0.84202150 -0.00145482 0.00000000
3.10536420 1.01155212 -0.00060345 0.00000000
1.20358108 1.66944724 -0.00212362 0.00000000
2.37075104 0.75932064 -0.00109145 0.00000000
1.27104473 1.31400034 -0.00357762 0.00000000
4.36409514 1.52653623 -0.00118223 0.00000000
1.19347981 1.33093566 -0.00154547 0.00000000
4.52900540 0.63145356 0.00155921 0.00000000
2.78844802 1.26784175 -0.00061033 0.00000000
1.86272834 1.32924257 0.00195822 0.00000000
3.82529055 1.26735379 0.00395696 0.00000000
0.61320720 0.14606760 0.00187465 0.00000000
4.17089990 0.15437153 0.00036828 0.00000000
2.57746888 0.50025776 0.00178065 0.00000000
2.37611762 1.17431168 -0.00124982 0.00000000
2.29819465 0.60104419 0.00243155 0.00000000
0.29070305 0.97832632 0.00296043 0.00000000
2.69497374 0.96652511 -0.00251301 0.00000000
4.12164294 0.19397926 0.00086282 0.00000000
0.63913421 1.63296732 -0.00200451 0.00000000
1.09217361 0.17107040 0.00139404 0.00000000
1.12130095 0.95164015 -0.00000394 0.00000000
3.64279185 1.37109583 -0.00155287 0.00000000
3.02169789 1.58136388 0.00259518 0.00000000
0.68005384 0.86135112 0.00060882 0.00000000
3.27492592 0.34237786 0.00545566 0.00000000
1.43651589 0.94819792 0.00260565 0.00000000
1.07375325 1.16347474 -0.00024389 0.00000000
3.01602476 0.21213925 -0.00145394 0.00000000
3.15563198 1.11808407 0.00137835 0.00000000
1.14365824 1.09941080 -0.00527794 0.00000000
2.32869794 0.39243425 -0.00214700 0.00000000
3.86528524 0.73871672 -0.00039874 0.00000000
3.90493662 0.00617314 -0.00235525 0.00000000
2.62439657 0.33981628 0.00175039 0.00000000
0.57092217 1.69579460 -0.00030926 0.00000000
2.53691519 0.32549603 0.00316208 0.00000000
4.54692359 0.05479178 0.00535458 0.00000000
2.74103878 1.29795189 -0.00404532 0.00000000
2.67394805 0.06092195 -0.00018001 0.00000000
0.95912746 0.67390922 -0.00325604 0.00000000
4.35654935 1.39539714 0.00120878 0.00000000
2.92305323 0.56227213 -0.00476855 0.00000000
2.19162016 0.32738059 -0.00216635 0.00000000
1.65960360 0.56252935 0.00033594 0.00000000
0.93753287 0.16022876 -0.00296692 0.00000000
0.45482019 1.16371250 0.00239041 0.00000000
0.89992372 0.86574541 -0.00090497 0.00000000
2.11849413 1.02920579 0.00020590 0.00000000
4.37217924 0.48634519 0.00194491 0.00000000
2.48428214 0.36835345 -0.00498659 0.00000000
4.64404908 0.59016765 0.00179338 0.00000000
3.94421007 1.13457409 -0.00137284 0.00000000
2.69657693 1.45607669 0.00312006 0.00000000
1.73883702 1.38055383 0.00159903 0.00000000
2.22128022 0.21102735 0.00110349 0.00000000
2.73480594 1.26124713 -0.00354662 0.00000000
4.66244913 0.98825193 0.00164605 0.00000000
3.41626734 0.67322340 -0.00149641 0.00000000
3.71329227 1.57821118 -0.00259986 0.00000000
3.20840296 1.52611448 0.00075358 0.00000000
3.79518986 1.27207236 0.00445712 0.00000000
1.18043248 1.23842742 -0.00107507 0.00000000
2.12141701 1.00475767 -0.00155198 0.00000000
2.43104609 1.20810594 0.00378068 0.00000000
1.63276832 0.40417087 0.00130166 0.00000000
1.76825823 0.00040254 -0.00170820 0.00000000
3.84181186 0.21178049 -0.00225326 0.00000000
2.37898853 0.47313552 0.00235627 0.00000000
1.36029434 0.73075135 0.00044089 0.00000000
3.01585291 1.46656024 -0.00232464 0.00000000
1.47682314 1.09073790 -0.00250137 0.00000000
1.20381590 1.53906967 0.00183176 0.00000000
2.78011473 0.57792288 0.00079056 0.00000000
3.07052416 0.67191067 -0.00368608 0.00000000
3.69125307 0.34738178 0.00261906 0.00000000
4.55552331 1.65912391 0.00053210 0.00000000
0.22967273 0.36148737 -0.00472250 0.00000000
0.35874625 1.13637853 0.00218983 0.00000000
1.70132469 0.54727276 0.00187877 0.00000000
0.96927542 1.14709239 0.00035833 0.00000000
2.99898892 0.22704893 0.00319317 0.00000000
2.76072114 1.10309682 0.00074053 0.00000000
4.38036974 1.24133997 -0.00215133 0.00000000
3.31102040 0.64456141 -0.00115070 0.00000000
1.37111068 0.98403400 -0.00057953 0.00000000
0.64243894 1.64868867 0.00199560 0.00000000
0.93166925 0.48365081 -0.00039289 0.00000000
2.44479838 0.27920906 -0.00187178 0.00000000
0.81604104 1.02996305 -0.00267000 0.00000000
2.07674983 0.37881825 0.00355220 0.00000000
2.49588525 1.66615364 -0.00036724 0.00000000
3.36985679 1.30331999 0.00060164 0.00000000
2.52068768 0.77685284 -0.00039749 0.00000000
0.30680738 0.04435373 0.00013613 0.00000000
4.15513680 1.05366977 -0.00142456 0.00000000
1.14142177 0.23536146 -0.00198106 0.00000000
2.35425934 1.66069754 0.00086129 0.00000000
2.31375486 0.58804560 0.00104830 0.00000000
2.72722502 1.37020270 0.00125715 0.00000000
0.97698962 0.99380319 0.00070151 0.00000000
0.88123826 0.90830018 -0.00232238 0.00000000
0.84508091 1.59473524 -0.00071536 0.00000000
3.38107842 0.16399288 0.00083400 0.00000000
4.14295262 0.86757370 -0.00399266 0.00000000
1.20618103 1.48562509 -0.00371131 0.00000000
2.05854360 0.29230297 -0.00204557 0.00000000
0.96521655 1.18325805 0.00070864 0.00000000
3.12912651 0.82755896 0.00283247 0.00000000
0.69728365 0.28797864 0.00351495 0.00000000
0.12479386 0.81502246 0.00057692 0.00000000
3.30796607 0.10516508 -0.00259397 0.00000000
1.33378066 0.19311845 -0.00267010 0.00000000
3.46107668 0.84475221 0.00419646 0.00000000
4.15078234 0.90160125 0.00022584 0.00000000
4.09783059 0.85812494 -0.00154945 0.00000000
2.64274495 0.02462452 0.00155577 0.00000000
4.30958439 0.48546777 -0.00441474 0.00000000
0.07074908 1.58558114 -0.00126183 0.00000000
4.75218489 0.01722926 -0.00462482 0.00000000
0.43323747 0.28384321 0.00082896 0.00000000
4.08428389 1.27861905 -0.00488783 0.00000000
0.28056818 0.89182480 0.00246224 0.00000000
3.35949252 1.54057415 0.00054967 0.00000000
1.02365377 0.10188507 -0.00277045 0.00000000
1.34387300 1.31184466 -0.00087504 0.00000000
2.77600029 1.54268835 -0.00310041 0.00000000
1.35583078 1.58611800 0.00113894 0.00000000
4.53680349 1.09439198 -0.00448793 0.00000000
3.09090368 0.44954927 0.00013384 0.00000000
2.57528497 1.08440114 0.00223883 0.00000000
1.81104561 1.65553803 -0.00139925 0.00000000
2.10390005 0.94589322 0.00146918 0.00000000
1.97488806 0.17932723 0.00204576 0.00000000
4.06135877 1.06506278 -0.00489434 0.00000000
1.94852983 0.60302470 0.00036121 0.00000000
0.55926866 0.30098276 -0.00296904 0.00000000
0.32351158 1.47944457 0.00169636 0.00000000
1.86777903 0.65427648 -0.00307453 0.00000000
1.39686364 1.35622348 0.00149299 0.00000000
1.23432465 0.07658785 -0.00133705 0.00000000
2.48628848 0.67295107 -0.00475106 0.00000000
2.46765974 1.10406990 -0.00043443 0.00000000
2.17275906 1.33997978 -0.00091310 0.00000000
2.10809869 0.21503118 -0.00061476 0.00000000
1.91204351 1.39660906 -0.00331829 0.00000000
1.50500947 1.44365792 0.00125333 0.00000000
1.89214098 1.00184120 0.00436162 0.00000000
3.02809682 1.24369749 -0.00503866 0.00000000
0.22646366 1.11410632 0.00302017 0.00000000
4.04372126 0.13377438 -0.00103627 0.00000000
1.66129334 0.83791942 0.00234775 0.00000000
1.97457855 1.49871540 0.00100829 0.00000000
4.59327097 0.72023708 0.00365367 0.00000000
3.49539302 1.45513386 -0.00029608 0.00000000
0.94034206 1.64344012 0.00292108 0.00000000
3.92070949 0.51174486 -0.00326501 0.00000000
1.56057984 0.35389673 -0.00122211 0.00000000
1.73336372 1.52226906 -0.00285635 0.00000000
2.21033330 1.46390879 -0.00098029 0.00000000
3.26697933 0.37770772 0.00165504 0.00000000
3.39740940 0.64400259 -0.00141676 0.00000000
0.13259176 1.19951562 -0.00501004 0.00000000
3.17933927 0.62576306 -0.00218054 0.00000000
1.75978689 1.00403575 -0.00064085 0.00000000
0.82870877 1.59774403 0.00203439 0.00000000
1.16413859 0.37996477 -0.00108500 0.00000000
4.71191397 1.66084139 -0.00315944 0.00000000
0.16146096 1.45477908 -0.00309926 0.00000000
3.86596743 1.25654438 -0.00309295 0.00000000
1.50081866 1.41465056 -0.00059820 0.00000000
1.15253495 1.39834382 0.00115011 0.00000000
0.04118266 1.12409197 -0.00284222 0.00000000
1.37958787 1.08740437 0.00210523 0.00000000
1.64469798 0.25648700 0.00298400 0.00000000
1.28502893 1.33479751 0.00057045 0.00000000
0.79837425 1.27422453 0.00466988 0.00000000
1.96593542 1.07825300 0.00253050 0.00000000
3.09440783 1.29046164 0.00252556 0.00000000
1.02149435 1.61802027 0.00151290 0.00000000
3.93605159 1.24984351 -0.00266890 0.00000000
3.28487814 0.85315020 0.00107545 0.00000000
2.40158030 0.92413185 0.00067434 0.00000000
0.87653630 1.33655229 0.00156932 0.00000000
2.75430711 0.61179926 0.00402180 0.00000000
0.05530785 0.25886141 -0.00625222 0.00000000
0.88580902 0.09885941 0.00135414 0.00000000
4.05572588 0.46260352 -0.00044659 0.00000000
1.08875850 1.15982146 -0.00111046 0.00000000
2.28501481 0.66181324 -0.00636095 0.00000000
3.43958086 1.21945222 -0.00065163 0.00000000
3.66815874 0.80741954 0.00168805 0.00000000
1.68199814 0.46083658 0.00235225 0.00000000
4.70537885 0.98914596 0.00057748 0.00000000
4.10413888 1.16807691 0.00234774 0.00000000
2.00317496 1.47652767 -0.00135886 0.00000000
1.14376473 0.52298289 -0.00177947 0.00000000
3.52094827 0.21001033 0.00018429 0.00000000
2.26526532 1.42916594 0.00170183 0.00000000
0.45229044 0.30749931 -0.00206317 0.00000000
1.40847416 0.63238611 -0.00175868 0.00000000
1.79734190 0.89462599 0.00156589 0.00000000
4.68073754 1.48387376 0.00377742 0.00000000
0.68855622 0.73111060 0.00060804 0.00000000
3.41820705 0.07853307 -0.00399057 0.00000000
1.75262348 0.02428220 -0.00523777 0.00000000
0.59380460 0.81870481 -0.00123287 0.00000000
3.33172855 1.49684096 0.00031188 0.00000000
1.19167941 0.62881273 0.00321422 0.00000000
0.40733811 1.47833347 0.00006051 0.00000000
1.45740931 0.61059947 0.00165140 0.00000000
0.02087160 0.88014695 0.00021487 0.00000000
0.19408070 0.19409783 -0.00082778 0.00000000
4.32208749 0.19002469 0.00238577 0.00000000
2.22730973 0.49994121 -0.00123193 0.00000000
4.49799967 1.47517292 -0.00051287 0.00000000
4.39193059 0.91272949 -0.00396913 0.00000000
0.84400535 0.62446792 -0.00325254 0.00000000
2.01883443 1.68015611 -0.00109486 0.00000000
1.61776092 1.62687491 0.00119886 0.00000000
0.39895121 0.96856470 -0.00126401 0.00000000
3.88705240 0.94809622 -0.00173719 0.00000000
1.84307640 0.19518007 -0.00074215 0.00000000
1.22681544 0.79033526 -0.00036363 0.00000000
0.41892646 0.45975340 0.00320429 0.00000000
3.86341633 0.37610098 0.00536615 0.00000000
2.15483189 1.02923288 -0.00073240 0.00000000
3.65721116 0.06679936 -0.00405639 0.00000000
3.75336077 1.42274794 -0.00046683 0.00000000
2.75551125 1.26328113 -0.00416620 0.00000000
1.24110108 1.39193804 -0.00233999 0.00000000
0.11337307 1.60051271 0.00414508 0.00000000
3.39590929 1.22110007 -0.00318941 0.00000000
4.37931084 1.53790259 -0.00339680 0.00000000
2.01330031 1.67023595 -0.00178706 0.00000000
4.54304620 0.84297406 -0.00093562 0.00000000
3.13297882 0.12729606 0.00232727 0.00000000
1.29148091 0.92866699 -0.00482422 0.00000000
1.67732611 0.05662583 -0.00093310 0.00000000
2.38873367 1.32938498 -0.00043274 0.00000000
4.11055753 0.96932756 -0.00302914 0.00000000
3.71865338 1.00512581 -0.00115017 0.00000000
3.85190472 1.17475537 -0.00397561 0.00000000
2.03084528 0.46269805 0.00218654 0.00000000
2.91577840 0.42646553 0.00112913 0.00000000
0.40917390 0.82796294 0.00023738 0.00000000
3.85680813 0.67180644 0.00079061 0.00000000
0.20518611 1.25177217 0.00436247 0.00000000
2.51929421 0.06045860 -0.00053498 0.00000000
2.53533938 1.49118690 0.00322811 0.00000000
3.19237851 0.72181838 -0.00007491 0.00000000
0.44440238 1.11376972 -0.00031456 0.00000000
4.30581737 0.51826592 -0.00399555 0.00000000
1.37434890 0.25922616 0.00076339 0.00000000
1.36131853 0.67701559 0.00270304 0.00000000
2.76118454 0.74587947 0.00133539 0.00000000
1.71426646 0.73623765 0.00008839 0.00000000
0.69110967 0.56780270 0.00384039 0.00000000
3.81597926 0.69581101 -0.00291199 0.00000000
0.42525946 1.34171336 0.00101696 0.00000000
3.15734142 1.46797253 0.00094988 0.00000000
2.98965295 0.96294287 -0.00229004 0.00000000
0.77887714 0.59382396 0.00023546 0.00000000
1.95907815 0.41024335 -0.00064013 0.00000000
2.10220736 1.48205770 -0.00391667 0.00000000
1.82857185 0.78143450 0.00156086 0.00000000
4.48410645 0.77627576 0.00000441 0.00000000
3.10659722 0.71944720 0.00090374 0.00000000
2.68627287 0.69084251 0.00147258 0.00000000
4.22063222 1.50447667 -0.00375696 0.00000000
2.68180346 1.30761349 -0.00237519 0.00000000
4.60586590 0.24063252 0.00255384 0.00000000
3.63710395 1.34791060 -0.00027113 0.00000000
1.13406111 1.42036662 -0.00035455 0.00000000
1.41804862 0.45641833 0.00153074 0.00000000
0.97943629 0.12338833 -0.00209555 0.00000000
3.35300270 0.10295331 0.00088095 0.00000000
0.91244735 0.49654404 0.00006462 0.00000000
4.06576258 0.21782936 -0.00115968 0.00000000
1.09346175 1.41669403 -0.00378383 0.00000000
3.94338042 1.10582635 -0.00151353 0.00000000
2.84694548 0.45177337 -0.00101519 0.00000000
1.75011691 1.13427921 0.00199335 0.00000000
0.03746552 0.12891344 0.00138348 0.00000000
0.91241240 1.28429649 -0.00063522 0.00000000
2.45458906 0.16947541 -0.00071609 0.00000000
0.49753165 0.69599326 -0.00152318 0.00000000
4.61623253 1.64201528 0.00115238 0.00000000
4.69996751 1.47541656 0.00026478 0.00000000
0.73223532 1.12754185 0.00080814 0.00000000
3.51925055 1.01659666 -0.00193289 0.00000000
0.56068807 0.94514811 -0.00323675 0.00000000
0.17039635 1.03153120 -0.00047899 0.00000000
1.20827770 0.23072493 -0.00031356 0.00000000
4.38811826 1.52071574 -0.00475705 0.00000000
3.51811979 1.67788868 0.00073845 0.00000000
2.16305417 1.36186369 -0.00310114 0.00000000
4.41998210 0.60879792 0.00090302 0.00000000
0.20297701 0.09750929 -0.00208370 0.00000000
1.08743637 1.54991123 -0.00513355 0.00000000
0.87316169 1.42316085 -0.00043758 0.00000000
1.02581911 0.39539052 -0.00503043 0.00000000
2.67909062 1.25115600 -0.00229744 0.00000000
1.23013915 1.20748913 -0.00133759 0.00000000
3.16712500 1.69448013 0.00124105 0.00000000
0.56039156 0.67043958 0.00227001 0.00000000
0.68122074 1.58678333 0.00071679 0.00000000
1.20165229 0.55909770 -0.00311201 0.00000000
4.67241662 0.65969717 -0.00156399 0.00000000
3.30407611 0.47570938 0.00004487 0.00000000
3.86423606 0.59210836 -0.00042508 0.00000000
0.16737640 1.65136780 -0.00152668 0.00000000
3.56157676 0.56926316 -0.00313339 0.00000000
0.11752543 0.64101251 -0.00268607 0.00000000
0.52784728 1.27454174 0.00118018 0.00000000
0.60308883 0.92320621 -0.00433645 0.00000000
0.63180812 0.99098042 -0.00070351 0.00000000
0.63242020 0.08799488 -0.00064614 0.00000000
2.87109670 0.78294757 0.00298137 0.00000000
3.66799536 0.91413046 0.00213422 0.00000000
1.62012900 0.47156271 0.00323711 0.00000000
0.78424054 1.13444813 -0.00119010 0.00000000
2.11975810 0.96048998 0.00028705 0.00000000
0.22312589 0.12076919 0.00098242 0.00000000
1.35018118 0.10405393 0.00271821 0.00000000
2.02353101 0.08036957 -0.00025964 0.00000000
3.49665308 1.57044466 0.00042767 0.00000000
0.15982478 1.28263704 0.00118899 0.00000000
2.08137779 1.45137478 0.00244922 0.00000000
2.98119167 1.69601189 0.00215011 0.00000000
4.35307378 1.56686014 -0.00047262 0.00000000
4.76231888 0.33812274 -0.00164077 0.00000000
1.82324568 1.63049079 0.00166095 0.00000000
3.37564000 1.32291329 0.00049136 0.00000000
2.15393093 0.53425841 0.00017665 0.00000000
2.48619517 1.13256922 -0.00038509 0.00000000
4.52634773 0.89462555 0.00207007 0.00000000
1.11725815 0.59474505 0.00128350 0.00000000
3.18941543 0.95967571 -0.00006072 0.00000000
3.69178703 0.65844480 -0.00172924 0.00000000
2.09747893 0.87418869 0.00223134 0.00000000
3.00540535 0.82568220 0.00616688 0.00000000
3.77559122 1.20949524 0.00104577 0.00000000
4.66679656 0.34980733 0.00414911 0.00000000
4.30897104 1.42258995 -0.00010929 0.00000000
3.30397460 1.20662697 0.00084810 0.00000000
0.59653510 0.74288608 0.00069968 0.00000000
1.04695550 0.07027465 0.00172458 0.00000000
2.83825870 1.57554727 0.00534419 0.00000000
2.84946657 0.74681365 -0.00099307 0.00000000
1.07294230 1.09325984 -0.00475019 0.00000000
3.07725280 0.94221963 -0.00226986 0.00000000
0.09868931 0.87354760 -0.00334801 0.00000000
4.09277131 0.18410103 -0.00149965 0.00000000
4.55827094 1.55942960 -0.00287191 0.00000000
3.02476099 1.21079424 0.00080384 0.00000000
3.14377159 1.41718026 0.00243115 0.00000000
2.31054854 1.06443709 0.00277359 0.00000000
3.59522434 0.35701448 -0.00263907 0.00000000
4.70317062 1.69349509 -0.00528054 0.00000000
4.12728389 0.35750225 0.00186316 0.00000000
4.42623175 0.59259413 -0.00232100 0.00000000
0.82779451 0.31270872 -0.00226758 0.00000000
4.44458946 0.07817516 0.00157398 0.00000000
2.85580843 1.25494684 0.00266632 0.00000000
1.49720692 0.49934659 -0.00109495 0.00000000
3.33874407 1.15680301 0.00148610 0.00000000
4.12786757 1.10036628 0.00027456 0.00000000
0.54408003 1.47254963 -0.00333003 0.00000000
1.74133733 1.42529574 -0.00052701 0.00000000
3.20049829 0.51475505 0.00197136 0.00000000
4.19703143 1.46181352 0.00050145 0.00000000
0.44093664 1.28856514 -0.00510229 0.00000000
4.56256863 1.54660516 0.00375761 0.00000000
2.17548783 0.25762751 -0.00057925 0.00000000
0.68032028 0.34321177 -0.00175838 0.00000000
3.07981094 0.52354493 -0.00179501 0.00000000
4.15039301 0.45465238 0.00006011 0.00000000
0.98150129 0.46417908 -0.00319342 0.00000000
2.21832146 0.40422554 -0.00072687 0.00000000
3.04070252 1.34126444 -0.00029536 0.00000000
0.31549895 0.59891419 0.00248107 0.00000000
2.67406299 0.84890797 -0.00274714 0.00000000
4.61414660 0.93003094 -0.00186700 0.00000000
0.98639597 0.80904369 0.00536715 0.00000000
2.69978476 0.59431652 -0.00329843 0.00000000
2.25354860 1.41186789 0.00031815 0.00000000
0.40975194 0.63801685 0.00178553 0.00000000
1.18973328 0.74206981 0.00087992 0.00000000
0.69731542 0.86707983 0.00037300 0.00000000
1.33592609 0.91246590 -0.00024235 0.00000000
2.90756410 0.61590060 -0.00642072 0.00000000
4.14565463 1.11639892 0.00228754 0.00000000
1.53389400 1.34183929 -0.00341930 0.00000000
1.83298638 1.08289622 -0.00120694 0.00000000
0.36657418 0.03925017 0.00180257 0.00000000
3.82691400 1.49128526 -0.00211420 0.00000000
0.28516117 0.63311792 -0.00171003 0.00000000
1.50662254 0.96447392 0.00149893 0.00000000
1.51990944 1.12987263 -0.00108838 0.00000000
1.52786968 0.87380854 -0.00007922 0.00000000
2.90710231 1.13147126 0.00255734 0.00000000
3.08744363 1.54281404 0.00093236 0.00000000
4.11235884 1.66367004 0.00289348 0.00000000
0.36376938 0.90845196 -0.00007062 0.00000000
2.93341557 1.09227653 -0.00206833 0.00000000
3.04308215 1.04653205 0.00365887 0.00000000
0.76563470 0.17907486 -0.00002685 0.00000000
4.06876520 1.13568069 -0.00148138 0.00000000
2.56308969 0.17234971 0.00305206 0.00000000
4.45185372 0.50059146 0.00195353 0.00000000
0.12038616 1.43721291 0.00062833 0.00000000
2.05412788 1.52567624 -0.00248124 0.00000000
2.17800465 0.04123143 0.00086050 0.00000000
4.33286057 1.46254777 -0.00178523 0.00000000
2.10617223 0.32395716 0.00024337 0.00000000
1.70943343 0.68071810 -0.00159783 0.00000000
4.20262424 1.38817324 -0.00108526 0.00000000
1.89010809 0.62869653 0.00280734 0.00000000
1.00921602 0.55707082 -0.00109268 0.00000000
4.21856705 0.89148154 0.00369977 0.00000000
0.66508967 0.74773238 -0.00160020 0.00000000
2.54154899 0.02794686 0.00267316 0.00000000
3.98144626 1.58054745 0.00384345 0.00000000
2.97991431 0.02594106 0.00287705 0.00000000
3.06519529 0.34797409 0.00088863 0.00000000
2.89913657 1.27501533 -0.00034284 0.00000000
3.02823238 0.72687546 0.00096142 0.00000000
0.50982809 1.47612951 -0.00070425 0.00000000
3.48139973 1.45606483 -0.00033453 0.00000000
1.95785303 0.63285632 -0.00078514 0.00000000
0.05257021 0.24569717 -0.00520145 0.00000000
2.57425364 0.93706659 -0.00213834 0.00000000
0.48718801 0.81902774 0.00087817 0.00000000
3.66031371 0.15101311 -0.00190530 0.00000000
4.03227599 0.27124393 -0.00412904 0.00000000
2.56849913 1.56035575 0.00128883 0.00000000
1.88806545 1.54965790 -0.00279787 0.00000000
1.35548823 1.28196206 0.00147411 0.00000000
2.61055050 0.07353446 -0.00159058 0.00000000
1.55192455 0.80951078 -0.00070152 0.00000000
0.74001630 1.39801294 -0.00162046 0.00000000
0.46875562 0.23535327 0.00015779 0.00000000
3.80167979 1.36381598 -0.00127900 0.00000000
2.59712889 0.83892081 -0.00222299 0.00000000
3.07144627 0.04668595 0.00077132 0.00000000
0.86437762 1.19404644 0.00135014 0.00000000
0.15412777 0.06301905 -0.00160943 0.00000000
3.11471503 0.47398108 0.00083629 0.00000000
4.73570362 0.39717604 -0.00215096 0.00000000
0.71653144 0.22546441 -0.00200329 0.00000000
0.79404963 1.66806020 -0.00083486 0.00000000
0.69144735 0.08523753 -0.00032791 0.00000000
3.93294098 0.67970689 -0.00135061 0.00000000
1.99987019 0.98390179 0.00630143 0.00000000
3.18824356 0.45078455 0.00164277 0.00000000
3.23225367 0.34048447 0.00008929 0.00000000
4.03946606 1.20119437 0.00185376 0.00000000
0.64664022 1.51901777 -0.00076307 0.00000000
2.82207776 1.25057937 0.00013015 0.00000000
0.51824917 1.47256755 -0.00264021 0.00000000
1.35893439 0.70962863 0.00629372 0.00000000
0.83778109 1.47523562 0.00081708 0.00000000
1.47741231 0.27749407 -0.00465977 0.00000000
2.91444294 0.99110464 0.00484812 0.00000000
4.50975405 0.03523021 0.00345735 0.00000000
1.75216284 1.07086300 0.00065890 0.00000000
3.07880146 0.66709369 -0.00227115 0.00000000
2.02560978 0.29828012 -0.00363737 0.00000000
2.95898106 0.00315388 0.00369061 0.00000000
3.91782339 0.25858054 0.00058289 0.00000000
4.46401814 0.59345900 0.00262452 0.00000000
2.60179781 1.06920702 -0.00295363 0.00000000
2.08793127 0.86140194 -0.00056862 0.00000000
3.91586865 1.44639338 -0.00459636 0.00000000
3.66377288 1.25893103 0.00185117 0.00000000
2.56896975 0.10958062 0.00040764 0.00000000
4.32624596 1.13234416 -0.00029324 0.00000000
0.95096971 1.02429695 0.00146356 0.00000000
4.08237401 1.34405088 -0.00419172 0.00000000
0.64372265 0.35134444 0.00322714 0.00000000
3.67640581 1.54633031 0.00255274 0.00000000
4.18282607 0.08457735 0.00151661 0.00000000
1.90769168 0.62829833 -0.00045562 0.00000000
0.28517181 0.88720040 -0.00461055 0.00000000
3.24229558 1.25918145 0.00114337 0.00000000
3.57882485 1.10483746 -0.00011609 0.00000000
0.82661842 0.81332537 -0.00274622 0.00000000
4.43335182 1.11407944 0.00204547 0.00000000
1.18084830 0.18142626 -0.00127109 0.00000000
1.80889586 0.22478677 0.00484512 0.00000000
3.56857171 1.04713090 -0.00097329 0.00000000
2.31306741 1.41675399 -0.00079472 0.00000000
0.28068096 0.13228847 0.00293711 0.00000000
0.74971728 0.72187885 0.00185535 0.00000000
0.89597504 0.52332095 -0.00258142 0.00000000
0.30440695 0.43045002 -0.00038746 0.00000000
2.76153205 1.27818099 0.00177395 0.00000000
2.21511097 0.28755098 0.00101407 0.00000000
3.71018699 0.11267134 -0.00226652 0.00000000
1.31730633 1.14179936 -0.00226411 0.00000000
3.52062208 0.33344065 0.00169635 0.00000000
2.26095462 0.33856302 -0.00300127 0.00000000
3.40360299 1.35311768 0.00073233 0.00000000
4.76077834 1.06259744 0.00194490 0.00000000
4.55018318 1.47682066 -0.00056333 0.00000000
4.35684244 1.09459001 -0.00117623 0.00000000
1.24874464 0.24994405 0.00138723 0.00000000
3.82890724 0.60181432 -0.00057639 0.00000000
2.59385359 0.77934201 -0.00284134 0.00000000
4.22008516 0.11666821 -0.00472677 0.00000000
4.13891883 0.36625392 -0.00144306 0.00000000
2.29636299 0.77771704 0.00120114 0.00000000
1.34532007 0.80365574 -0.00334566 0.00000000
1.05929763 0.62132733 -0.00317965 0.00000000
1.29235960 0.59543691 0.00241509 0.00000000
3.47280948 0.27305959 -0.00073386 0.00000000
2.46997352 0.55513279 -0.00111182 0.00000000
1.22567060 0.86771359 0.00440656 0.00000000
4.55488852 0.58303492 0.00148235 0.00000000
4.66460885 1.14444683 0.00154855 0.00000000
0.83012202 0.51164836 -0.00217614 0.00000000
0.51756389 0.00328255 -0.00387704 0.00000000
0.64829515 0.51930213 -0.00048776 0.00000000
4.10425975 0.27741249 -0.00319440 0.00000000
1.04450018 1.07144972 -0.00121102 0.00000000
2.49661252 1.18830767 0.00259707 0.00000000
3.83008545 1.62517619 -0.00338538 0.00000000
3.21231010 0.78729983 -0.00346242 0.00000000
4.62927916 0.74140143 -0.00034278 0.00000000
1.01628032 0.67392419 -0.00388780 0.00000000
1.93461934 1.39003311 -0.00105300 0.00000000
3.12470331 1.62155108 0.00108622 0.00000000
3.90293764 1.02913348 0.00165499 0.00000000
3.84863080 0.26810014 0.00327498 0.00000000
3.44131402 1.07974712 -0.00019060 0.00000000
2.50905245 1.59727464 0.00033386 0.00000000
1.23665095 0.18239863 0.00362700 0.00000000
4.32310524 1.36231343 0.00252383 0.00000000
0.67514903 0.18057101 0.00146700 0.00000000
3.00558642 1.19287004 -0.00009920 0.00000000
1.03700861 1.57269970 -0.00022430 0.00000000
3.97224253 0.75611691 -0.00438726 0.00000000
1.13535139 0.85845491 0.00270467 0.00000000
2.57446845 0.57216275 -0.00249424 0.00000000
2.46245451 1.59216019 0.00265704 0.00000000
4.01090662 1.13550314 -0.00138932 0.00000000
2.77753810 0.65349929 -0.00086484 0.00000000
2.84815697 1.67858502 0.00162281 0.00000000
2.42450498 0.21398324 0.00081798 0.00000000
1.99120564 1.54522513 -0.00592262 0.00000000
0.61247172 1.62594360 0.00369335 0.00000000
2.39427316 1.33142431 -0.00293375 0.00000000
3.93412681 0.98209248 0.00254881 0.00000000
3.96387367 0.24956183 -0.00692233 0.00000000
4.27357090 1.46122006 0.00044407 0.00000000
4.59337871 0.72917937 -0.00453994 0.00000000
2.97087761 0.69245705 -0.00101345 0.00000000
0.92475112 0.52583003 -0.00283043 0.00000000
3.79839513 0.27709936 -0.00005577 0.00000000
2.24377759 0.51514096 -0.00008728 0.00000000
1.20180015 1.21795564 0.00062154 0.00000000
2.29536857 1.70008054 0.00209998 0.00000000
0.54292226 0.60823225 -0.00275712 0.00000000
2.99850228 1.21622014 0.00115487 0.00000000
0.76927729 1.09831953 -0.00037413 0.00000000
3.42024067 0.31025059 -0.00297767 0.00000000
1.51309097 0.75867155 0.00161340 0.00000000
3.36420755 0.03627344 -0.00202554 0.00000000
2.41575543 0.79053545 -0.00199518 0.00000000
1.31859967 1.09635553 -0.00520450 0.00000000
2.47288787 1.22210008 -0.00098521 0.00000000
0.26553678 0.78770731 0.00421089 0.00000000
3.99631577 0.60288227 -0.00272169 0.00000000
4.69889167 0.40734729 0.00069622 0.00000000
2.77836969 1.18915122 0.00177454 0.00000000
2.62470516 0.98425606 -0.00063352 0.00000000
