2.910482 1.496207 -0.000747 0.0
3.263990 1.313639 0.000033 0.0
0.908806 0.933658 -0.000836 0.0
0.563442 1.283341 0.002955 0.0
0.514441 1.139288 0.003539 0.0
2.089927 0.125789 -0.002578 0.0
3.287538 2.155524 -0.001135 0.0
3.061446 0.114428 0.003084 0.0
3.543784 0.531033 -0.002738 0.0
2.702936 0.948775 -0.000644 0.0
3.195576 0.840589 -0.001428 0.0
2.609099 1.170413 -0.002791 0.0
2.250857 1.728643 0.000656 0.0
3.183246 0.696350 -0.000672 0.0
1.446082 1.417758 -0.003045 0.0
0.294160 0.509523 -0.001048 0.0
1.022289 0.186900 -0.004015 0.0
3.063516 1.990289 -0.000846 0.0
0.563641 0.251385 0.001359 0.0
1.206252 1.539238 -0.004137 0.0
2.522839 0.525712 0.001546 0.0
2.176151 1.535493 -0.000589 0.0
1.370538 1.946636 0.000744 0.0
0.400128 0.954481 -0.000002 0.0
2.132421 0.203479 0.003194 0.0
3.761349 1.502069 0.000790 0.0
2.094251 0.029825 -0.000019 0.0
4.214438 1.146424 0.002442 0.0
2.322668 1.340489 -0.002998 0.0
3.540825 1.082448 0.000357 0.0
0.463864 0.181247 0.002201 0.0
4.213660 1.327240 -0.001059 0.0
0.911542 1.402286 -0.002648 0.0
3.423395 0.915382 -0.002650 0.0
1.302894 1.838227 0.001300 0.0
1.227473 0.235242 0.001935 0.0
1.016827 0.386037 0.002172 0.0
0.960090 1.900345 0.004777 0.0
3.989107 1.982077 -0.000044 0.0
4.109046 1.068189 0.006571 0.0
1.333619 1.791810 0.003350 0.0
3.448190 2.165799 -0.001271 0.0
1.220246 0.765898 0.000807 0.0
3.176948 1.843720 0.002181 0.0
2.835961 2.166990 -0.000293 0.0
0.008073 1.402537 -0.002495 0.0
0.490317 0.389025 0.000797 0.0
0.476824 0.637825 -0.002630 0.0
1.744324 1.104339 0.005146 0.0
2.558133 1.771176 -0.001127 0.0
1.881047 2.150107 -0.001832 0.0
3.815862 1.023533 0.001113 0.0
1.851279 0.997560 -0.001021 0.0
0.236752 0.808768 0.001786 0.0
0.568075 2.028411 0.004878 0.0
0.123646 1.286566 -0.002292 0.0
3.972125 0.611318 -0.000159 0.0
3.803307 2.112775 -0.005536 0.0
2.317514 0.523805 -0.002694 0.0
0.986771 2.133211 -0.001274 0.0
3.069111 1.888367 0.001371 0.0
3.376980 0.229758 -0.000319 0.0
3.608313 1.625886 -0.001352 0.0
3.614792 0.603840 -0.002443 0.0
3.863907 0.282913 -0.001324 0.0
1.868594 1.164275 -0.002868 0.0
1.147916 0.495732 0.001021 0.0
4.224173 1.484483 -0.001049 0.0
0.239089 1.996904 -0.000716 0.0
3.227127 0.273588 0.002515 0.0
3.362590 1.742017 0.000416 0.0
4.090351 0.890671 -0.003370 0.0
0.514018 1.494217 0.002326 0.0
0.817828 1.549983 0.002664 0.0
0.667955 1.880238 0.001589 0.0
1.344802 1.142115 0.005531 0.0
1.221923 1.988755 -0.001189 0.0
2.334483 0.789489 -0.000900 0.0
1.295620 1.535774 0.000309 0.0
1.385333 2.200773 -0.000519 0.0
0.801706 1.887493 -0.001921 0.0
1.852329 1.767899 -0.005895 0.0
4.070463 1.698457 0.002132 0.0
2.763491 0.269963 0.000455 0.0
0.961804 1.343403 -0.001926 0.0
0.655619 1.439180 0.001052 0.0
3.616883 0.849131 0.002097 0.0
0.228951 0.745578 -0.002744 0.0
2.807535 0.619480 -0.003207 0.0
0.804037 0.779304 -0.001528 0.0
3.506107 0.793547 0.001966 0.0
3.623137 1.784843 0.003949 0.0
3.610049 1.399596 0.002091 0.0
0.950236 1.917039 -0.002771 0.0
1.615546 0.707737 -0.000592 0.0
1.162911 1.666261 0.000531 0.0
2.221116 0.547141 -0.004429 0.0
1.130321 1.836017 0.001392 0.0
2.860140 0.595714 0.000991 0.0
2.994463 1.297481 0.001788 0.0
2.316046 1.788348 0.000237 0.0
2.507259 1.610436 0.000820 0.0
0.735148 1.753149 0.003080 0.0
2.190440 1.840525 -0.000869 0.0
0.859484 1.165882 -0.001727 0.0
1.006988 1.953671 0.003074 0.0
1.321278 1.224329 0.000789 0.0
2.200088 1.398820 0.000912 0.0
3.366662 1.303795 -0.002825 0.0
0.908665 0.462416 0.000769 0.0
0.292094 0.911616 -0.004493 0.0
2.014212 0.003269 -0.001043 0.0
0.782868 1.925222 -0.002868 0.0
2.353121 2.031123 0.000405 0.0
0.598715 0.011986 0.001205 0.0
0.562295 0.428060 -0.000506 0.0
1.493546 1.279984 0.000008 0.0
1.518430 0.299263 0.002379 0.0
1.990613 2.090514 -0.000083 0.0
1.830632 0.838493 0.002211 0.0
0.435993 0.815107 0.007485 0.0
2.981652 0.346947 0.005154 0.0
2.448005 1.207569 -0.000150 0.0
2.579906 1.225321 0.001330 0.0
0.816651 0.965198 -0.001890 0.0
3.061588 0.185587 0.001911 0.0
1.736608 1.993038 -0.000541 0.0
1.646240 0.989323 0.003314 0.0
2.464376 0.643441 -0.002138 0.0
3.603717 1.423686 -0.005194 0.0
1.678559 0.172984 -0.005811 0.0
4.120169 1.962912 -0.003482 0.0
0.374781 1.183499 0.002888 0.0
2.666499 1.204808 0.003011 0.0
2.220616 1.177812 0.001575 0.0
0.495203 0.510749 -0.000508 0.0
0.194420 1.735320 0.000376 0.0
0.304462 0.721189 -0.000975 0.0
0.650902 2.021697 0.004383 0.0
0.202296 1.376048 -0.001258 0.0
3.441081 1.973408 0.001042 0.0
3.805281 0.681420 0.002481 0.0
0.192820 1.082954 0.001676 0.0
3.119570 0.524384 -0.001628 0.0
0.110164 0.546032 0.001024 0.0
2.135668 2.052926 0.000306 0.0
2.936761 0.795301 0.003214 0.0
4.105942 0.271733 0.001764 0.0
3.070088 0.642945 0.003410 0.0
1.577323 0.017893 0.002559 0.0
4.109923 0.247517 0.002156 0.0
1.115296 2.169377 0.002709 0.0
1.384076 0.085827 0.002578 0.0
3.546947 0.857349 -0.003363 0.0
1.814015 0.651261 -0.002355 0.0
3.737343 2.110984 -0.002345 0.0
0.322347 1.016796 -0.005041 0.0
4.027324 0.574048 -0.004367 0.0
0.498525 1.849198 -0.001059 0.0
3.030403 1.423565 -0.003660 0.0
2.200175 0.011859 -0.000269 0.0
1.673487 1.361167 -0.003391 0.0
0.229288 0.702008 -0.000565 0.0
0.707222 1.474723 0.000650 0.0
2.077302 1.034856 -0.002466 0.0
0.715729 0.351043 0.001818 0.0
0.214068 1.882370 -0.002347 0.0
3.405443 1.637173 -0.001696 0.0
2.948989 1.779430 0.000759 0.0
3.674825 0.765048 0.002602 0.0
0.145740 0.149915 0.000777 0.0
2.354790 1.029591 0.002087 0.0
2.440177 1.042775 -0.000355 0.0
3.569819 2.103788 -0.003489 0.0
2.726799 0.730966 -0.001806 0.0
0.408041 1.140663 -0.001200 0.0
2.827446 0.452770 0.001768 0.0
0.743552 0.376228 0.002666 0.0
3.987656 1.328750 -0.001193 0.0
1.320968 0.100933 -0.003209 0.0
3.470304 1.734326 -0.000512 0.0
1.573125 1.449736 -0.001801 0.0
0.571968 0.488966 0.001164 0.0
0.782520 2.118183 0.001764 0.0
1.777804 1.548375 0.000606 0.0
2.806292 0.518332 -0.000017 0.0
3.393773 0.756826 -0.003353 0.0
2.263218 0.511781 0.000247 0.0
2.891084 1.170502 0.003564 0.0
2.739295 0.806981 0.001476 0.0
0.063937 1.623462 0.004038 0.0
4.080596 1.286635 0.004041 0.0
2.038697 1.570755 0.000250 0.0
3.942424 1.875326 0.004280 0.0
0.572356 0.585933 0.003495 0.0
1.945736 0.787058 0.000973 0.0
0.222166 2.193460 -0.000659 0.0
3.854887 0.534676 -0.000936 0.0
0.097191 1.873700 0.002659 0.0
2.992090 1.443555 -0.003413 0.0
0.422413 0.693455 0.003196 0.0
4.053374 0.786769 0.001295 0.0
1.695690 1.132885 0.001853 0.0
0.835816 2.202331 -0.000817 0.0
2.117155 1.497813 -0.000039 0.0
1.773472 0.238880 -0.001176 0.0
3.828267 2.185333 -0.000266 0.0
2.804559 0.487979 0.003046 0.0
1.342075 1.659174 0.001257 0.0
2.209594 2.121098 0.000513 0.0
4.010143 1.579368 -0.002940 0.0
2.025821 0.055833 -0.000022 0.0
0.503376 0.567336 0.002545 0.0
2.590551 1.859002 -0.005201 0.0
0.477256 1.284137 0.000266 0.0
3.113887 1.957376 -0.002237 0.0
1.301825 1.983304 -0.004983 0.0
3.952861 2.095549 0.001172 0.0
3.419155 1.971471 0.000063 0.0
3.236110 1.306848 -0.003457 0.0
2.033609 0.048079 0.000097 0.0
1.701198 0.539082 0.003378 0.0
2.113903 0.557689 0.001830 0.0
4.011730 0.668034 -0.000434 0.0
3.201541 0.704310 0.002860 0.0
0.405574 0.823723 -0.001385 0.0
2.049489 1.314321 -0.000275 0.0
3.078180 0.112173 0.001307 0.0
1.909321 1.005832 -0.003467 0.0
2.002631 1.121134 0.000718 0.0
3.805644 2.139347 -0.000806 0.0
2.650113 1.132409 -0.000242 0.0
1.834370 0.144878 0.005477 0.0
3.411648 1.232196 0.005627 0.0
1.972989 0.099480 0.002085 0.0
4.011552 1.080773 0.000498 0.0
0.172963 1.605741 0.003015 0.0
3.958620 1.064906 -0.006053 0.0
2.066908 1.383977 -0.008293 0.0
3.709848 0.985286 0.000143 0.0
2.439579 1.145937 0.002071 0.0
0.449512 1.003296 -0.001330 0.0
3.345555 0.827419 -0.005990 0.0
0.600578 0.911309 -0.001222 0.0
1.939117 1.143290 -0.000366 0.0
4.005674 2.225087 0.000252 0.0
0.492833 2.075665 -0.003737 0.0
0.543809 1.584447 -0.000227 0.0
1.944975 1.696533 0.000743 0.0
4.189975 0.737708 -0.000069 0.0
0.338694 0.561805 -0.000785 0.0
3.712721 0.046351 -0.001956 0.0
4.106426 1.360677 0.000822 0.0
2.514686 1.869703 -0.000339 0.0
1.235461 2.214528 0.001287 0.0
3.237383 1.738216 -0.000321 0.0
3.228986 1.950950 -0.002169 0.0
1.137918 1.851464 -0.000475 0.0
0.279163 1.375286 -0.000057 0.0
0.185519 1.836007 0.001622 0.0
4.210658 1.864352 0.000294 0.0
3.891791 0.665185 0.000637 0.0
3.098032 0.344607 -0.002669 0.0
0.837453 0.912980 0.001048 0.0
3.810475 1.732901 -0.000317 0.0
0.478261 0.072608 -0.001357 0.0
0.067839 1.302264 0.003067 0.0
2.555453 1.576227 -0.001399 0.0
0.608095 1.130912 0.002631 0.0
2.351309 0.824340 0.000464 0.0
2.570394 0.838763 0.002511 0.0
3.133306 1.186955 -0.001286 0.0
3.254173 0.406454 -0.000164 0.0
1.192202 2.144810 0.000733 0.0
0.738660 0.071299 -0.000110 0.0
3.830730 0.797342 0.001553 0.0
3.507793 1.475192 -0.001469 0.0
0.684166 2.003500 0.003845 0.0
4.161720 2.004717 0.003396 0.0
3.049603 0.776754 -0.003962 0.0
1.331037 1.575364 -0.001518 0.0
2.263647 0.481142 0.001596 0.0
0.901668 0.007705 0.000569 0.0
1.231042 0.174616 0.003473 0.0
3.299007 0.882015 0.000860 0.0
0.210194 1.782135 -0.000403 0.0
3.120866 2.109724 -0.001565 0.0
2.678492 1.065159 -0.002608 0.0
0.941115 1.870227 -0.001857 0.0
3.219131 0.015092 0.003800 0.0
1.952677 1.677306 -0.003460 0.0
0.766130 1.346805 -0.001403 0.0
0.550379 1.831113 0.001703 0.0
3.478118 0.285886 -0.001429 0.0
0.605104 0.084644 0.000910 0.0
3.610926 0.184261 -0.000636 0.0
0.783273 0.673861 -0.004943 0.0
3.664935 1.707264 -0.000263 0.0
0.615954 2.011031 -0.002099 0.0
3.859979 1.984366 0.001665 0.0
2.229562 0.485938 0.000250 0.0
0.486224 1.656403 -0.000601 0.0
3.195827 1.165907 -0.003181 0.0
1.819343 0.390648 -0.002466 0.0
3.724584 0.602524 -0.003852 0.0
0.814983 1.135061 0.000524 0.0
2.138531 0.047469 0.001809 0.0
3.137813 2.167534 0.001929 0.0
0.014194 0.989855 -0.001667 0.0
0.337978 1.054070 0.002289 0.0
3.923142 1.850653 -0.002552 0.0
2.885301 1.844310 -0.002881 0.0
2.650824 0.222546 -0.004631 0.0
1.980504 1.472406 -0.001165 0.0
1.378830 1.282823 -0.002712 0.0
3.781393 0.732505 -0.005932 0.0
3.011505 1.485050 0.000141 0.0
2.639276 1.150662 0.001063 0.0
1.243106 0.070528 -0.001086 0.0
1.339736 0.441533 -0.003398 0.0
2.704136 0.968450 -0.000457 0.0
3.964685 1.590643 -0.003545 0.0
3.135253 1.860970 0.003766 0.0
2.669020 0.461249 0.001629 0.0
3.191432 0.311478 0.001871 0.0
2.972765 1.616292 -0.005591 0.0
4.053758 0.168604 0.001029 0.0
2.279948 0.725459 0.005361 0.0
2.451644 0.648333 -0.003870 0.0
0.064068 0.205496 -0.000403 0.0
3.236094 0.116879 -0.002471 0.0
3.041173 0.800361 0.000770 0.0
1.626595 1.022909 0.000180 0.0
0.040421 1.491472 -0.003388 0.0
1.523761 1.684915 -0.000724 0.0
1.675303 0.806974 0.001410 0.0
2.430110 1.832852 0.002391 0.0
0.870331 0.608372 -0.004314 0.0
2.262536 1.112631 0.003066 0.0
0.485529 1.037275 0.002754 0.0
1.585965 0.686190 0.000772 0.0
1.250941 1.545261 0.003060 0.0
2.789223 1.400608 0.000853 0.0
0.417191 0.229515 0.000521 0.0
2.715371 1.898454 0.000659 0.0
0.053904 1.527578 0.000119 0.0
2.221601 0.012770 -0.001859 0.0
1.525467 0.810654 0.002244 0.0
1.020727 0.308781 0.000260 0.0
3.489180 0.363707 0.003048 0.0
0.661933 1.719357 0.001349 0.0
0.906171 1.261112 -0.000731 0.0
3.588723 0.269566 0.001330 0.0
2.883309 1.886481 -0.000390 0.0
0.799221 0.155678 -0.004081 0.0
1.406919 0.272407 0.001617 0.0
3.895765 1.928486 0.000952 0.0
2.457743 1.089723 -0.001100 0.0
4.176144 0.473139 0.001541 0.0
2.118697 2.059147 -0.000083 0.0
3.330065 2.184402 0.002169 0.0
3.531359 0.744868 -0.001838 0.0
1.370102 0.549199 -0.003005 0.0
1.646970 1.755210 -0.002978 0.0
1.247192 0.839208 0.002829 0.0
4.085921 0.341294 -0.000406 0.0
0.036146 0.024756 -0.000907 0.0
3.420841 1.224382 0.000488 0.0
0.833916 1.022817 -0.001591 0.0
1.322971 1.864682 0.001606 0.0
2.549045 1.117887 0.002181 0.0
3.786691 1.551106 0.003651 0.0
3.719475 0.812269 -0.000844 0.0
1.457265 0.914307 -0.000500 0.0
1.111888 0.101218 0.001051 0.0
1.376845 2.166052 -0.000694 0.0
4.043766 0.823393 0.001487 0.0
2.214116 2.118423 -0.001041 0.0
0.412947 1.816979 -0.000302 0.0
1.664875 1.146955 0.000847 0.0
1.905942 0.384852 0.003954 0.0
2.308965 1.758029 -0.001772 0.0
3.235502 0.606624 -0.001950 0.0
2.126380 1.489112 -0.001561 0.0
1.551976 0.481875 0.003024 0.0
4.029230 2.135608 -0.000205 0.0
3.994866 0.491984 -0.006126 0.0
2.336485 1.347047 0.002488 0.0
3.591601 1.840468 0.000202 0.0
3.146848 1.177747 0.001456 0.0
0.758189 1.860414 -0.000943 0.0
2.182043 1.216372 -0.002711 0.0
0.436635 2.059014 -0.003697 0.0
2.514002 1.831290 -0.005189 0.0
0.749613 1.686417 0.002030 0.0
0.603748 1.738724 0.000179 0.0
4.174692 1.411222 0.002867 0.0
2.753103 1.919937 -0.000152 0.0
3.062406 0.650635 0.001731 0.0
3.337154 0.438071 0.003605 0.0
0.136213 0.306001 -0.004107 0.0
0.016217 0.056565 0.001301 0.0
2.214507 1.806001 0.001969 0.0
2.102044 0.535441 -0.000477 0.0
3.996027 0.876377 0.003943 0.0
1.957436 1.543831 -0.007139 0.0
1.199762 1.981210 0.004173 0.0
3.339952 1.660054 -0.000476 0.0
3.017034 0.363514 -0.000551 0.0
2.829507 0.554835 -0.001250 0.0
0.284932 0.637663 0.000701 0.0
3.193903 0.848911 0.001089 0.0
3.401289 2.064847 -0.003008 0.0
3.120838 2.206085 -0.000146 0.0
0.623270 1.852179 -0.002279 0.0
0.443205 1.136914 -0.000625 0.0
0.202771 1.030025 0.000930 0.0
1.595635 0.642851 0.003078 0.0
1.555591 0.298529 -0.001508 0.0
2.340604 0.936671 0.001215 0.0
1.188280 2.088399 0.002738 0.0
0.749339 0.337594 -0.000188 0.0
1.989971 1.310177 0.000635 0.0
3.448288 0.794990 0.000990 0.0
2.642933 0.060979 -0.000550 0.0
2.450918 1.879926 0.001635 0.0
2.260654 1.198212 0.003659 0.0
2.333852 1.312302 -0.001117 0.0
1.768201 1.299988 -0.001344 0.0
3.114566 1.319682 0.004058 0.0
2.746610 2.197053 -0.001630 0.0
3.770394 1.631454 0.000654 0.0
3.214396 1.627167 -0.003219 0.0
2.362263 0.676816 0.000085 0.0
1.818669 1.706997 0.000916 0.0
2.192848 1.260255 0.001287 0.0
3.574568 0.050957 -0.003277 0.0
0.619332 1.663056 -0.004358 0.0
2.436821 2.096732 0.000231 0.0
3.485543 1.328242 -0.001064 0.0
3.046834 0.462724 -0.000549 0.0
0.379685 0.820851 0.000441 0.0
2.113615 1.272744 -0.001352 0.0
2.269830 1.486378 0.001534 0.0
3.542356 1.796312 -0.003311 0.0
3.434863 1.619836 -0.001746 0.0
1.986331 0.366097 0.002273 0.0
1.717703 1.308383 -0.000658 0.0
2.607287 0.573136 -0.001133 0.0
0.209639 1.827868 -0.004974 0.0
0.640613 1.238774 -0.007285 0.0
2.841193 0.779128 0.001294 0.0
1.515088 1.552471 0.003319 0.0
3.453074 1.765787 0.002941 0.0
1.349735 1.224034 -0.003334 0.0
3.651436 0.875939 -0.002663 0.0
1.702236 0.059408 0.002220 0.0
2.579242 1.259495 -0.000617 0.0
2.563346 0.998867 0.001137 0.0
0.484776 0.720081 -0.002947 0.0
3.862917 1.099262 -0.001614 0.0
1.159537 0.286123 -0.001263 0.0
0.678854 2.075654 0.002679 0.0
3.746222 0.154842 -0.001026 0.0
2.753131 0.048184 -0.000450 0.0
3.446148 1.611481 0.003220 0.0
2.755123 0.057067 -0.000253 0.0
2.353205 0.156503 -0.000474 0.0
0.087414 0.173510 -0.000625 0.0
3.805601 0.313875 -0.002597 0.0
1.569471 1.680609 0.000327 0.0
3.975972 0.346808 -0.000157 0.0
1.293231 1.469332 -0.001837 0.0
3.629366 0.121785 0.003078 0.0
2.382124 0.388255 0.002323 0.0
1.342053 0.887292 -0.001357 0.0
1.551132 1.156535 -0.001454 0.0
2.808103 1.453272 -0.000811 0.0
0.495532 0.424394 0.002202 0.0
2.750974 0.222277 0.006984 0.0
3.065945 2.084184 0.004640 0.0
3.473451 0.774671 0.000746 0.0
1.340180 1.480681 0.002929 0.0
3.559572 0.984068 -0.002559 0.0
0.245362 1.906607 0.005218 0.0
0.539839 0.799076 0.001742 0.0
4.155682 0.121864 0.002488 0.0
0.464795 1.631090 0.003332 0.0
3.549285 0.215160 -0.004254 0.0
1.219537 1.600651 0.003624 0.0
4.214211 1.821695 0.001905 0.0
0.223977 1.944753 0.000757 0.0
0.055019 0.140965 -0.004332 0.0
2.246847 1.108900 -0.004370 0.0
0.270045 1.252002 -0.001135 0.0
0.912556 1.076434 -0.001267 0.0
1.864157 0.237303 0.002795 0.0
2.401405 2.117144 -0.000777 0.0
2.928912 0.784858 -0.001357 0.0
4.024352 1.989353 -0.003666 0.0
2.116943 1.851276 0.000728 0.0
1.837821 0.223621 -0.003103 0.0
3.464263 2.122467 -0.001459 0.0
2.795979 1.294003 -0.000298 0.0
0.515016 0.972149 -0.001958 0.0
0.344168 1.873114 0.001446 0.0
2.067098 1.165781 0.001373 0.0
3.199083 0.632194 0.001951 0.0
0.595825 1.284016 -0.000540 0.0
2.274423 2.135682 -0.000606 0.0
0.783331 0.311777 0.001372 0.0
1.276325 0.004269 -0.002362 0.0
3.105572 0.296935 -0.000538 0.0
4.144706 1.798051 -0.002693 0.0
1.030841 2.144974 -0.002934 0.0
1.582785 0.786776 0.000963 0.0
2.607227 2.028430 -0.004753 0.0
1.169594 0.579122 0.001145 0.0
1.782067 1.283429 0.004907 0.0
2.307678 1.353612 -0.000329 0.0
3.443820 0.346220 -0.001605 0.0
0.732414 1.308502 0.005482 0.0
0.851061 0.055517 -0.002653 0.0
0.489444 0.201671 -0.000261 0.0
0.583038 0.714079 0.000327 0.0
1.298040 1.865503 0.000066 0.0
3.554281 0.467285 0.000864 0.0
4.119105 0.651344 0.002484 0.0
2.277859 1.946591 0.005568 0.0
1.403242 0.754172 0.006239 0.0
1.660556 1.424083 0.002080 0.0
3.970618 1.042679 0.003198 0.0
0.588505 0.418973 -0.001692 0.0
3.186967 0.862984 0.002832 0.0
3.762288 1.138717 -0.000018 0.0
2.400939 0.515471 -0.001243 0.0
0.421731 1.063028 0.003146 0.0
1.586955 2.150972 -0.001085 0.0
0.190531 1.690037 -0.002020 0.0
1.019710 0.041626 -0.000139 0.0
0.440473 1.693328 0.001076 0.0
1.327373 2.125694 0.002537 0.0
1.006643 1.572225 -0.000039 0.0
2.484970 1.030758 0.000155 0.0
1.901670 0.311936 -0.000635 0.0
4.112811 0.656267 -0.000242 0.0
1.774919 0.753939 0.003772 0.0
0.367138 1.744461 -0.000616 0.0
2.410312 1.096832 0.004040 0.0
3.263042 0.998038 -0.001376 0.0
3.059319 1.466738 -0.002753 0.0
2.406478 2.199135 -0.002077 0.0
4.217110 1.709281 -0.002430 0.0
1.348395 1.705857 -0.001599 0.0
2.676273 0.954387 -0.000956 0.0
0.404308 0.538853 -0.001972 0.0
3.231165 2.012858 -0.001552 0.0
0.141213 1.768607 -0.002273 0.0
1.797194 1.161503 -0.000020 0.0
0.794395 0.698495 -0.000265 0.0
2.401743 1.257877 0.000332 0.0
1.409457 0.479250 -0.004451 0.0
2.148738 1.586704 0.002471 0.0
1.370361 0.659859 0.000257 0.0
1.102567 1.970593 -0.002458 0.0
2.936762 1.825803 0.001713 0.0
0.963990 0.170639 -0.000613 0.0
0.369446 0.776994 -0.000434 0.0
3.068427 0.836071 -0.002031 0.0
3.743061 0.175428 -0.000024 0.0
3.813795 0.148960 0.001790 0.0
2.787783 0.548243 0.000927 0.0
0.813804 0.869528 -0.003544 0.0
0.897369 1.474473 -0.002717 0.0
2.390526 1.472076 -0.001505 0.0
1.610116 0.507002 -0.001856 0.0
1.583669 0.850979 -0.000774 0.0
3.692680 2.113114 0.001762 0.0
3.267369 1.416486 -0.001582 0.0
1.276206 0.571307 0.002621 0.0
0.193000 2.044886 0.000382 0.0
4.073607 0.348417 0.001310 0.0
3.898814 1.147085 0.003650 0.0
0.427105 1.925583 0.000674 0.0
0.049278 0.499313 0.000744 0.0
0.284301 0.628764 -0.001943 0.0
1.118672 1.864028 -0.002347 0.0
2.621981 0.888379 0.002604 0.0
0.344664 0.971975 -0.000666 0.0
0.799947 0.597057 -0.003389 0.0
1.676948 0.690137 0.000202 0.0
1.496292 1.321689 -0.000622 0.0
0.928520 1.903698 -0.003536 0.0
3.799281 1.794475 0.004390 0.0
0.779927 0.456162 0.002066 0.0
0.952192 1.413074 -0.004383 0.0
0.501409 2.068865 -0.008024 0.0
2.041239 0.055073 0.003899 0.0
2.277517 0.698049 -0.000006 0.0
0.948199 0.095687 -0.003756 0.0
1.893688 0.764832 -0.001976 0.0
3.785302 0.755740 -0.000050 0.0
4.003798 0.074570 -0.001573 0.0
2.563570 0.079021 -0.001439 0.0
3.302717 1.011312 0.001573 0.0
3.654799 0.048120 0.001645 0.0
3.383595 0.568211 0.001321 0.0
0.771007 0.501838 0.002947 0.0
3.219643 1.156381 0.004631 0.0
2.311249 2.058985 0.000646 0.0
0.623673 0.336548 0.002316 0.0
2.855021 0.872487 -0.005873 0.0
0.962047 0.752959 0.001010 0.0
1.930879 1.886204 -0.001432 0.0
1.307563 1.765438 0.001312 0.0
4.230679 1.864086 -0.001038 0.0
2.202267 0.642407 0.000207 0.0
3.735934 1.547048 -0.000911 0.0
1.056124 0.479706 0.000779 0.0
3.230426 0.450014 -0.004232 0.0
3.451525 0.926858 0.004052 0.0
1.711475 1.684051 -0.004328 0.0
2.080862 0.510652 -0.002777 0.0
1.966181 0.864891 0.003950 0.0
1.473164 1.440916 -0.000385 0.0
1.113152 1.321518 0.003110 0.0
1.075013 0.963464 0.001597 0.0
3.136962 1.408675 0.000599 0.0
3.378836 0.214125 -0.002324 0.0
3.156142 1.016132 0.004109 0.0
2.220286 0.053526 -0.001477 0.0
0.808647 1.722860 0.003465 0.0
1.814012 1.655057 0.000962 0.0
0.121302 0.362667 0.002057 0.0
3.478617 0.895340 -0.000977 0.0
3.482465 1.718181 -0.001835 0.0
2.945269 0.397094 0.000774 0.0
1.613594 0.681681 0.002419 0.0
0.502705 2.201113 -0.002868 0.0
1.084271 0.007457 -0.003653 0.0
2.618451 1.001166 0.001714 0.0
2.568953 1.979855 -0.003594 0.0
1.529424 0.713724 -0.002410 0.0
2.109492 1.600925 -0.001108 0.0
1.175063 1.215784 0.002927 0.0
1.862490 1.180375 -0.001636 0.0
3.504066 1.093506 -0.002573 0.0
2.558369 1.435865 0.006170 0.0
2.168466 1.318997 0.000412 0.0
0.304867 1.430910 -0.002201 0.0
3.642150 0.635293 0.002319 0.0
2.528851 0.637878 0.001288 0.0
0.456933 0.644843 0.002099 0.0
2.555452 1.333814 -0.004786 0.0
1.727308 1.788039 -0.000468 0.0
1.308254 1.153523 -0.000571 0.0
2.651030 1.179609 0.003745 0.0
0.934068 0.991475 -0.002323 0.0
3.479707 1.227351 -0.001158 0.0
1.283954 2.090288 0.003859 0.0
3.515730 0.767082 0.001333 0.0
0.076077 1.322907 -0.000645 0.0
4.168438 1.779734 0.003200 0.0
3.122245 1.699467 0.000837 0.0
3.565599 1.222984 0.001155 0.0
1.420246 1.955306 0.000786 0.0
1.242868 2.066216 0.001156 0.0
3.436626 1.749909 0.004923 0.0
0.531170 1.808401 0.001960 0.0
0.987153 1.284250 -0.003120 0.0
3.990791 2.072358 -0.003130 0.0
1.614209 0.243873 0.001344 0.0
1.654681 1.522916 0.001401 0.0
1.960946 0.416109 -0.001667 0.0
0.603384 0.131767 0.002541 0.0
1.734555 1.095737 -0.002985 0.0
3.723565 1.181838 0.005394 0.0
3.379542 1.833464 -0.003854 0.0
0.752683 0.082767 -0.001028 0.0
4.231977 1.461920 0.000060 0.0
0.287958 0.015704 0.003628 0.0
0.638415 1.511808 -0.001629 0.0
0.182759 1.298052 -0.004898 0.0
1.344041 2.118549 -0.002363 0.0
0.651747 0.322086 0.003714 0.0
0.394134 1.888976 0.000926 0.0
1.369071 0.105428 0.002619 0.0
0.111776 0.842453 -0.004074 0.0
0.972273 1.475025 -0.001646 0.0
1.312625 0.837610 0.001886 0.0
0.631064 1.130309 0.004573 0.0
0.875480 0.234582 0.000228 0.0
3.098842 0.600887 -0.004606 0.0
2.821698 0.673916 0.002067 0.0
3.865866 1.638647 -0.000330 0.0
2.207973 1.984225 0.003584 0.0
0.697230 0.850737 0.001933 0.0
3.846653 1.613347 -0.003097 0.0
3.417152 0.326280 0.002055 0.0
2.264271 0.377356 -0.000381 0.0
1.544146 1.571414 -0.000032 0.0
1.556554 2.006913 -0.000280 0.0
0.153619 1.103562 0.000354 0.0
1.127772 0.349711 -0.001665 0.0
2.759997 1.502262 0.003336 0.0
3.909341 0.246891 -0.003827 0.0
3.029425 0.129317 0.004278 0.0
0.226488 0.436681 0.002857 0.0
0.152715 1.764028 -0.001556 0.0
0.046478 2.169800 0.000294 0.0
1.047833 0.231483 -0.004108 0.0
2.428855 0.840194 0.002183 0.0
2.765108 1.543506 0.002041 0.0
1.986074 0.195721 0.003328 0.0
2.413131 1.994080 0.000017 0.0
1.549513 1.573340 0.002404 0.0
0.609116 0.263239 0.000303 0.0
0.538616 1.565305 -0.002450 0.0
0.202488 1.007570 0.000858 0.0
3.164147 1.623542 -0.002531 0.0
3.069498 1.834840 0.001236 0.0
0.960830 1.825119 -0.003647 0.0
1.491279 0.524944 0.000817 0.0
1.792961 2.005507 -0.002134 0.0
2.243268 1.927958 -0.002513 0.0
2.783395 1.049007 -0.005845 0.0
0.118870 0.667555 0.003099 0.0
2.378963 1.109366 0.001976 0.0
2.091059 1.239560 -0.000616 0.0
2.977318 0.825291 0.001589 0.0
2.344259 1.396766 0.002466 0.0
3.732337 0.291103 0.001736 0.0
3.675942 1.328371 -0.000532 0.0
2.640871 0.698822 0.000885 0.0
1.566930 1.100333 -0.001079 0.0
1.664247 0.160341 -0.001468 0.0
0.755477 0.548002 -0.000954 0.0
2.914706 0.417330 -0.000276 0.0
0.023762 2.000859 0.003207 0.0
1.076888 0.561490 -0.002112 0.0
2.072092 0.921747 -0.002169 0.0
2.524466 2.010216 -0.004750 0.0
3.811703 0.715112 -0.001406 0.0
3.617859 0.525970 -0.001079 0.0
2.420231 0.935077 0.002716 0.0
0.291657 1.604194 -0.003913 0.0
0.070947 0.521802 0.003499 0.0
2.842288 1.792814 -0.002613 0.0
1.183296 0.069518 0.001055 0.0
0.637565 0.291740 0.003274 0.0
0.003112 0.596395 -0.000107 0.0
3.212425 1.034895 -0.000950 0.0
3.650995 1.368159 0.002018 0.0
3.429455 2.000332 0.000150 0.0
3.123167 1.342931 0.001075 0.0
2.556403 1.251099 -0.002077 0.0
0.252330 1.276364 -0.000289 0.0
2.294163 0.041794 0.001703 0.0
2.497532 1.304030 -0.000274 0.0
1.489539 2.138900 -0.001402 0.0
3.744127 0.666453 0.001226 0.0
0.916101 0.933409 0.002650 0.0
0.975117 0.947932 -0.005591 0.0
4.034550 2.130002 0.000424 0.0
1.376838 0.810360 -0.003636 0.0
2.222652 0.287085 0.001109 0.0
2.618217 2.014557 0.000985 0.0
3.244072 0.835985 0.003037 0.0
0.610238 1.120189 0.001749 0.0
4.222180 0.110358 -0.000661 0.0
3.538010 0.273866 -0.000476 0.0
0.227649 0.453695 0.000208 0.0
1.587592 0.367323 -0.000562 0.0
1.055195 0.814332 0.001661 0.0
2.467981 1.454488 -0.000028 0.0
4.118802 1.493406 0.001255 0.0
2.906788 0.060301 -0.001197 0.0
0.832596 0.348161 -0.000908 0.0
1.463696 0.734173 -0.003206 0.0
2.867435 0.853316 -0.000613 0.0
1.630203 2.117914 -0.003924 0.0
0.265209 1.727726 -0.000449 0.0
3.962251 2.076965 -0.000239 0.0
2.593415 1.655321 -0.000092 0.0
0.855550 2.012690 -0.001234 0.0
2.716146 1.499400 -0.000344 0.0
3.645666 0.934252 0.001832 0.0
0.144587 2.168649 0.000728 0.0
3.328957 2.172237 0.000265 0.0
2.741311 1.764450 -0.003906 0.0
4.170504 0.417274 0.003986 0.0
1.300923 2.019085 0.000012 0.0
2.674906 0.844183 0.001818 0.0
3.623371 1.226906 0.000912 0.0
1.399516 0.087075 0.004559 0.0
2.545783 1.423433 -0.000794 0.0
2.532856 1.625947 -0.003190 0.0
3.991274 0.734679 -0.006377 0.0
2.004633 1.715070 0.002760 0.0
3.239408 1.848579 -0.003133 0.0
2.940280 1.415637 0.000592 0.0
2.591574 1.154420 -0.000528 0.0
2.727718 1.762629 -0.004480 0.0
2.989011 1.906397 -0.002514 0.0
1.189720 0.798325 0.000429 0.0
0.508971 0.472047 0.001770 0.0
3.711056 0.729345 -0.001681 0.0
2.777592 0.099652 -0.000327 0.0
3.978325 1.095600 -0.001172 0.0
0.256556 1.928522 -0.000934 0.0
2.892113 1.889790 -0.001597 0.0
0.015026 1.575067 0.001659 0.0
0.093519 0.646591 -0.002923 0.0
1.821128 2.095995 0.001609 0.0
1.654940 1.123241 -0.000199 0.0
2.532210 1.202513 -0.002545 0.0
0.602894 0.863999 0.001688 0.0
0.840395 0.413769 -0.000449 0.0
2.822565 1.745597 -0.002744 0.0
3.276525 1.155494 0.001737 0.0
2.586689 0.459418 -0.002706 0.0
0.226243 0.341712 -0.001042 0.0
1.737039 1.141999 -0.000719 0.0
4.169096 0.924944 0.000573 0.0
0.589289 1.083255 0.000725 0.0
1.462928 1.740882 -0.000934 0.0
1.204418 2.108877 0.000933 0.0
0.974184 0.412954 0.000874 0.0
2.702682 0.836103 0.002322 0.0
0.600141 1.256113 -0.001108 0.0
4.086051 1.541960 0.001878 0.0
2.457422 0.128624 0.001160 0.0
0.511459 0.968733 0.001987 0.0
3.830542 0.474202 -0.003260 0.0
1.537582 2.225591 -0.000741 0.0
3.454917 0.178591 0.003459 0.0
0.895853 2.098097 0.001175 0.0
4.149870 2.149522 0.002692 0.0
0.364500 1.293325 -0.003351 0.0
1.728388 0.061734 -0.001788 0.0
1.454920 1.252693 -0.004242 0.0
4.058238 2.052044 -0.000482 0.0
0.818583 0.860852 0.003054 0.0
0.533485 1.463039 -0.003044 0.0
2.661180 1.730026 -0.000396 0.0
2.083481 0.488261 0.000207 0.0
3.094755 1.587544 -0.000521 0.0
1.885651 0.848257 0.001971 0.0
1.351776 1.463124 0.002488 0.0
1.492766 0.821331 0.001042 0.0
3.698022 1.632467 -0.000143 0.0
1.102538 0.030110 0.000334 0.0
0.097626 1.437137 -0.001964 0.0
0.454132 0.765961 -0.000933 0.0
1.134398 0.874231 0.002396 0.0
1.862706 1.163745 -0.002547 0.0
3.550399 1.688483 -0.002076 0.0
1.567736 0.521972 -0.002342 0.0
1.666847 1.310764 0.001331 0.0
0.543990 0.446734 -0.001828 0.0
3.580173 1.702099 0.001886 0.0
2.125759 0.345491 0.000577 0.0
0.679545 0.111231 0.000389 0.0
2.048141 1.973642 -0.001639 0.0
3.607578 0.067738 0.000638 0.0
2.135152 1.733948 0.000603 0.0
3.501129 1.512598 -0.002848 0.0
0.319746 1.289331 -0.001178 0.0
2.373750 1.432634 0.000526 0.0
4.043594 1.830802 -0.001020 0.0
4.098433 1.260513 -0.001509 0.0
2.853240 0.744718 -0.004950 0.0
0.409936 1.219778 0.002862 0.0
3.495219 0.699976 -0.003098 0.0
1.521275 0.687521 -0.004074 0.0
0.441852 1.722104 0.001402 0.0
3.400448 0.767601 0.001964 0.0
0.995262 2.019550 0.003285 0.0
3.951492 0.391922 -0.000638 0.0
0.062131 1.394382 0.002954 0.0
0.026963 0.121531 0.003688 0.0
0.412479 0.467566 -0.000460 0.0
2.009073 1.455549 0.000499 0.0
2.186223 2.036183 0.000138 0.0
1.071563 0.592042 -0.000422 0.0
0.787972 2.174014 -0.001875 0.0
3.379933 1.993387 -0.001749 0.0
0.117820 0.790610 -0.002755 0.0
0.563438 1.140784 0.001614 0.0
0.188293 2.106426 0.003382 0.0
4.054647 1.097768 -0.002410 0.0
3.632236 1.646456 0.003542 0.0
3.911483 1.452133 -0.001231 0.0
1.162099 0.120645 0.000888 0.0
3.235856 0.972505 -0.000342 0.0
3.971525 0.623804 0.002865 0.0
0.464142 1.189068 -0.000289 0.0
1.303585 2.121967 0.002820 0.0
2.650340 1.590540 -0.001334 0.0
2.335741 1.375740 0.002972 0.0
3.066633 0.437047 -0.000043 0.0
0.269730 0.381909 -0.000105 0.0
2.858620 0.758702 -0.000934 0.0
1.644181 0.996631 -0.000188 0.0
0.240168 0.446162 0.000736 0.0
1.747841 2.138086 0.002596 0.0
1.164458 0.332158 0.000928 0.0
3.252009 0.967226 0.001491 0.0
3.449475 1.230336 -0.001592 0.0
4.047044 1.755297 0.003398 0.0
0.450480 0.743089 -0.000491 0.0
0.218114 1.542676 0.000595 0.0
2.335717 2.161967 0.000250 0.0
1.657513 2.059847 -0.000320 0.0
2.765227 0.491151 0.001113 0.0
3.182419 0.593823 -0.001885 0.0
4.111535 0.718741 -0.001273 0.0
3.709879 0.625524 -0.000046 0.0
1.976059 2.080088 -0.000375 0.0
3.748414 1.587185 0.001720 0.0
2.465468 1.603594 -0.000353 0.0
3.978129 0.338592 -0.001499 0.0
2.666461 0.015439 -0.004903 0.0
2.014569 0.685909 0.002009 0.0
1.322851 1.733552 0.003814 0.0
2.339256 0.671550 0.001903 0.0
1.891424 0.681034 0.000276 0.0
2.434923 0.052273 -0.002519 0.0
1.594128 1.797282 0.000920 0.0
2.937833 1.902561 0.001500 0.0
0.462602 0.239793 -0.002838 0.0
1.094121 0.114956 0.001026 0.0
3.816604 1.773599 -0.000591 0.0
1.651493 1.784710 0.000176 0.0
0.668477 1.370046 0.000078 0.0
0.340367 0.015804 -0.000881 0.0
2.803224 0.141969 -0.002161 0.0
0.209584 1.580462 0.002557 0.0
2.141681 1.640702 -0.003763 0.0
2.376055 1.175106 -0.005040 0.0
0.497784 1.501519 0.000943 0.0
2.618803 0.078572 0.004187 0.0
3.860854 0.106125 0.000284 0.0
0.388438 0.156966 -0.001646 0.0
2.950385 0.656487 -0.000522 0.0
3.829688 0.986720 0.005503 0.0
2.495638 1.284529 0.002139 0.0
1.309661 2.130622 0.003667 0.0
0.816349 1.002184 -0.000427 0.0
1.217494 0.796587 -0.000476 0.0
0.823528 2.187965 -0.001064 0.0
0.178341 0.577273 0.002122 0.0
2.362583 1.949535 0.001204 0.0
0.711003 0.407820 0.000864 0.0
2.650685 0.532716 0.001867 0.0
3.780772 1.803561 0.000235 0.0
3.943590 2.078532 -0.000633 0.0
1.119210 1.670338 -0.002433 0.0
2.959576 0.754157 0.002498 0.0
3.478402 0.648778 0.001749 0.0
3.645263 1.016201 0.002854 0.0
0.268149 1.174934 -0.000752 0.0
1.829590 1.415374 -0.000805 0.0
0.522051 2.107224 -0.000110 0.0
0.554146 1.494047 0.000618 0.0
0.616918 1.262972 -0.002368 0.0
0.136366 2.004373 0.000768 0.0
0.082702 1.100628 -0.002056 0.0
2.975462 2.010087 -0.002731 0.0
3.901196 1.075299 -0.001650 0.0
2.998245 1.785463 0.003596 0.0
2.134205 1.835353 -0.000642 0.0
2.903231 1.933727 -0.001730 0.0
2.139705 0.662883 0.000400 0.0
0.088450 0.343401 0.005512 0.0
3.246334 1.817291 0.000219 0.0
0.451791 2.135697 -0.001128 0.0
1.590506 1.705654 -0.000565 0.0
2.558507 2.189771 -0.000095 0.0
1.026548 1.367493 0.000296 0.0
0.560239 0.536767 0.001294 0.0
0.218836 0.813013 -0.002914 0.0
3.310519 0.891535 -0.003546 0.0
0.212288 2.122782 0.003159 0.0
1.793664 0.605557 -0.001754 0.0
0.429446 1.146985 -0.000394 0.0
2.541943 1.994938 0.001389 0.0
1.684903 1.444139 -0.001978 0.0
2.912120 1.902546 -0.003513 0.0
1.137917 1.690576 -0.003509 0.0
1.255957 1.509929 -0.001586 0.0
2.401769 0.343220 0.001170 0.0
1.829517 1.298504 -0.003857 0.0
0.336424 1.284740 -0.000349 0.0
2.327074 0.011358 0.001147 0.0
2.734414 0.517130 0.000642 0.0
3.456037 1.547968 -0.004626 0.0
2.582064 1.487604 0.004961 0.0
3.968351 0.407438 0.004338 0.0
1.308609 1.251090 0.001646 0.0
4.102614 1.671350 -0.001292 0.0
2.675433 1.400311 0.002757 0.0
1.895899 1.344361 -0.001208 0.0
2.190599 0.017238 0.001076 0.0
0.391705 1.586140 0.002552 0.0
2.056682 1.010622 0.000182 0.0
2.638707 0.285889 -0.002183 0.0
3.598289 1.834392 -0.000385 0.0
0.943528 0.019147 0.000463 0.0
3.622590 1.171595 -0.002757 0.0
3.864511 0.291697 0.001725 0.0
0.372968 1.989265 -0.003842 0.0
2.854431 1.753772 0.003952 0.0
4.073540 1.906389 -0.002650 0.0
4.016698 1.957342 -0.004945 0.0
1.092605 0.476493 -0.003110 0.0
1.678128 1.201977 0.000659 0.0
3.761399 1.042233 -0.000494 0.0
1.827249 2.158534 -0.002297 0.0
3.508551 0.946068 -0.002434 0.0
3.713146 0.123445 0.001603 0.0
0.218864 2.076185 0.000823 0.0
2.632888 1.821767 -0.000661 0.0
4.149148 1.843072 0.000050 0.0
4.028351 1.314425 0.000840 0.0
1.945435 1.495844 0.002549 0.0
3.301581 0.039681 -0.004216 0.0
0.617248 0.577523 -0.001108 0.0
1.707919 1.808455 -0.000888 0.0
2.954053 1.981258 0.001436 0.0
2.293007 1.631444 -0.002622 0.0
3.084728 0.146509 0.003868 0.0
3.373974 2.015177 -0.000840 0.0
3.071870 1.185612 -0.000424 0.0
1.140335 0.992429 -0.002689 0.0
2.007359 1.065894 -0.000343 0.0
2.612863 1.263567 -0.007123 0.0
1.674455 1.989190 -0.000271 0.0
1.131551 0.328229 0.003946 0.0
2.862458 1.236713 -0.000681 0.0
3.589047 1.700782 0.000177 0.0
4.192987 1.333531 -0.002319 0.0
3.818280 2.109915 -0.000467 0.0
0.629723 1.427621 -0.001481 0.0
3.706181 1.027509 -0.003490 0.0
0.274163 0.073823 -0.001101 0.0
2.230841 1.195584 0.002499 0.0
1.144187 1.651965 0.000461 0.0
2.401942 0.222682 0.000498 0.0
1.143148 2.057391 -0.000854 0.0
0.264228 0.163135 -0.004503 0.0
1.366413 0.035430 0.002565 0.0
0.206783 1.568803 -0.002765 0.0
0.337339 1.396172 -0.002925 0.0
4.163250 1.720175 0.002696 0.0
3.992924 0.485330 -0.001484 0.0
0.351113 1.426888 -0.005680 0.0
0.733458 1.269967 -0.003060 0.0
3.202254 0.851112 -0.003573 0.0
0.566138 0.737302 -0.002552 0.0
1.704195 2.149059 -0.000421 0.0
0.582757 1.909205 0.003420 0.0
0.395428 0.342218 -0.000936 0.0
0.148754 0.108827 0.000288 0.0
0.687181 1.732966 0.001666 0.0
2.492767 0.685415 0.002954 0.0
1.383157 0.954401 -0.002416 0.0
3.900181 1.861366 -0.001173 0.0
1.938637 1.391368 -0.003993 0.0
2.758848 0.449017 -0.001563 0.0
3.504132 1.007516 -0.004762 0.0
0.059521 0.480489 -0.003538 0.0
1.757831 2.169557 -0.002058 0.0
2.886036 1.587190 0.002213 0.0
2.471919 1.099002 -0.002751 0.0
3.202990 0.519913 0.000264 0.0
0.944182 2.132387 0.001886 0.0
2.923239 0.603457 0.000358 0.0
4.175991 1.978200 0.001005 0.0
0.397343 1.529262 0.001724 0.0
2.558511 1.227303 0.003697 0.0
3.052952 2.141144 0.000434 0.0
3.621721 0.034421 0.000780 0.0
1.877878 0.651742 0.001202 0.0
1.083001 0.698819 -0.003326 0.0
1.786050 0.589147 0.002301 0.0
0.289697 0.635988 -0.002860 0.0
2.355856 1.787220 -0.002833 0.0
0.438190 1.681889 -0.008647 0.0
2.111349 1.040291 0.000131 0.0
0.108771 2.048181 -0.003942 0.0
3.645050 0.490102 0.000318 0.0
2.766020 0.715736 0.000367 0.0
2.230447 0.721317 0.004062 0.0
1.427303 1.303325 0.003880 0.0
0.506749 1.431747 0.003725 0.0
0.699353 0.223170 -0.001618 0.0
0.574116 0.407575 -0.000649 0.0
0.656072 0.809795 -0.001942 0.0
2.324360 1.871165 -0.003775 0.0
1.889685 1.533167 -0.000584 0.0
2.466289 0.272644 0.003041 0.0
0.547045 2.110817 0.002265 0.0
3.454413 1.119481 -0.000376 0.0
3.239690 0.967147 0.000827 0.0
1.156109 0.425347 -0.002561 0.0
3.679024 1.868068 0.001351 0.0
0.709283 1.829223 -0.003730 0.0
1.427878 1.494768 -0.001590 0.0
3.335566 0.778622 -0.001877 0.0
4.109610 1.020345 0.000300 0.0
2.665092 1.005062 0.002170 0.0
1.509666 0.774167 -0.001642 0.0
3.369639 1.190321 -0.000097 0.0
0.093498 2.076868 -0.002324 0.0
3.410831 1.292543 0.002309 0.0
4.134019 1.822573 0.001668 0.0
2.195282 1.256782 -0.003892 0.0
1.999146 1.187268 -0.001205 0.0
1.875678 1.392049 -0.001598 0.0
0.233863 1.351490 -0.000885 0.0
0.714102 0.558364 -0.002164 0.0
1.526693 1.148995 0.001562 0.0
2.648870 0.699133 -0.002925 0.0
3.240223 1.048189 0.001284 0.0
4.148256 1.815065 0.004579 0.0
0.462497 1.477464 -0.002615 0.0
3.242022 0.297289 -0.001400 0.0
2.686629 1.696773 0.000903 0.0
2.076722 0.679472 0.002604 0.0
2.269640 1.432048 0.000125 0.0
4.114943 1.467020 0.003019 0.0
3.606118 0.695647 -0.001529 0.0
3.972847 1.534601 0.001623 0.0
0.645836 1.716899 0.001193 0.0
1.091568 0.301236 -0.001524 0.0
3.232152 0.771754 -0.002455 0.0
1.100855 0.105738 -0.001976 0.0
0.496718 0.369545 0.002353 0.0
1.118070 2.097540 0.002399 0.0
0.383320 1.369792 0.002700 0.0
0.847004 2.110763 0.002722 0.0
3.144523 1.022052 -0.000153 0.0
2.067000 1.771381 0.002312 0.0
1.535383 0.267634 -0.001762 0.0
0.852311 0.214043 -0.002005 0.0
3.627036 1.498870 -0.000428 0.0
1.690259 0.987179 0.000129 0.0
3.537650 2.215205 0.001950 0.0
1.196084 1.188116 0.009024 0.0
2.086559 0.096010 -0.002315 0.0
0.207631 0.885001 0.001474 0.0
3.548595 0.316553 -0.001936 0.0
3.245310 1.118265 -0.000502 0.0
0.212826 0.056774 -0.000461 0.0
2.558679 0.259266 0.002922 0.0
3.768419 1.281516 -0.001948 0.0
2.395491 0.028888 -0.001034 0.0
3.079770 0.956226 0.002299 0.0
2.701103 1.571582 0.001533 0.0
3.505768 0.519980 0.001669 0.0
3.032182 1.529670 0.003435 0.0
4.033135 1.788470 0.000944 0.0
2.877038 1.315173 -0.003029 0.0
2.264506 0.101590 -0.002646 0.0
0.921795 1.410673 -0.001737 0.0
0.496823 1.071411 -0.000970 0.0
1.866477 0.033838 0.002018 0.0
3.904525 2.078395 -0.002917 0.0
3.792448 0.922580 0.001647 0.0
3.591443 1.398212 -0.002649 0.0
3.234892 2.190829 -0.001238 0.0
2.522298 1.654159 0.001043 0.0
1.992159 1.135991 0.000436 0.0
1.947402 1.447570 -0.003691 0.0
1.360002 0.885614 0.002341 0.0
1.280688 0.381725 0.002525 0.0
2.360097 1.113866 -0.003066 0.0
2.261962 1.133800 0.002574 0.0
3.145169 2.175723 -0.005566 0.0
0.955379 0.482876 -0.000027 0.0
2.977478 0.673722 -0.002299 0.0
3.017331 0.469473 -0.000886 0.0
2.438438 0.261607 -0.002715 0.0
3.550682 0.371825 -0.001093 0.0
1.901672 0.325166 -0.003065 0.0
3.028846 1.703803 0.000927 0.0
1.355194 0.545448 -0.003797 0.0
3.295378 0.793791 -0.001338 0.0
2.625029 0.513376 0.000890 0.0
3.408012 2.040377 -0.000261 0.0
1.497040 0.669784 0.000086 0.0
2.746517 1.117858 -0.001596 0.0
2.229055 1.885759 0.002556 0.0
3.037094 1.899589 -0.000925 0.0
1.807157 1.793201 0.002984 0.0
1.646938 0.141650 0.002965 0.0
2.371804 1.346509 0.001222 0.0
1.959956 2.069769 -0.001042 0.0
0.219020 1.698105 0.002194 0.0
2.204217 1.993217 0.002478 0.0
1.205117 1.660141 -0.001750 0.0
2.826639 1.189856 0.001996 0.0
0.082512 0.124617 0.000562 0.0
2.239298 1.567552 0.004501 0.0
0.658337 0.325182 0.003209 0.0
0.648241 1.581044 -0.002695 0.0
2.508894 0.087785 -0.003099 0.0
1.087969 1.943789 0.000817 0.0
4.227963 1.088845 -0.000048 0.0
4.077218 0.557954 -0.004736 0.0
1.373029 0.861314 0.000800 0.0
3.112361 1.710593 -0.001304 0.0
1.392432 0.895982 -0.000025 0.0
0.923575 0.219318 -0.001825 0.0
0.725635 0.301217 0.002446 0.0
2.901488 0.840285 -0.004168 0.0
0.076037 0.047711 -0.000002 0.0
3.329166 1.264078 0.000239 0.0
2.448384 1.037415 -0.002671 0.0
0.133143 1.277339 -0.000441 0.0
3.245206 2.142535 0.000921 0.0
3.342169 0.096361 -0.000864 0.0
3.938248 2.018712 0.002893 0.0
2.579107 0.190495 0.004891 0.0
2.717876 0.762774 -0.000180 0.0
2.832168 1.627928 0.001721 0.0
2.999874 0.942185 -0.001825 0.0
1.055107 0.435293 -0.001449 0.0
2.964237 1.023197 0.002141 0.0
0.534281 0.212490 -0.001149 0.0
2.992579 0.147883 0.002331 0.0
3.103402 2.206896 -0.001431 0.0
2.649695 0.829251 0.001772 0.0
2.873812 0.826935 -0.000515 0.0
3.911085 0.648467 0.000396 0.0
3.807674 0.420533 0.005082 0.0
1.739752 1.903474 -0.001645 0.0
1.172078 0.282383 -0.000258 0.0
3.717364 1.195497 0.000335 0.0
0.407262 0.184411 0.001370 0.0
-0.001067 2.033164 0.004033 0.0
2.386023 0.423033 -0.003996 0.0
2.749562 1.638135 -0.002009 0.0
3.397572 0.611886 -0.003134 0.0
0.532374 1.854918 0.003682 0.0
0.269907 2.138710 0.000678 0.0
2.464122 1.364814 0.005720 0.0
4.054091 0.778098 0.000871 0.0
1.213089 0.851562 -0.003239 0.0
3.179355 2.017685 -0.000977 0.0
2.263524 0.654110 -0.001683 0.0
0.280700 1.162307 0.001359 0.0
2.198433 2.142419 -0.002597 0.0
2.177961 0.320845 -0.003235 0.0
0.146627 0.624043 0.000210 0.0
2.428294 1.855124 0.002399 0.0
2.845717 1.169104 -0.004154 0.0
1.126441 0.820874 0.000760 0.0
1.818676 0.862506 0.005340 0.0
2.413012 0.675410 0.003523 0.0
1.387618 0.297040 -0.001804 0.0
1.354663 1.955725 -0.002848 0.0
3.792244 0.343201 -0.005592 0.0
3.442669 1.835561 0.000932 0.0
0.336831 1.053047 -0.001641 0.0
4.196378 0.696913 0.000567 0.0
4.177485 1.068475 0.002704 0.0
0.600374 0.763002 -0.002165 0.0
3.550087 2.100905 -0.000183 0.0
3.791899 0.571139 -0.004589 0.0
2.825688 1.037545 0.002207 0.0
2.489051 0.740686 -0.002391 0.0
1.198536 0.808700 0.002664 0.0
0.674401 1.550484 0.003012 0.0
2.973344 0.825767 -0.000479 0.0
1.805997 1.665278 0.001065 0.0
1.582702 1.365646 0.001813 0.0
1.086080 0.962227 -0.002735 0.0
2.978982 0.374799 -0.001776 0.0
3.835270 0.336877 -0.007585 0.0
0.976918 0.445221 -0.000974 0.0
0.957561 1.901159 -0.000534 0.0
4.078013 1.806495 -0.002122 0.0
0.085542 1.998509 0.001030 0.0
0.456977 1.558722 0.003509 0.0
0.934677 1.372999 0.000758 0.0
3.586803 1.063979 0.005009 0.0
0.678678 1.139612 0.003692 0.0
3.869343 1.252625 -0.002984 0.0
4.035119 1.160974 -0.004696 0.0
3.350484 0.109876 -0.001119 0.0
0.152935 2.134913 -0.001961 0.0
3.676412 0.406785 0.001460 0.0
2.512261 0.175858 0.000212 0.0
2.528140 2.207198 -0.003691 0.0
3.223188 0.534948 0.000457 0.0
3.095982 1.792859 0.000605 0.0
0.311039 2.105142 -0.001425 0.0
2.593194 0.579201 0.001722 0.0
3.849958 0.993499 0.001890 0.0
0.392174 0.941719 -0.003159 0.0
1.357107 0.457990 -0.001208 0.0
0.037488 0.509532 0.000584 0.0
0.897694 1.683992 -0.001232 0.0
3.016654 1.023296 -0.004164 0.0
0.669604 0.522231 -0.002172 0.0
2.576183 1.847492 -0.002191 0.0
2.382679 1.207360 0.000941 0.0
0.884788 0.454587 0.002977 0.0
2.350004 1.015987 0.002714 0.0
0.832378 0.916159 0.001395 0.0
1.220799 0.135352 -0.000589 0.0
0.034649 0.267728 -0.002221 0.0
3.649906 0.823978 -0.004173 0.0
3.417770 1.304037 0.001524 0.0
0.439401 1.265307 -0.001749 0.0
3.045614 1.586886 -0.000802 0.0
3.832744 1.782724 0.000745 0.0
4.207681 1.762001 0.000299 0.0
2.662640 2.197683 0.001166 0.0
2.770775 1.408905 -0.000431 0.0
1.567788 1.917022 0.001612 0.0
1.600517 1.131878 0.002722 0.0
2.733398 0.820131 0.003542 0.0
0.330758 1.761987 0.005647 0.0
0.928337 1.374223 0.003191 0.0
2.945754 0.328338 0.000838 0.0
0.492250 1.164703 0.003489 0.0
1.099125 0.172510 -0.000592 0.0
1.908648 1.032456 -0.000455 0.0
3.245110 0.487091 -0.003714 0.0
3.375327 1.234794 -0.002368 0.0
1.014991 1.310201 -0.000482 0.0
1.214764 1.597951 -0.001038 0.0
0.907842 1.592762 -0.001183 0.0
1.857251 0.320285 0.001686 0.0
2.294354 0.280544 -0.000395 0.0
0.520360 1.995517 -0.003054 0.0
3.310290 0.769210 -0.002553 0.0
3.209078 1.036856 -0.000701 0.0
2.945215 0.069663 0.001464 0.0
2.088215 2.174936 0.000923 0.0
2.701010 0.878131 -0.002678 0.0
2.484420 1.194987 -0.003289 0.0
0.534011 0.105338 0.003313 0.0
3.027905 1.594665 0.000438 0.0
0.341495 0.720141 0.001156 0.0
4.216881 0.154017 0.001757 0.0
3.089670 1.607186 0.000149 0.0
1.732393 0.199559 -0.000500 0.0
1.076295 2.214523 0.001107 0.0
2.982702 2.017271 0.003616 0.0
0.137319 2.002868 -0.001708 0.0
2.020396 0.456188 0.004333 0.0
0.761550 2.218833 -0.004095 0.0
2.050341 0.809136 -0.001812 0.0
1.280646 0.191216 0.000884 0.0
3.735318 0.933979 -0.001214 0.0
2.332208 1.820942 0.003690 0.0
2.408367 0.076075 0.004451 0.0
0.772774 0.488887 0.000050 0.0
3.784044 1.271223 0.002756 0.0
0.143802 1.860135 -0.003573 0.0
1.389659 0.040643 -0.004142 0.0
1.980448 1.097047 -0.001614 0.0
1.399044 1.487035 -0.000417 0.0
2.749843 1.173228 0.000819 0.0
0.162199 0.149796 -0.002862 0.0
2.249152 1.848045 -0.000232 0.0
4.097578 1.317595 -0.002523 0.0
1.378558 1.954560 -0.000396 0.0
2.304222 2.116373 -0.000622 0.0
2.032776 1.634644 -0.001535 0.0
1.349999 0.434651 -0.004219 0.0
0.816747 0.523413 0.002059 0.0
3.794801 0.958964 -0.001656 0.0
0.588958 0.066754 0.000476 0.0
2.743212 0.823034 0.001278 0.0
1.469027 0.480553 -0.001281 0.0
4.011316 0.954610 -0.002434 0.0
3.448546 1.798485 -0.002765 0.0
1.070452 0.637782 -0.001644 0.0
3.589127 0.525871 -0.001360 0.0
3.341124 0.663200 0.001456 0.0
3.990452 0.604327 0.003175 0.0
1.440330 1.749941 0.002558 0.0
3.783859 1.262318 -0.003783 0.0
0.763981 0.819439 -0.001428 0.0
2.381097 0.276961 -0.003122 0.0
3.613766 0.455503 -0.004016 0.0
0.505696 1.131742 0.002396 0.0
1.971874 1.323445 0.000566 0.0
1.293061 1.564703 -0.002846 0.0
0.405804 1.923199 0.001772 0.0
3.808479 0.066512 -0.001591 0.0
0.027717 1.260571 0.001284 0.0
0.477036 1.743633 0.004350 0.0
3.143149 1.456393 -0.000775 0.0
1.298090 0.352656 0.000421 0.0
4.221169 0.661956 -0.000085 0.0
1.832068 2.185323 -0.000777 0.0
0.751019 1.853455 -0.001277 0.0
3.518238 0.276755 -0.001437 0.0
3.922814 1.598985 -0.001316 0.0
0.727603 2.214499 -0.002964 0.0
0.030191 2.069058 0.000074 0.0
3.928638 1.186373 0.002477 0.0
0.285658 0.386929 -0.002053 0.0
0.389001 2.123123 0.000212 0.0
1.864724 1.155080 -0.003757 0.0
1.187653 1.189271 0.003364 0.0
2.339303 0.476572 0.005221 0.0
3.946084 1.733373 0.002892 0.0
1.331091 1.837013 -0.001231 0.0
0.909775 1.565485 -0.001289 0.0
3.856250 0.644162 -0.001832 0.0
0.294368 0.270819 -0.004951 0.0
0.947206 1.394977 0.002258 0.0
3.657434 0.086269 -0.001148 0.0
0.985746 0.335279 -0.002529 0.0
3.604246 0.895825 -0.002020 0.0
1.424461 0.266735 0.003580 0.0
2.910845 0.776855 -0.000363 0.0
1.845102 0.819671 -0.000702 0.0
1.798170 0.767150 -0.000943 0.0
2.921746 1.652350 0.001952 0.0
0.431150 1.130457 -0.002050 0.0
0.138396 2.086475 -0.005226 0.0
2.096968 0.413031 -0.000405 0.0
2.792858 0.925985 -0.001671 0.0
4.060959 0.204505 0.000872 0.0
2.063087 0.798897 0.000527 0.0
2.991019 0.373014 -0.001694 0.0
2.323699 1.429795 -0.002573 0.0
1.920863 0.650256 0.003190 0.0
1.954764 0.509130 -0.000354 0.0
0.364080 1.042321 -0.001630 0.0
0.834915 2.215911 -0.001183 0.0
3.439555 0.684603 -0.003120 0.0
1.010737 0.049850 0.003071 0.0
0.871792 0.400321 -0.000005 0.0
0.831832 1.018144 -0.001173 0.0
3.645947 1.974709 0.001315 0.0
1.477483 0.775412 0.004599 0.0
2.322720 0.460567 0.000876 0.0
2.202097 0.813991 -0.001468 0.0
2.603986 1.903156 0.002716 0.0
2.326304 0.380875 -0.002065 0.0
1.205449 1.552761 -0.004046 0.0
1.625873 1.584236 0.003338 0.0
0.150954 0.328408 0.001939 0.0
4.167521 1.070853 0.001360 0.0
3.820834 1.705724 0.000925 0.0
2.356736 2.043843 -0.000653 0.0
2.635541 0.717932 0.000698 0.0
1.603705 2.071607 -0.001507 0.0
1.991109 1.460240 0.000659 0.0
0.244437 0.277519 -0.002653 0.0
3.104665 0.996918 -0.000466 0.0
4.188391 1.316791 0.004839 0.0
0.505741 1.122049 -0.000748 0.0
1.798688 0.216811 -0.002555 0.0
2.701434 1.627475 -0.000624 0.0
2.841339 0.356659 -0.000582 0.0
4.071968 1.612861 0.000423 0.0
0.019714 1.719963 -0.000300 0.0
1.418684 1.273856 0.000319 0.0
4.100074 1.137041 -0.002423 0.0
2.752542 1.589303 0.001249 0.0
2.325762 1.131311 -0.000837 0.0
3.125702 1.003641 0.000667 0.0
0.921700 1.585067 0.000511 0.0
3.817558 0.317073 -0.000236 0.0
0.654705 0.787272 -0.000904 0.0
3.418043 1.087749 0.003436 0.0
3.697559 0.264058 -0.001060 0.0
0.213968 1.944185 0.001072 0.0
2.603055 1.000616 0.000892 0.0
0.267836 2.097654 -0.000420 0.0
3.280436 2.127923 -0.000484 0.0
2.087963 2.148762 0.002043 0.0
3.854293 1.875539 0.002440 0.0
1.038818 1.254423 0.005621 0.0
0.306178 1.338999 0.000089 0.0
3.895089 0.138390 0.001459 0.0
3.473485 1.815521 -0.001466 0.0
3.855528 0.578114 -0.000892 0.0
3.443329 0.453059 -0.001815 0.0
0.252149 1.021860 -0.002958 0.0
0.133835 1.138005 0.000920 0.0
0.943589 1.375386 0.000327 0.0
2.559089 0.424684 0.001609 0.0
3.327052 1.760996 0.001824 0.0
1.844413 0.552522 0.004345 0.0
3.560278 1.322343 -0.004242 0.0
3.882312 1.764495 -0.000931 0.0
1.059209 0.954603 0.000082 0.0
0.521360 1.093125 -0.000381 0.0
2.948233 0.245310 0.001963 0.0
2.749192 0.753813 0.003543 0.0
2.766941 2.198676 0.000595 0.0
2.995266 1.474490 -0.000178 0.0
0.741841 0.689362 0.001229 0.0
2.765747 0.412734 -0.001218 0.0
0.226833 0.880628 -0.000345 0.0
0.263426 0.925720 -0.003380 0.0
3.207789 2.213165 0.002274 0.0
1.305929 1.926620 -0.001970 0.0
2.595793 2.042023 -0.004030 0.0
3.314952 0.742901 -0.003014 0.0
2.205210 2.103528 0.003341 0.0
2.679311 1.444539 0.000980 0.0
2.198078 1.987134 -0.001914 0.0
1.100698 0.727430 0.001851 0.0
1.122637 0.198709 -0.000924 0.0
2.164180 0.920808 -0.004495 0.0
0.278157 1.004932 0.001495 0.0
1.881608 0.948715 -0.000173 0.0
0.268872 0.573387 0.001593 0.0
4.219320 1.798642 0.000290 0.0
2.284529 0.486107 -0.006243 0.0
