3.199200 0.610321 -0.004237 0.0
3.003498 0.417757 -0.003439 0.0
1.335784 1.297744 0.003834 0.0
2.405264 1.089985 -0.001681 0.0
1.751567 1.802483 -0.004917 0.0
3.098329 0.451661 -0.000986 0.0
0.370197 1.322544 -0.002545 0.0
3.411591 1.767965 0.000888 0.0
2.019337 0.511621 0.001036 0.0
2.959969 0.958495 -0.001873 0.0
2.420425 0.874560 0.002672 0.0
2.799884 1.833898 0.002381 0.0
2.715368 1.253264 -0.001541 0.0
1.080885 1.738000 0.001202 0.0
2.208796 1.909667 0.003685 0.0
0.959309 0.985741 0.001651 0.0
0.740784 0.443570 0.001114 0.0
3.996455 1.605425 0.001884 0.0
3.906631 1.578001 0.002983 0.0
3.510885 1.240207 -0.000937 0.0
1.100767 1.484644 0.001721 0.0
1.315282 0.088246 0.000363 0.0
0.206994 0.038019 -0.000275 0.0
3.835510 1.658655 0.000153 0.0
3.191687 1.464716 0.000780 0.0
1.495675 0.938415 -0.002566 0.0
3.843294 0.772452 -0.002064 0.0
0.920390 1.317886 -0.001119 0.0
2.178165 0.892990 0.000371 0.0
0.746835 0.441918 0.002508 0.0
3.655696 0.267373 0.003099 0.0
2.173854 0.900972 0.004930 0.0
2.548765 1.278158 -0.000367 0.0
2.751131 0.908471 0.002152 0.0
3.246895 0.449004 -0.000374 0.0
3.323708 1.116758 -0.000837 0.0
3.585164 1.129871 -0.002697 0.0
1.938310 0.594756 -0.001163 0.0
1.646626 0.749871 -0.001663 0.0
3.166895 0.731358 0.000489 0.0
2.292654 1.096016 0.002749 0.0
2.743638 1.005955 -0.003881 0.0
0.232437 0.262103 0.002849 0.0
0.300039 1.381626 0.000394 0.0
2.717818 0.663993 -0.000863 0.0
2.697011 1.541740 -0.000936 0.0
3.821509 1.452115 0.002237 0.0
1.098659 1.008171 -0.001052 0.0
1.687528 0.379688 -0.000747 0.0
2.031817 1.745502 -0.000168 0.0
2.460044 0.726396 -0.003533 0.0
1.837241 0.462872 -0.001315 0.0
0.201370 1.023036 -0.004622 0.0
3.798143 1.695804 0.000243 0.0
0.348943 1.164030 -0.002964 0.0
2.869400 0.216983 -0.006991 0.0
0.793428 0.478159 -0.000137 0.0
3.136081 1.284011 -0.000351 0.0
2.396759 0.395501 -0.000780 0.0
0.145948 0.172370 -0.000321 0.0
2.615729 0.254172 0.000847 0.0
2.503211 0.498070 0.000075 0.0
1.962682 0.252054 0.000615 0.0
3.138842 1.425070 0.001450 0.0
0.600388 0.431769 -0.000278 0.0
2.907411 0.073423 0.000466 0.0
2.036918 0.540571 0.000368 0.0
3.169523 1.304231 -0.003656 0.0
1.005991 1.577452 0.001885 0.0
3.474889 1.021799 -0.000711 0.0
1.226955 1.085275 -0.002653 0.0
0.670149 1.473763 0.002880 0.0
3.800931 1.731977 -0.002908 0.0
2.796631 0.057620 -0.005801 0.0
1.293756 1.873063 0.000337 0.0
3.617933 0.761621 -0.000469 0.0
2.649701 1.241866 0.000348 0.0
2.820237 0.333224 -0.005911 0.0
1.825251 0.744019 0.001842 0.0
0.726767 0.288975 0.001745 0.0
1.886630 1.123377 -0.000592 0.0
3.165369 0.685393 0.003960 0.0
2.407502 0.435914 -0.001052 0.0
1.920072 0.148238 0.005170 0.0
1.568065 1.708573 -0.000299 0.0
2.582839 1.421215 -0.000771 0.0
1.697215 0.276440 -0.002665 0.0
0.342045 1.276265 -0.003233 0.0
2.983911 1.300427 0.001065 0.0
1.195518 1.061290 0.001367 0.0
1.549063 1.591840 -0.000273 0.0
0.040530 0.852577 0.005477 0.0
3.901371 0.909682 0.004805 0.0
0.491015 0.419509 -0.004790 0.0
0.196175 0.936870 0.003838 0.0
0.915017 0.283957 0.006459 0.0
3.408792 1.386463 -0.000127 0.0
4.021618 0.038686 -0.002304 0.0
1.853727 1.831825 0.004555 0.0
0.347227 1.329383 -0.001366 0.0
0.855114 0.916943 0.004357 0.0
2.396844 0.771089 0.000221 0.0
3.277249 1.031665 0.003948 0.0
3.287570 1.605277 -0.000872 0.0
3.829090 1.873571 0.000916 0.0
0.523318 1.175442 -0.000245 0.0
0.374662 0.395831 -0.004233 0.0
2.796005 0.418567 -0.003124 0.0
2.181717 0.834217 0.003612 0.0
0.414964 1.213845 -0.000249 0.0
1.149770 1.108946 -0.000292 0.0
2.795891 0.058719 0.004647 0.0
3.381851 1.791667 0.001181 0.0
2.636713 0.125875 0.003949 0.0
3.882565 0.892218 -0.001625 0.0
3.592789 0.967242 -0.002460 0.0
2.099235 1.047754 -0.005097 0.0
2.869711 0.563904 0.003091 0.0
0.528361 1.635575 -0.003947 0.0
0.806804 1.534000 0.000835 0.0
1.589372 0.431351 0.002703 0.0
0.682550 1.515083 -0.000830 0.0
0.182513 0.785948 -0.001203 0.0
1.545916 0.201474 -0.001270 0.0
2.183649 0.734324 -0.001340 0.0
3.153435 0.632263 -0.002008 0.0
1.564491 1.903933 0.001854 0.0
1.316954 0.079776 -0.002192 0.0
1.933827 1.727881 -0.001198 0.0
2.936783 0.984075 0.000027 0.0
2.727586 0.813073 0.001540 0.0
3.995387 1.650840 0.000038 0.0
2.215407 0.358747 -0.001758 0.0
2.899590 1.397284 -0.002043 0.0
3.665053 1.574673 -0.002053 0.0
3.375359 0.429849 0.000133 0.0
2.749542 1.094549 -0.002558 0.0
2.811717 0.443842 -0.000235 0.0
3.081286 0.853770 -0.001800 0.0
3.089166 1.315769 0.002934 0.0
3.523010 0.153857 -0.002594 0.0
2.139146 0.650730 -0.002582 0.0
1.908205 0.787061 0.002694 0.0
3.585291 0.067005 -0.000103 0.0
1.165808 0.501489 -0.005964 0.0
0.080762 1.229322 0.001043 0.0
1.089144 1.412013 -0.001244 0.0
3.288402 0.269801 0.003015 0.0
1.486505 1.676122 0.001583 0.0
1.256481 0.631479 0.001750 0.0
1.809207 0.088633 0.001838 0.0
4.052885 0.196142 -0.002940 0.0
3.171275 1.622294 0.000882 0.0
3.845450 1.058140 -0.001151 0.0
3.358851 1.259327 0.002428 0.0
3.484490 1.266929 -0.000203 0.0
2.885959 0.927332 -0.002042 0.0
1.771169 1.845946 -0.004312 0.0
0.046811 0.522324 0.001137 0.0
3.698267 0.819210 0.002280 0.0
3.219130 0.912842 -0.001896 0.0
3.345594 0.875401 -0.000811 0.0
0.372433 1.739833 0.002526 0.0
1.426826 0.531620 -0.003143 0.0
2.650768 1.584745 -0.001629 0.0
3.990623 1.581410 0.003006 0.0
0.425870 0.572291 -0.000670 0.0
0.522225 0.862467 -0.002357 0.0
2.244979 0.069155 0.003627 0.0
2.575212 1.009264 -0.004467 0.0
1.403856 1.730254 0.000082 0.0
1.794877 1.488658 0.002120 0.0
3.404272 0.737845 -0.005049 0.0
2.462978 1.620590 -0.000942 0.0
4.050470 0.122205 0.002475 0.0
0.217715 1.468196 0.001080 0.0
1.114939 1.571732 0.004830 0.0
3.244148 1.620528 -0.000434 0.0
1.671711 0.498391 -0.000549 0.0
3.629075 1.111805 -0.000677 0.0
2.099281 0.747045 0.000469 0.0
2.241345 1.835241 -0.004112 0.0
0.440448 0.876066 0.004519 0.0
1.662955 0.336611 -0.002851 0.0
3.484419 0.173044 -0.000191 0.0
0.031961 0.800462 -0.002902 0.0
2.267105 1.099386 0.003163 0.0
2.770011 0.206710 0.002433 0.0
2.456164 0.877385 0.000624 0.0
0.872725 1.122333 0.003845 0.0
0.800729 0.285866 0.003319 0.0
0.214489 0.843600 0.002433 0.0
1.729685 1.528421 0.001749 0.0
2.470092 0.082530 -0.001642 0.0
0.496599 0.152009 -0.002935 0.0
1.799495 1.555641 -0.004259 0.0
2.234832 1.119727 0.002066 0.0
0.662688 1.266854 0.000087 0.0
0.077146 1.931134 0.002574 0.0
2.400808 0.283999 0.003626 0.0
3.934409 0.420490 -0.001686 0.0
2.719922 0.577073 -0.000047 0.0
2.445739 0.659207 0.001081 0.0
1.638059 1.511784 -0.000054 0.0
1.093069 0.735340 0.001435 0.0
0.670505 0.645430 -0.003616 0.0
1.749435 0.783121 -0.001061 0.0
1.798110 0.969126 -0.002479 0.0
0.574230 0.284623 0.003927 0.0
0.850951 0.561049 0.001218 0.0
3.191141 1.373817 -0.004331 0.0
1.516090 0.437554 -0.000642 0.0
3.855859 0.425766 0.004827 0.0
2.442086 1.472343 -0.004011 0.0
2.646552 0.417257 -0.000322 0.0
0.487043 0.956880 -0.000641 0.0
2.229416 0.418641 0.000727 0.0
0.929843 1.630447 0.000477 0.0
0.988505 0.933697 -0.001762 0.0
3.414249 1.194697 -0.002494 0.0
2.476204 0.093042 0.001791 0.0
1.136785 1.671981 -0.001898 0.0
1.451064 0.275337 0.003879 0.0
1.937937 1.197685 0.002179 0.0
2.838155 0.736703 -0.002681 0.0
2.797763 0.878907 0.003407 0.0
1.843645 0.651469 -0.000731 0.0
1.775851 1.438054 0.001917 0.0
3.873896 0.829943 -0.000296 0.0
3.300719 1.522657 -0.001264 0.0
1.584034 1.782011 0.003350 0.0
3.145924 1.001994 -0.002424 0.0
3.004300 0.679035 0.002478 0.0
2.924712 1.521585 -0.002124 0.0
3.796712 0.270195 -0.001057 0.0
1.751101 1.482322 0.000297 0.0
0.838640 1.243377 0.000203 0.0
1.302997 0.037054 0.002147 0.0
0.392949 0.980985 -0.001906 0.0
1.744756 1.033260 -0.003412 0.0
1.129296 1.124755 -0.003322 0.0
2.843269 0.856642 0.000812 0.0
2.293313 0.761273 -0.001114 0.0
1.527233 1.196432 0.001768 0.0
2.039228 0.683065 0.002096 0.0
0.435393 1.036521 -0.007453 0.0
0.815549 0.205644 0.001336 0.0
0.020996 1.911343 -0.002198 0.0
3.451909 0.695276 -0.000220 0.0
0.886644 1.874389 0.003348 0.0
3.163389 0.252559 -0.000532 0.0
3.665907 1.631491 0.000855 0.0
0.067653 0.959711 0.001092 0.0
0.517229 0.996904 -0.001788 0.0
3.195105 1.680510 -0.000114 0.0
0.376420 1.157195 0.002253 0.0
3.507003 0.640530 0.000447 0.0
2.435017 0.736650 -0.001292 0.0
1.716024 1.682457 0.004055 0.0
3.479615 1.889572 0.000442 0.0
1.950306 0.468223 -0.002092 0.0
3.751287 1.604461 -0.003701 0.0
2.321549 1.243002 0.000409 0.0
0.042412 1.630706 -0.001199 0.0
0.129611 1.655762 -0.004192 0.0
0.343644 1.902520 0.000306 0.0
1.628024 0.739524 0.001242 0.0
3.189889 1.634623 0.001429 0.0
3.369023 0.413311 -0.001707 0.0
2.823692 0.317658 -0.001407 0.0
3.822196 0.131923 0.004225 0.0
2.510752 0.518092 0.003063 0.0
3.136906 0.520959 0.002896 0.0
0.414392 1.045576 0.001987 0.0
0.062268 0.559208 -0.001639 0.0
0.045100 0.121025 -0.000855 0.0
1.688070 0.099267 0.000725 0.0
0.335435 0.494532 -0.002868 0.0
2.856162 1.707891 0.000130 0.0
3.499725 0.933818 0.002509 0.0
1.155230 0.656787 -0.000391 0.0
2.797998 0.565503 -0.000595 0.0
0.988485 0.636222 0.003757 0.0
1.533460 0.343378 0.004390 0.0
0.667405 1.845570 0.002171 0.0
0.790512 1.791813 -0.003110 0.0
2.043616 0.357881 -0.002341 0.0
2.995492 1.314590 0.004072 0.0
1.324220 1.057096 0.001431 0.0
1.895662 1.191202 -0.002390 0.0
3.792245 1.138232 0.002632 0.0
1.809475 1.284478 -0.004806 0.0
1.522093 0.901136 0.003374 0.0
2.518319 1.420261 0.002220 0.0
0.276732 0.326551 0.003318 0.0
1.355194 1.260559 -0.001192 0.0
1.525636 1.351531 -0.003180 0.0
2.548698 0.873384 0.000439 0.0
1.919711 0.826390 -0.002900 0.0
2.466581 0.848001 -0.006700 0.0
1.964664 1.262073 0.000953 0.0
1.944736 1.671691 -0.002154 0.0
3.643383 0.357423 -0.002964 0.0
1.596805 1.250894 0.001146 0.0
3.792619 1.573468 -0.002305 0.0
3.896885 1.537825 0.003036 0.0
2.840333 0.792023 -0.000471 0.0
3.226773 1.430490 -0.005280 0.0
2.638394 0.676006 -0.000508 0.0
3.048311 1.713657 -0.000398 0.0
3.608250 1.060273 0.000899 0.0
3.560830 0.083647 0.004018 0.0
3.704677 1.052300 0.000393 0.0
0.197272 1.561720 -0.006110 0.0
0.665979 0.159247 0.002848 0.0
4.038478 0.862532 0.002671 0.0
0.002914 0.779565 0.002403 0.0
1.698337 0.603129 0.001409 0.0
0.250626 1.362321 -0.002265 0.0
1.770952 0.347122 0.003240 0.0
1.736722 1.220770 -0.000787 0.0
0.458354 0.190392 -0.000494 0.0
3.324137 1.291899 -0.002777 0.0
2.811873 1.456658 0.000044 0.0
3.466461 1.400358 -0.005497 0.0
0.233814 1.644794 -0.000559 0.0
0.264020 1.312827 -0.001086 0.0
2.116510 0.433431 -0.000816 0.0
3.694165 1.625713 -0.000500 0.0
1.794461 1.556878 0.001332 0.0
2.961305 0.599888 -0.000318 0.0
0.588886 0.957524 -0.000069 0.0
1.683090 1.921246 -0.001827 0.0
3.101107 1.162751 0.002732 0.0
3.561520 1.631336 0.001244 0.0
0.937405 0.384282 -0.000536 0.0
4.078646 0.977248 0.004084 0.0
1.095896 0.508585 -0.005955 0.0
3.570525 1.705901 -0.001731 0.0
3.232827 0.912200 0.001026 0.0
1.279635 0.611305 0.001308 0.0
1.679407 1.004863 -0.006354 0.0
2.764095 1.499954 -0.003874 0.0
0.321424 0.779328 -0.002016 0.0
0.013373 0.263633 0.005208 0.0
2.128922 0.635281 -0.000763 0.0
1.796585 0.589736 -0.001013 0.0
3.792586 1.041719 -0.002594 0.0
3.645385 0.526351 -0.000762 0.0
0.301029 1.541797 -0.004321 0.0
1.938595 1.385269 0.000698 0.0
0.781133 0.012033 -0.000644 0.0
0.858113 0.897604 0.000160 0.0
0.701195 0.693552 0.002233 0.0
1.847958 1.333530 -0.000214 0.0
2.613903 1.371315 0.003591 0.0
2.267386 1.107649 0.001189 0.0
3.176033 0.737692 -0.001309 0.0
3.831056 0.210081 -0.000547 0.0
0.225975 0.997499 -0.001971 0.0
2.587633 1.850891 -0.007175 0.0
1.022393 1.006177 0.004578 0.0
1.748008 0.044109 -0.000852 0.0
3.121683 0.855188 0.000235 0.0
2.983956 0.586621 -0.002790 0.0
1.496934 1.185122 -0.001048 0.0
3.274651 1.617974 0.003130 0.0
2.598359 0.690768 0.000342 0.0
3.984421 0.205656 0.000609 0.0
3.611098 1.008332 -0.002067 0.0
4.014648 1.923303 -0.001572 0.0
2.564258 0.241237 -0.000275 0.0
2.621649 1.660856 -0.001755 0.0
0.214243 0.294819 -0.002942 0.0
1.714323 1.084571 0.002056 0.0
2.268820 0.248711 -0.000785 0.0
0.278770 0.443832 0.000145 0.0
3.926072 1.515020 0.005069 0.0
2.542262 1.483593 -0.002327 0.0
2.675148 0.279174 -0.004865 0.0
3.686959 1.277916 0.000125 0.0
1.651312 0.366455 0.005010 0.0
3.438496 1.208526 -0.001752 0.0
0.915894 1.313731 0.000751 0.0
1.461180 0.650941 0.002133 0.0
3.963435 0.212226 0.000856 0.0
1.839537 0.097578 -0.002095 0.0
0.534354 1.162070 -0.001305 0.0
1.148270 1.355676 0.000629 0.0
2.507210 0.129762 -0.000225 0.0
0.440944 1.893616 -0.000551 0.0
0.518365 1.430186 0.001962 0.0
1.110008 0.576538 0.002783 0.0
1.691360 0.663988 0.003696 0.0
3.914198 0.995676 0.002575 0.0
2.900132 0.173728 -0.003919 0.0
0.348369 1.371883 0.002814 0.0
0.624914 0.675579 0.002660 0.0
2.984542 0.175480 -0.004875 0.0
3.099582 0.510275 0.000708 0.0
0.137095 0.962188 0.001919 0.0
2.483171 0.595361 0.003422 0.0
3.707357 1.727699 -0.002353 0.0
2.754015 0.025600 0.000513 0.0
3.357155 0.204589 -0.003398 0.0
2.923306 1.099733 0.000216 0.0
3.529163 1.105330 0.003297 0.0
1.591723 0.165492 -0.001910 0.0
4.073376 1.511643 -0.002653 0.0
2.412581 1.116859 -0.000679 0.0
3.605304 1.560657 -0.000822 0.0
3.456323 0.305281 0.002378 0.0
2.348057 0.988147 -0.000820 0.0
0.178129 0.215704 -0.001723 0.0
2.728799 0.297529 0.003864 0.0
0.728303 1.810977 0.002377 0.0
3.343579 1.738775 0.002121 0.0
2.632664 0.411471 0.003742 0.0
0.988992 0.500028 0.001077 0.0
2.302749 1.145884 -0.003303 0.0
1.203742 0.071394 -0.004087 0.0
2.137531 0.796866 0.002793 0.0
3.060859 0.883118 -0.001495 0.0
0.340896 0.691145 -0.002674 0.0
1.062531 0.291002 -0.002666 0.0
1.469937 1.061349 -0.000760 0.0
3.732735 0.314600 0.005907 0.0
1.951428 0.648098 -0.001267 0.0
1.960605 1.395488 -0.001845 0.0
2.227833 0.139754 -0.001767 0.0
1.290366 0.583788 -0.001789 0.0
0.320254 0.481702 0.001715 0.0
0.331228 0.989890 -0.001222 0.0
1.426701 0.425669 0.001510 0.0
1.266467 1.815618 0.001500 0.0
2.262843 0.097268 -0.002593 0.0
1.635731 1.532670 -0.000185 0.0
2.507022 1.250280 0.001734 0.0
0.835376 0.611006 0.000774 0.0
2.895092 1.423280 -0.001161 0.0
1.281929 1.806969 0.001352 0.0
0.517472 0.189308 0.002894 0.0
1.804523 0.055735 -0.001742 0.0
0.455695 0.492864 -0.001789 0.0
2.069571 1.644844 0.002107 0.0
2.955524 1.207627 0.002061 0.0
2.996016 0.754029 0.000170 0.0
0.490116 1.454365 0.000034 0.0
2.071668 1.094220 0.001770 0.0
0.785506 1.134946 0.001846 0.0
0.493636 0.797112 0.003877 0.0
1.531005 1.550521 0.002775 0.0
3.496784 1.574507 -0.004499 0.0
3.871140 0.005178 -0.003934 0.0
3.347643 0.687015 0.000901 0.0
0.632427 1.196266 0.000285 0.0
0.268757 1.822013 0.002096 0.0
2.741291 0.076042 -0.001357 0.0
0.216055 0.735326 0.001745 0.0
1.194258 1.808645 -0.001703 0.0
4.002159 0.726485 -0.003333 0.0
2.269944 1.167611 0.000797 0.0
2.785126 0.956551 -0.002040 0.0
2.341898 1.827749 0.002160 0.0
3.823328 0.658301 0.000860 0.0
1.276552 0.712240 0.000814 0.0
0.089226 0.187732 -0.002518 0.0
2.540946 0.069066 -0.000829 0.0
3.826356 0.752075 0.000159 0.0
1.039169 1.103715 0.000133 0.0
3.207649 1.200503 -0.000499 0.0
0.023919 1.149621 -0.001672 0.0
2.628644 1.467335 -0.002549 0.0
2.251039 1.547377 -0.003139 0.0
1.784989 1.935266 -0.000611 0.0
1.124376 1.169676 0.003139 0.0
0.495030 1.121954 0.000178 0.0
1.373668 1.430626 0.000800 0.0
0.367001 0.677195 0.002676 0.0
3.244235 1.644226 0.004598 0.0
2.361818 1.019067 -0.000852 0.0
0.292047 1.638786 0.003690 0.0
0.917375 0.185631 -0.002139 0.0
3.929809 0.207419 0.002654 0.0
3.920575 1.473981 0.002915 0.0
4.081497 0.868749 -0.001184 0.0
1.744799 0.882443 -0.000943 0.0
4.018274 0.249386 0.002811 0.0
2.099498 1.484663 0.002536 0.0
1.839382 0.993271 -0.001865 0.0
3.421168 0.878404 -0.000892 0.0
0.035202 1.487786 -0.002736 0.0
2.844313 0.839871 -0.000213 0.0
3.907068 0.894484 0.000332 0.0
1.215184 0.638309 0.000384 0.0
3.406457 1.518903 -0.000602 0.0
2.985142 1.570227 0.005206 0.0
0.732438 0.533650 0.002090 0.0
1.165844 1.333386 0.001617 0.0
3.941846 1.386208 -0.001931 0.0
3.291167 1.212592 -0.001782 0.0
0.833135 1.030046 -0.001183 0.0
1.582723 0.279750 0.000427 0.0
0.343237 1.527527 -0.003967 0.0
1.858617 0.233215 0.001415 0.0
1.019900 0.601752 0.003111 0.0
3.989488 0.303404 -0.001824 0.0
1.694603 0.734137 -0.001051 0.0
2.362430 1.640619 -0.000671 0.0
1.850193 0.852881 0.000168 0.0
1.208231 1.061312 -0.003010 0.0
1.276397 1.567780 0.001289 0.0
1.668581 1.613831 0.003006 0.0
3.875327 0.439282 -0.005044 0.0
2.396085 0.850408 -0.003013 0.0
0.017890 0.981552 0.003713 0.0
1.129477 0.994034 0.001711 0.0
3.743612 1.082123 -0.002312 0.0
2.796553 1.542396 -0.001559 0.0
2.341391 1.420744 0.000019 0.0
0.386124 1.272757 -0.002046 0.0
1.029416 0.817895 0.004469 0.0
1.636586 0.829213 -0.000563 0.0
0.595862 1.274557 0.002676 0.0
0.432995 0.594870 0.002019 0.0
2.896352 0.203018 -0.002346 0.0
0.234355 1.029584 -0.004049 0.0
1.584386 0.182863 -0.001501 0.0
0.279994 0.996705 -0.000979 0.0
2.094041 1.689550 -0.001395 0.0
4.068990 0.820224 0.005109 0.0
2.915935 1.631443 -0.002091 0.0
0.128604 1.536840 -0.000734 0.0
2.473783 1.299225 -0.001022 0.0
3.527948 0.065663 -0.000241 0.0
3.565762 1.168617 0.002353 0.0
0.889564 1.891778 0.002380 0.0
3.995213 1.385437 -0.000054 0.0
3.422140 0.196433 0.000286 0.0
3.782279 0.019566 0.000114 0.0
3.590115 0.788899 -0.002847 0.0
3.939348 1.691184 0.003852 0.0
1.725605 0.938603 0.003202 0.0
0.943187 1.379632 -0.004870 0.0
3.198622 1.030617 0.004192 0.0
3.841253 0.488081 0.000284 0.0
1.063869 0.183974 -0.002385 0.0
0.782315 1.720814 0.001029 0.0
2.932446 1.879059 0.002366 0.0
2.004865 1.012368 0.002976 0.0
2.910053 0.593779 -0.000316 0.0
3.760998 0.442898 -0.001899 0.0
2.132442 0.210816 0.001530 0.0
2.578535 0.509859 -0.006307 0.0
0.798193 1.518049 0.000104 0.0
3.826593 0.453556 0.000963 0.0
2.763850 0.530363 0.000994 0.0
0.405049 1.505370 -0.001037 0.0
0.970951 1.067642 -0.000130 0.0
2.580143 1.444811 0.001007 0.0
2.787762 0.081550 0.000377 0.0
0.677292 0.069875 0.001941 0.0
2.979954 1.315931 0.000242 0.0
3.906948 1.232503 0.001943 0.0
3.686951 1.674063 0.000804 0.0
1.548162 0.231430 -0.003132 0.0
1.521240 1.134097 0.002553 0.0
3.432669 0.680932 -0.001651 0.0
0.738545 1.200812 -0.000800 0.0
3.093793 1.466946 -0.000379 0.0
1.933303 1.441369 0.002438 0.0
1.608766 0.044843 -0.000575 0.0
1.797211 1.568495 -0.005221 0.0
0.371580 1.297028 -0.003425 0.0
3.627531 1.485648 -0.001506 0.0
1.833363 0.228356 -0.000890 0.0
0.011968 1.500162 -0.000234 0.0
1.422311 0.452065 -0.000186 0.0
1.180549 0.578155 -0.001637 0.0
0.430107 0.482482 0.000564 0.0
3.419874 1.361756 -0.002122 0.0
1.299195 1.857709 0.000440 0.0
3.296754 1.182614 -0.000338 0.0
0.691834 1.319629 -0.001601 0.0
1.563972 0.207564 0.000471 0.0
3.330729 1.215487 0.003471 0.0
0.316850 0.411466 0.002460 0.0
1.089190 0.305719 -0.000703 0.0
1.800048 1.758408 0.005140 0.0
0.867357 1.749057 -0.004352 0.0
4.079038 0.438973 -0.001621 0.0
2.065062 0.650246 -0.001611 0.0
2.562046 1.751131 0.001786 0.0
0.729475 0.438848 -0.001474 0.0
0.055106 1.666852 0.001485 0.0
1.255343 0.671675 -0.002842 0.0
0.291817 0.575244 -0.002445 0.0
0.440103 1.772413 -0.005886 0.0
1.179771 0.249936 -0.000130 0.0
3.046999 0.679709 0.003409 0.0
1.703092 1.211732 0.002080 0.0
1.100782 1.498942 0.003236 0.0
3.562292 1.373479 -0.001121 0.0
2.316924 0.751513 0.001660 0.0
1.929235 0.089903 0.002727 0.0
3.212658 0.953216 0.002732 0.0
3.051659 1.162562 -0.000825 0.0
0.413178 0.120272 -0.003271 0.0
1.587993 0.412338 0.002483 0.0
2.034696 0.454111 -0.001368 0.0
3.746673 0.455367 -0.002166 0.0
1.617635 0.135654 -0.001653 0.0
0.849051 0.272971 0.002487 0.0
3.738425 1.531501 0.003222 0.0
0.916841 1.558735 0.000668 0.0
3.189288 1.436184 -0.001100 0.0
3.928838 0.115964 0.002211 0.0
3.614941 0.022682 -0.002566 0.0
3.912567 1.724576 0.000672 0.0
3.759694 0.491290 -0.002139 0.0
3.667261 1.869792 0.000468 0.0
0.709158 0.366730 -0.000493 0.0
2.289233 1.315750 -0.000295 0.0
3.454841 0.471502 -0.003779 0.0
2.073391 1.117109 -0.002997 0.0
2.071577 0.348471 -0.002259 0.0
1.360712 1.909190 0.000449 0.0
2.168635 0.450017 0.000679 0.0
2.105995 0.004108 0.003408 0.0
2.442316 0.499431 0.001563 0.0
0.094037 1.272435 0.001284 0.0
0.209853 0.389176 -0.003322 0.0
1.607442 0.486213 0.001495 0.0
0.107001 1.435815 -0.002160 0.0
3.692253 1.830726 -0.004181 0.0
3.288773 1.829519 -0.002186 0.0
1.002654 1.151560 -0.002174 0.0
2.751687 0.112470 -0.003981 0.0
0.645266 0.470101 0.002302 0.0
3.090333 0.267105 0.001344 0.0
2.139401 0.925032 -0.002526 0.0
0.324084 0.447146 -0.002887 0.0
2.529845 1.125887 0.001067 0.0
0.818725 1.603695 0.002763 0.0
0.118071 1.927008 -0.002844 0.0
1.350931 0.692078 0.001085 0.0
1.486107 0.708933 -0.000461 0.0
3.445886 1.078138 0.000127 0.0
0.192069 0.332205 0.001925 0.0
3.862089 1.838134 -0.003342 0.0
3.401002 1.907670 0.002024 0.0
1.522857 1.443661 -0.002454 0.0
3.079449 1.547082 0.001300 0.0
2.920403 1.008577 0.001243 0.0
0.883798 0.722913 -0.001749 0.0
3.552115 1.617829 -0.004236 0.0
1.874101 1.476393 -0.001331 0.0
0.033806 0.634095 -0.001393 0.0
1.445617 1.383682 0.002435 0.0
1.935557 1.329231 0.004536 0.0
2.626460 0.420205 0.000098 0.0
0.722698 1.417453 -0.002388 0.0
0.885548 0.416930 0.001600 0.0
1.389855 1.311106 -0.000802 0.0
2.753220 1.673756 0.000925 0.0
3.878759 1.503245 0.002456 0.0
1.444300 0.078335 0.003176 0.0
2.602007 1.530650 0.000924 0.0
2.348601 0.788923 -0.000101 0.0
1.974296 1.434940 0.003813 0.0
0.362194 1.218129 0.002117 0.0
3.738394 0.966394 0.000186 0.0
1.892266 0.826033 -0.000268 0.0
1.618561 0.448096 -0.000664 0.0
2.417579 0.585889 -0.001803 0.0
1.739932 0.013253 -0.003664 0.0
1.221270 1.616339 -0.001824 0.0
0.685024 1.334169 0.000640 0.0
1.448353 1.305802 0.003168 0.0
3.674725 1.118979 0.000204 0.0
1.534021 1.695248 0.001871 0.0
0.198160 0.828368 0.000972 0.0
2.056658 0.920383 -0.001294 0.0
3.186247 0.181743 -0.003468 0.0
1.878489 0.509480 0.000109 0.0
2.046210 1.446780 -0.001007 0.0
3.776347 1.867740 0.000654 0.0
3.572024 1.141028 -0.000309 0.0
3.593460 0.542171 0.002493 0.0
2.543839 0.592322 0.002801 0.0
3.552363 0.951857 0.002242 0.0
0.259003 1.505741 0.000906 0.0
2.009314 0.246691 0.003385 0.0
0.200716 0.134542 0.002200 0.0
3.724293 1.127815 -0.001409 0.0
1.725251 1.899832 0.001446 0.0
3.203993 0.851207 0.000455 0.0
1.908332 0.321988 0.001446 0.0
1.788491 0.723839 -0.001441 0.0
3.689284 0.238082 -0.003813 0.0
1.367324 1.628650 0.000168 0.0
0.837651 1.036040 0.002390 0.0
1.982558 1.779132 0.000046 0.0
1.712193 1.188606 0.001360 0.0
1.128585 0.749780 -0.001593 0.0
3.111630 1.505103 -0.002415 0.0
1.062941 0.516107 0.004048 0.0
1.715502 1.329016 0.001480 0.0
4.021841 1.773243 -0.000749 0.0
2.949304 0.436049 0.002190 0.0
1.409843 0.074257 -0.000849 0.0
0.553432 0.902729 -0.004641 0.0
0.433475 0.699081 0.001182 0.0
0.857182 0.124676 -0.001367 0.0
1.305076 0.909890 -0.002277 0.0
0.910847 1.590237 0.001735 0.0
3.090807 0.552869 -0.002053 0.0
2.355898 1.500237 0.003212 0.0
2.238427 0.010669 -0.003064 0.0
2.515154 0.699510 0.001276 0.0
0.076138 1.926587 0.000841 0.0
3.806319 1.250929 0.000489 0.0
0.519933 1.411432 -0.005446 0.0
0.200802 1.594766 -0.005223 0.0
2.668722 0.336973 0.003212 0.0
0.599207 0.886137 -0.002451 0.0
1.267746 1.090614 -0.007552 0.0
3.269519 1.911097 0.003688 0.0
0.438471 1.643005 -0.001598 0.0
2.348071 0.307724 -0.003617 0.0
2.979507 1.382362 -0.005467 0.0
1.999923 0.512517 -0.001741 0.0
0.114250 0.144372 0.002578 0.0
2.047226 1.243173 0.003103 0.0
1.769102 1.713252 -0.003638 0.0
4.029713 0.008455 -0.001547 0.0
2.798656 1.418170 0.001093 0.0
3.823391 0.123666 0.000348 0.0
2.729359 1.559058 0.001496 0.0
3.180127 1.746055 0.005007 0.0
3.747217 1.553875 -0.001435 0.0
2.474304 1.783437 -0.000952 0.0
0.065999 1.841761 0.002772 0.0
2.902986 1.587416 0.002693 0.0
4.076178 0.518012 -0.001614 0.0
1.007504 1.118159 -0.001120 0.0
0.313371 1.707568 -0.000147 0.0
1.375720 0.604437 -0.002531 0.0
1.997658 0.572852 -0.003808 0.0
0.450983 1.311890 0.000329 0.0
3.429648 0.816139 0.001691 0.0
2.244128 1.563353 -0.000688 0.0
0.276095 1.189524 -0.001215 0.0
1.419492 0.704898 0.000763 0.0
1.274062 1.487092 0.001546 0.0
0.341073 0.387717 0.002088 0.0
1.352481 1.048858 0.001248 0.0
0.015148 0.942197 -0.000382 0.0
1.398645 1.267376 0.002766 0.0
1.394205 1.856722 0.002265 0.0
2.334357 0.731207 0.003103 0.0
2.146182 1.712165 -0.001890 0.0
1.006663 0.368776 -0.000073 0.0
3.387886 1.879093 0.000219 0.0
1.160069 0.159122 0.004135 0.0
0.423143 1.406256 0.001028 0.0
0.973254 0.945215 0.001749 0.0
1.249685 1.552637 -0.000317 0.0
2.138778 0.202037 -0.001303 0.0
2.199327 1.484855 0.000078 0.0
2.783642 0.657596 0.001866 0.0
2.744941 1.765074 0.002785 0.0
2.130371 1.893720 -0.004274 0.0
3.300058 0.079371 -0.000236 0.0
4.065601 1.927143 0.000248 0.0
3.859170 0.187948 0.000358 0.0
2.653508 1.366740 -0.002799 0.0
3.467831 0.246214 0.003786 0.0
1.085061 0.548673 0.007476 0.0
1.703546 0.915012 -0.002830 0.0
2.703200 1.631671 -0.001376 0.0
1.758896 0.022202 0.000461 0.0
1.787807 1.435981 0.000260 0.0
1.527781 0.778060 0.002502 0.0
3.868657 1.365280 0.001186 0.0
3.165988 0.857950 0.001371 0.0
1.667462 0.435490 -0.001111 0.0
0.209491 0.548145 -0.000237 0.0
3.115888 1.735918 -0.005207 0.0
1.609415 0.921521 -0.002482 0.0
1.183400 1.521327 -0.001196 0.0
2.491428 1.493157 0.002686 0.0
1.324616 1.755638 0.000633 0.0
2.681735 1.129247 0.002864 0.0
1.103756 1.868481 0.001279 0.0
0.158002 0.309161 0.001679 0.0
1.992900 1.627629 0.004790 0.0
3.205040 0.905113 0.001879 0.0
2.833801 1.577785 -0.002611 0.0
1.341922 1.696394 -0.000550 0.0
0.418464 0.579006 0.000912 0.0
0.935699 1.173746 0.000732 0.0
2.009798 1.709464 0.003113 0.0
3.291372 1.330318 -0.003264 0.0
3.695078 1.267696 0.005144 0.0
2.842628 0.726224 -0.003441 0.0
3.755451 0.937225 0.001672 0.0
2.367441 0.499078 -0.003752 0.0
2.302053 0.352626 0.001153 0.0
3.438873 1.427970 0.001453 0.0
2.576840 1.513384 -0.001142 0.0
4.013517 0.379995 0.000076 0.0
1.560303 1.199727 -0.003505 0.0
3.910015 1.341138 -0.000623 0.0
3.934266 1.252415 -0.004055 0.0
1.677318 1.373246 -0.004555 0.0
1.008438 0.260933 0.000515 0.0
3.570338 1.676799 -0.000796 0.0
1.480549 0.772442 0.002513 0.0
0.061069 1.016391 -0.001966 0.0
0.010615 1.737122 -0.003859 0.0
0.990359 0.934646 -0.002970 0.0
3.652920 0.421464 -0.004610 0.0
0.050226 1.809005 -0.001994 0.0
3.256547 1.384868 0.001308 0.0
3.500985 0.704029 -0.000900 0.0
3.435226 1.489481 0.000992 0.0
2.729644 0.071649 -0.000240 0.0
1.395748 0.237432 0.001279 0.0
0.487553 0.597056 0.003906 0.0
0.752209 0.082815 -0.001495 0.0
0.534438 0.103938 -0.000554 0.0
2.842464 1.395164 0.007127 0.0
1.339219 0.546260 0.004253 0.0
0.226457 0.038390 0.002536 0.0
4.077381 1.130835 -0.001426 0.0
0.760950 0.470001 0.002114 0.0
3.839264 0.942187 -0.003094 0.0
0.029555 0.778519 0.000339 0.0
1.580635 0.930069 -0.001743 0.0
3.276155 0.503820 -0.002536 0.0
0.671265 0.520784 -0.001903 0.0
1.110535 1.120722 0.001245 0.0
2.583794 1.704312 -0.000487 0.0
2.649074 1.080358 0.003334 0.0
3.682733 1.146497 -0.001831 0.0
2.514184 0.106099 -0.001823 0.0
2.326883 0.791559 -0.001313 0.0
0.833571 1.181561 0.003806 0.0
2.166948 1.799102 0.002195 0.0
1.063991 0.057536 0.000531 0.0
3.039120 0.440830 -0.002667 0.0
2.683884 1.460633 -0.001072 0.0
3.680114 0.357405 -0.001495 0.0
3.213557 1.000037 -0.000501 0.0
2.768149 1.915386 0.000886 0.0
1.747435 0.173159 -0.001580 0.0
3.505373 1.437960 -0.001435 0.0
0.695801 0.578425 0.001636 0.0
4.037628 1.793395 0.000073 0.0
0.506967 1.308337 -0.003399 0.0
2.658779 0.315941 -0.002707 0.0
3.318861 1.872017 -0.001292 0.0
2.457864 1.340333 -0.002574 0.0
2.317753 1.580554 -0.000249 0.0
1.845127 1.368534 -0.001157 0.0
1.156520 0.797553 0.000929 0.0
0.926070 1.233580 0.002579 0.0
1.496507 1.472554 -0.000925 0.0
2.710190 0.843746 0.002129 0.0
3.473398 0.274596 0.004620 0.0
1.712738 0.511751 0.002102 0.0
3.217400 1.345720 -0.000183 0.0
2.597067 1.201067 -0.001704 0.0
2.792467 0.175912 -0.002350 0.0
1.723115 0.221541 0.001073 0.0
2.716043 0.829137 -0.002921 0.0
0.613936 0.584832 0.002277 0.0
3.691073 0.938606 -0.000717 0.0
2.260769 0.106308 0.001378 0.0
0.889118 0.598309 0.000594 0.0
1.955887 1.055968 -0.003418 0.0
3.757234 1.091097 -0.000735 0.0
1.534906 0.803014 0.000244 0.0
2.196076 1.873896 -0.002392 0.0
3.780557 0.811728 -0.000192 0.0
0.244187 1.427924 -0.005156 0.0
1.904908 1.481895 -0.000721 0.0
1.817000 1.149853 0.000968 0.0
2.592428 0.668321 0.002883 0.0
0.319994 1.448557 0.000022 0.0
1.804904 1.781764 0.002553 0.0
3.379414 0.077706 -0.001941 0.0
1.768920 1.498083 0.001008 0.0
0.051775 0.113130 0.002158 0.0
0.721739 1.796379 -0.003630 0.0
3.158505 1.149490 -0.000026 0.0
0.242086 0.687206 -0.000358 0.0
1.950125 1.395376 0.000598 0.0
0.768350 1.791611 -0.004588 0.0
0.050004 0.896320 -0.000134 0.0
2.786523 1.166618 -0.002497 0.0
2.931702 0.663292 -0.003060 0.0
3.378723 0.859179 0.002100 0.0
0.966805 1.432645 0.003676 0.0
2.689017 1.456275 0.000866 0.0
1.483673 0.562454 0.002324 0.0
2.738370 1.798277 0.000802 0.0
4.081838 0.869529 -0.006535 0.0
2.532361 1.027522 -0.000149 0.0
1.626270 0.733884 0.003388 0.0
1.857425 0.897750 0.000776 0.0
1.117531 1.590677 0.000558 0.0
1.243148 0.409942 -0.002572 0.0
1.594882 0.896791 -0.000207 0.0
0.750244 1.866347 0.001253 0.0
2.775139 1.516853 0.001006 0.0
4.079887 0.746217 0.004801 0.0
1.864504 0.360967 0.007101 0.0
3.508510 1.011310 -0.001609 0.0
1.827863 0.223407 0.000899 0.0
3.924780 0.402832 0.003645 0.0
0.514216 1.113785 0.002225 0.0
0.921146 0.512878 -0.001790 0.0
0.378300 0.667705 -0.000197 0.0
0.209902 1.753891 0.000763 0.0
0.498031 0.673672 0.000483 0.0
3.749927 0.003324 -0.001631 0.0
3.114240 0.179556 -0.001049 0.0
2.816723 0.103325 0.000599 0.0
2.318209 1.008218 -0.001122 0.0
4.024206 1.919971 -0.003065 0.0
1.908435 0.696099 -0.001033 0.0
0.156575 1.418994 0.001403 0.0
2.772057 1.830862 0.004184 0.0
2.966893 0.822011 -0.002812 0.0
0.568090 0.669252 -0.001018 0.0
0.490055 1.772759 0.001742 0.0
2.968686 0.581923 -0.000575 0.0
1.321918 0.487690 0.003154 0.0
3.054129 1.565910 -0.002495 0.0
0.513884 1.413732 0.007335 0.0
1.020144 1.596740 -0.006193 0.0
1.303762 1.926295 0.001649 0.0
2.131193 0.218211 -0.001151 0.0
2.274489 0.885844 -0.003046 0.0
3.601361 0.789548 -0.000479 0.0
3.341121 0.396013 0.000322 0.0
1.278774 0.692159 -0.001619 0.0
2.678276 0.290964 0.001939 0.0
1.139149 1.640853 -0.003428 0.0
3.379956 0.325395 -0.000893 0.0
0.079689 1.735622 -0.000274 0.0
1.380983 1.114420 0.001397 0.0
3.014947 0.326780 -0.003027 0.0
1.539947 0.306678 -0.001086 0.0
4.028102 0.502257 0.004094 0.0
0.506373 0.815053 -0.000149 0.0
2.539165 1.689139 -0.003936 0.0
0.450476 1.224099 0.001592 0.0
0.088734 0.036615 -0.000685 0.0
2.882479 0.835697 -0.000687 0.0
3.332188 1.529967 -0.000100 0.0
1.219297 0.898237 -0.001418 0.0
0.156754 1.008371 -0.002462 0.0
1.323332 0.105030 -0.001109 0.0
3.461022 1.049070 0.002527 0.0
2.834799 0.158671 -0.004130 0.0
2.108950 1.351661 0.003805 0.0
0.355042 0.707208 0.000302 0.0
3.365231 0.075905 0.002539 0.0
0.604008 1.361197 -0.000274 0.0
2.608946 0.383586 0.002689 0.0
2.503740 1.779973 0.000277 0.0
2.949712 1.745855 -0.000927 0.0
2.555351 1.396505 -0.000230 0.0
2.514132 0.283844 0.000225 0.0
3.268089 1.582719 0.001519 0.0
1.469379 0.572975 0.000932 0.0
2.055078 1.535127 -0.000724 0.0
0.383459 1.343508 0.000306 0.0
4.061123 0.235034 0.002180 0.0
3.184322 0.934867 0.001700 0.0
3.526694 1.807766 -0.000411 0.0
1.695076 0.795765 0.002454 0.0
2.355552 0.716107 -0.001022 0.0
2.416587 0.064903 -0.001017 0.0
3.329863 0.155812 -0.001044 0.0
1.381281 1.731347 -0.005542 0.0
3.410938 1.799329 0.002396 0.0
1.374870 1.560583 -0.000810 0.0
2.551674 1.552603 0.002582 0.0
1.321297 1.808661 0.000662 0.0
3.355254 0.116657 -0.001661 0.0
0.578980 1.391571 0.000142 0.0
1.392395 1.726566 0.002353 0.0
1.302350 0.884402 -0.002130 0.0
3.741161 0.214777 -0.000566 0.0
1.679694 1.158762 -0.001961 0.0
1.459075 0.098223 -0.002027 0.0
3.518283 0.005899 -0.001283 0.0
3.663542 0.346250 -0.000302 0.0
2.369372 0.506103 -0.002641 0.0
1.404354 1.764189 0.002571 0.0
1.964140 1.458596 0.000937 0.0
2.192180 1.549233 -0.000285 0.0
1.864474 0.610156 0.003859 0.0
2.903604 1.202379 0.000100 0.0
2.444370 0.865778 -0.004331 0.0
2.167703 1.151135 -0.000130 0.0
1.398830 1.417228 0.000954 0.0
1.233225 1.439746 0.002664 0.0
2.809972 0.550777 0.001349 0.0
0.164228 0.000581 -0.000902 0.0
2.202491 1.905694 0.005600 0.0
0.372467 0.459638 0.001070 0.0
4.070974 1.166555 -0.002033 0.0
2.496630 0.248196 -0.002655 0.0
0.983370 0.547970 -0.001959 0.0
0.044646 1.912565 0.000302 0.0
3.414446 1.148767 -0.003849 0.0
2.745325 0.206537 0.001640 0.0
0.655039 0.299894 0.004385 0.0
3.571891 0.769150 -0.001314 0.0
3.046559 0.913675 -0.000328 0.0
0.104235 1.057861 0.001983 0.0
0.678229 1.650919 -0.001220 0.0
3.333033 0.400565 -0.003461 0.0
3.944824 1.648457 0.002008 0.0
2.615980 1.535358 0.001928 0.0
2.454182 1.717668 -0.004441 0.0
1.230091 1.592359 -0.001409 0.0
2.018097 0.807415 0.000564 0.0
0.182111 1.807177 -0.001214 0.0
0.122316 1.324028 0.002950 0.0
2.905678 0.632583 -0.007969 0.0
3.654221 1.088894 0.002121 0.0
2.419517 0.012111 0.001635 0.0
3.006340 1.564787 0.002882 0.0
2.782009 0.811624 0.000347 0.0
1.043676 0.859369 -0.000117 0.0
1.739643 0.950359 0.001209 0.0
0.502844 1.221908 -0.004089 0.0
0.593526 1.060449 0.000325 0.0
2.254615 1.090974 -0.000428 0.0
0.969225 1.376234 -0.001437 0.0
0.287650 0.165529 0.000985 0.0
2.227986 1.010087 0.002798 0.0
2.374911 0.731829 -0.004743 0.0
2.564326 0.085285 0.000612 0.0
1.482065 0.024941 0.000218 0.0
0.902447 1.545287 -0.001647 0.0
3.477239 0.712199 0.002496 0.0
1.032406 1.599451 0.000265 0.0
2.130078 1.090712 -0.000819 0.0
0.950130 1.215478 -0.006554 0.0
0.301187 0.526224 -0.001851 0.0
3.993953 1.361160 -0.000698 0.0
2.885675 1.811379 -0.001265 0.0
2.327279 0.167086 -0.001677 0.0
0.396002 1.630048 0.003404 0.0
0.584784 1.763543 0.003060 0.0
2.897162 1.200654 0.000631 0.0
2.388421 0.836868 -0.000825 0.0
1.643968 0.470408 0.001195 0.0
0.438863 0.777763 -0.000539 0.0
3.076703 0.473683 0.000370 0.0
3.025052 1.779539 0.001804 0.0
2.430996 1.680429 0.001173 0.0
2.137509 0.237724 0.003611 0.0
3.683134 1.170771 -0.000383 0.0
0.756074 1.836412 -0.000584 0.0
2.192236 0.485740 0.001558 0.0
0.601764 1.057023 0.002300 0.0
2.415611 0.222944 -0.000235 0.0
2.767770 0.384692 0.001565 0.0
0.064266 1.542628 -0.001554 0.0
2.859678 0.784400 -0.000370 0.0
2.991558 1.364384 0.001631 0.0
0.890975 1.513192 -0.000256 0.0
2.665251 1.235061 0.002012 0.0
2.418341 1.710020 0.004615 0.0
3.949739 1.419341 0.002506 0.0
3.047146 1.621922 0.000122 0.0
0.078067 1.793358 0.000531 0.0
3.052129 1.546469 -0.002812 0.0
0.803852 1.311938 0.003263 0.0
2.054774 1.361010 0.001265 0.0
1.996715 1.416370 -0.000944 0.0
1.732214 1.867915 0.003278 0.0
2.423556 0.343469 -0.000436 0.0
0.220924 0.200383 0.005271 0.0
0.867776 0.104774 -0.001413 0.0
3.172610 1.255220 -0.005787 0.0
3.018563 1.204076 0.002070 0.0
3.720150 0.036223 -0.000242 0.0
1.649340 0.235881 0.001510 0.0
2.202106 1.777042 -0.001209 0.0
2.653116 0.644558 0.000839 0.0
1.031534 1.096886 -0.003162 0.0
2.086683 0.549467 0.002548 0.0
2.398736 0.505353 -0.007560 0.0
1.226244 0.623194 0.000231 0.0
1.436412 0.544811 0.002578 0.0
2.334230 0.950665 0.002322 0.0
4.039769 0.538910 0.000083 0.0
0.803076 1.141992 -0.001958 0.0
2.090506 1.056605 0.000885 0.0
3.615803 0.990899 -0.002467 0.0
2.904240 0.286279 -0.002867 0.0
1.249002 0.551991 0.000752 0.0
2.629433 1.537143 0.001998 0.0
3.071161 0.872336 -0.001103 0.0
2.512105 0.019067 -0.000867 0.0
3.314533 1.243808 -0.002393 0.0
3.218668 1.143897 -0.003542 0.0
1.157659 0.322420 0.000871 0.0
2.114933 0.741487 -0.000275 0.0
2.308565 0.159971 0.003512 0.0
1.531984 0.211048 0.000472 0.0
2.212727 0.925019 0.000599 0.0
1.120539 1.843841 -0.002443 0.0
2.959852 1.892135 -0.003226 0.0
3.766120 0.960384 0.000797 0.0
2.744590 1.728641 0.001110 0.0
2.761020 1.414479 0.001683 0.0
3.658273 0.488585 -0.001952 0.0
2.403460 1.876614 -0.002872 0.0
3.608927 1.581660 -0.003048 0.0
1.388616 0.895385 -0.001367 0.0
2.245947 1.086468 -0.004754 0.0
0.985318 0.680067 -0.001904 0.0
2.853889 0.755285 0.004778 0.0
3.441605 0.306523 0.002855 0.0
0.368185 0.880531 0.002590 0.0
1.886883 0.784245 0.001165 0.0
3.775504 1.673186 -0.001288 0.0
3.549924 0.414366 -0.002069 0.0
3.549116 0.572144 -0.000544 0.0
0.443442 1.757012 -0.001025 0.0
3.962256 1.754454 -0.001942 0.0
0.048585 1.662195 0.005874 0.0
0.357396 0.774126 -0.000002 0.0
2.376676 1.428570 0.000841 0.0
1.893313 0.083862 -0.001828 0.0
0.166123 0.278964 -0.001612 0.0
0.727086 1.410893 -0.003544 0.0
1.578342 1.830147 -0.002737 0.0
3.537410 1.362196 -0.003793 0.0
2.321670 0.639107 0.000396 0.0
0.549644 1.311365 -0.000929 0.0
3.731989 1.685838 0.002159 0.0
0.178066 0.128400 0.003021 0.0
0.256831 0.256835 0.000132 0.0
2.531549 0.041675 0.002190 0.0
1.034194 0.025882 -0.002072 0.0
3.406953 1.087874 -0.000745 0.0
2.925930 0.045527 -0.002842 0.0
0.081259 1.762155 -0.003573 0.0
3.054748 1.522884 -0.004104 0.0
3.544522 0.268234 0.000170 0.0
4.073334 0.826600 -0.000214 0.0
1.368448 0.328316 0.003186 0.0
0.558745 -0.003318 0.000540 0.0
3.347054 0.815064 -0.000482 0.0
0.793075 0.193842 -0.003913 0.0
1.378450 0.076390 0.002332 0.0
0.664900 1.415860 -0.001068 0.0
2.211040 0.660494 -0.001368 0.0
0.135275 0.478000 -0.000986 0.0
1.673846 1.787098 0.001442 0.0
1.400971 1.724895 0.001607 0.0
0.361880 0.573692 0.000417 0.0
0.035394 1.385138 -0.001585 0.0
2.911964 1.111579 0.001166 0.0
0.097942 0.631304 -0.000889 0.0
4.019517 1.430413 0.002409 0.0
0.665828 0.697438 0.000422 0.0
0.721512 1.605022 0.000273 0.0
1.929013 1.438977 -0.000678 0.0
2.055001 0.989052 -0.001217 0.0
2.987974 0.077235 0.000344 0.0
0.268065 0.592550 0.003003 0.0
1.634924 1.815729 -0.000890 0.0
1.789585 1.632060 0.000237 0.0
1.088716 1.797509 -0.002289 0.0
0.653405 1.327252 -0.001337 0.0
2.035281 1.065482 0.003059 0.0
0.880884 0.015388 -0.003352 0.0
1.322289 0.035668 -0.004568 0.0
3.585995 1.693635 -0.003704 0.0
3.025894 1.437711 0.003080 0.0
2.452754 1.527112 0.001513 0.0
4.039254 1.071480 0.003394 0.0
0.536215 0.255424 0.002200 0.0
2.411185 0.257599 0.000817 0.0
3.287507 1.334965 -0.005460 0.0
3.073866 0.577858 0.000663 0.0
1.258091 1.822127 -0.000555 0.0
3.168083 1.439615 -0.001075 0.0
1.349503 1.719711 -0.003498 0.0
0.349847 0.483090 -0.001205 0.0
3.105377 1.723936 -0.001589 0.0
2.847749 0.321003 -0.002827 0.0
2.402833 1.345452 -0.001476 0.0
3.718620 0.361365 0.001994 0.0
4.080578 0.824343 0.000832 0.0
0.342018 0.056039 0.001826 0.0
0.054396 1.755783 -0.001967 0.0
1.554371 1.154847 0.002509 0.0
2.128108 1.350854 -0.003869 0.0
1.068199 1.691975 -0.004594 0.0
0.501900 1.370216 -0.000834 0.0
0.908835 1.827754 0.003069 0.0
2.687231 1.403365 0.000869 0.0
3.852783 0.120869 0.000385 0.0
4.001780 1.668447 0.001328 0.0
3.033955 0.238910 0.000532 0.0
2.123329 0.377477 0.003559 0.0
2.945287 0.445956 0.004188 0.0
1.461459 0.271784 -0.001906 0.0
2.742176 0.528872 0.000578 0.0
1.789422 1.442144 -0.001493 0.0
2.407052 0.269771 0.002414 0.0
1.490900 0.116269 0.003135 0.0
0.472728 0.436869 0.002578 0.0
2.648962 1.077937 -0.002081 0.0
2.218574 0.485772 0.000149 0.0
0.881269 1.415922 -0.001832 0.0
3.199846 1.703031 0.000080 0.0
1.654507 0.729095 0.001163 0.0
0.527396 1.315948 0.001724 0.0
1.558272 0.792080 0.000982 0.0
1.986223 1.924309 -0.001300 0.0
3.050622 1.705630 0.000634 0.0
2.900222 0.879953 0.001280 0.0
1.259915 1.194418 0.000500 0.0
1.807414 1.345022 -0.004836 0.0
1.225423 0.414620 -0.001201 0.0
4.032530 0.997272 0.004778 0.0
1.221379 1.647762 0.000767 0.0
0.847325 0.868044 0.000950 0.0
3.009103 0.007340 -0.000118 0.0
3.210754 1.272494 0.000030 0.0
2.283794 0.183627 -0.000839 0.0
3.123885 0.478146 -0.004039 0.0
1.735585 1.610468 0.002999 0.0
4.057464 1.221079 0.001669 0.0
3.669091 1.551723 0.002089 0.0
1.395890 1.066240 -0.000155 0.0
0.745119 1.821789 -0.001628 0.0
1.378616 0.765520 0.001281 0.0
4.083861 1.363675 0.003240 0.0
1.869116 0.155875 0.002139 0.0
2.750719 0.053680 -0.003725 0.0
1.609520 1.753003 -0.000117 0.0
3.010301 0.641664 0.001392 0.0
1.607570 0.525151 -0.001845 0.0
3.581411 0.018250 0.001749 0.0
2.938887 1.461067 -0.004325 0.0
2.719381 1.460544 -0.003008 0.0
2.399445 1.283803 0.006083 0.0
0.184385 1.287195 -0.005986 0.0
2.426195 0.399094 0.000522 0.0
1.448715 1.736761 -0.000505 0.0
0.437090 0.981031 0.004046 0.0
2.994661 1.269690 -0.003573 0.0
2.409275 1.411637 0.002592 0.0
3.106301 0.558609 0.007181 0.0
3.670735 0.558438 -0.001963 0.0
1.799142 1.855620 -0.003209 0.0
3.039800 1.811925 -0.002323 0.0
2.640398 0.904173 -0.000916 0.0
2.538570 0.959259 0.000184 0.0
2.428103 0.062534 -0.002145 0.0
2.296478 0.361981 -0.001135 0.0
3.598562 0.445000 -0.002105 0.0
3.650051 0.112122 -0.000977 0.0
1.966205 0.270373 0.003791 0.0
3.267397 1.838591 -0.000115 0.0
2.869308 1.037341 0.000055 0.0
0.828162 0.944099 0.003846 0.0
1.842294 0.845331 0.003318 0.0
3.612273 0.642137 -0.000089 0.0
2.276587 0.596619 -0.002619 0.0
2.511197 1.599671 0.001879 0.0
2.785443 1.016436 -0.000057 0.0
2.231168 0.376419 -0.001682 0.0
3.337803 0.985225 0.001234 0.0
2.892220 0.857250 0.002025 0.0
1.830694 0.644720 0.000532 0.0
0.784497 1.317981 0.001505 0.0
1.234019 0.906792 0.002749 0.0
0.786093 1.852893 -0.000495 0.0
3.330774 1.919660 0.001248 0.0
1.826008 1.926281 -0.000011 0.0
3.341810 0.915570 -0.003128 0.0
1.467939 0.571831 0.002817 0.0
3.724205 1.537539 -0.000366 0.0
0.879114 0.549839 -0.003127 0.0
0.621773 1.613297 -0.000227 0.0
0.969334 0.258014 0.001043 0.0
4.006492 1.462052 -0.001214 0.0
3.130987 0.325856 0.000479 0.0
2.691144 1.631414 -0.001778 0.0
2.179630 1.929125 -0.000488 0.0
0.419482 0.901883 -0.003653 0.0
3.271979 0.921562 0.002713 0.0
0.894796 1.237624 0.002813 0.0
1.527871 0.324727 0.000219 0.0
2.409643 1.269084 0.002694 0.0
3.390596 0.827489 0.004983 0.0
2.446109 0.395707 0.003016 0.0
2.052285 0.503632 0.002381 0.0
1.624382 1.639666 0.002358 0.0
3.004458 1.171745 0.000649 0.0
4.087100 1.915744 -0.002431 0.0
1.651538 1.845237 -0.002011 0.0
0.178011 0.950496 -0.000736 0.0
0.052860 1.202747 -0.000846 0.0
1.932991 0.540678 -0.001757 0.0
3.214732 1.218217 0.000289 0.0
2.394177 0.752066 -0.001387 0.0
2.115067 0.219392 -0.001407 0.0
1.517860 1.106271 0.003661 0.0
0.714846 1.187231 0.003019 0.0
3.025866 1.672049 0.001307 0.0
2.001351 1.629497 0.001230 0.0
0.762490 1.586753 0.000510 0.0
0.457241 0.091182 -0.001789 0.0
3.531274 0.316079 0.000885 0.0
0.060303 0.631282 0.002974 0.0
0.168275 1.478718 0.001547 0.0
2.474646 1.386793 0.001066 0.0
1.066867 1.835783 -0.000038 0.0
1.780358 0.448638 0.000685 0.0
1.848209 1.880001 0.001694 0.0
2.126191 1.563304 -0.000173 0.0
0.119678 1.584272 0.003399 0.0
0.904013 0.742966 -0.000029 0.0
3.737269 0.089425 0.002835 0.0
3.395036 1.671158 0.003339 0.0
3.524456 1.624909 0.000763 0.0
1.464239 0.870707 -0.001295 0.0
2.058867 1.503797 0.001139 0.0
0.584362 1.358547 0.003889 0.0
0.637290 1.487477 -0.002437 0.0
3.253051 1.006079 -0.003386 0.0
0.163417 1.466232 -0.002125 0.0
0.772938 0.122885 0.001451 0.0
1.359614 0.662459 0.002379 0.0
4.035751 0.828324 -0.003653 0.0
3.950320 0.287741 -0.003789 0.0
3.024229 0.639076 0.000463 0.0
0.480775 1.055096 -0.001423 0.0
0.205004 0.162950 0.001734 0.0
3.798831 0.013711 0.001008 0.0
1.935531 0.377218 0.003187 0.0
3.510869 1.834214 0.000038 0.0
0.907766 0.437214 0.001469 0.0
0.429955 0.271064 0.000423 0.0
1.625215 0.207255 0.001417 0.0
2.329648 1.906104 -0.002641 0.0
1.776082 0.539324 0.004071 0.0
0.966947 0.418992 -0.003095 0.0
0.803670 1.897723 -0.006472 0.0
0.053249 0.961381 -0.001765 0.0
3.343574 0.742127 0.002267 0.0
2.857504 0.399875 -0.002151 0.0
1.542046 0.170098 0.003681 0.0
0.055503 1.679018 0.004669 0.0
1.227044 0.240845 -0.001472 0.0
4.048473 0.523220 0.002606 0.0
3.406485 0.920613 0.001537 0.0
0.045355 0.025679 -0.004782 0.0
1.218872 0.313168 -0.001224 0.0
0.451316 1.913491 0.004320 0.0
0.545947 1.483981 0.001959 0.0
2.079837 0.567250 -0.000241 0.0
2.339847 1.140279 -0.000798 0.0
1.891308 1.156364 -0.000883 0.0
0.360346 1.069016 -0.001402 0.0
0.504487 0.526926 -0.002730 0.0
0.530796 0.152268 0.000004 0.0
0.620703 0.188907 0.000936 0.0
2.895709 0.797355 -0.002300 0.0
0.046854 1.903448 -0.002665 0.0
0.156128 1.891655 -0.003967 0.0
1.984328 1.113028 0.001508 0.0
1.982929 1.446752 0.004152 0.0
1.144795 1.003010 -0.001711 0.0
1.526127 0.839142 -0.000648 0.0
0.706046 1.085760 0.002321 0.0
0.292632 0.419359 -0.000800 0.0
2.571748 0.421207 0.001030 0.0
1.934524 0.689755 -0.000786 0.0
3.423044 0.808245 -0.001547 0.0
0.506969 1.294746 -0.001233 0.0
3.261841 0.389871 0.004420 0.0
3.985246 0.571060 -0.005813 0.0
2.343778 1.356430 -0.000395 0.0
2.964280 0.466746 -0.000179 0.0
2.741612 1.298461 0.001859 0.0
1.727486 0.687208 -0.001389 0.0
3.813871 1.592434 -0.000439 0.0
3.417415 0.093219 0.003960 0.0
2.538002 0.690581 -0.001807 0.0
0.898849 1.144298 -0.001847 0.0
0.757916 1.180436 -0.000801 0.0
0.016623 1.846558 0.003490 0.0
2.795346 0.393546 -0.002493 0.0
1.440655 1.277660 -0.005112 0.0
3.532004 0.067065 -0.004238 0.0
0.023644 0.239390 0.000515 0.0
3.420436 0.011013 0.003604 0.0
2.243356 0.976852 -0.000424 0.0
1.035024 1.766628 -0.001481 0.0
0.324762 1.929745 -0.001138 0.0
0.571313 1.657252 -0.003121 0.0
0.592184 1.921629 -0.004406 0.0
0.006484 1.869623 0.000592 0.0
1.461679 0.730526 -0.005356 0.0
0.702987 1.564933 0.000418 0.0
2.553502 1.138090 0.001220 0.0
2.001148 0.003903 -0.003374 0.0
1.860504 1.658164 -0.003471 0.0
2.795807 0.946105 -0.000366 0.0
2.459933 1.448178 0.000448 0.0
3.470543 1.353309 -0.002493 0.0
1.561212 0.112917 0.000468 0.0
3.836110 1.663940 -0.000127 0.0
3.293406 1.684262 0.000669 0.0
1.890969 1.462103 0.002099 0.0
0.371979 0.230233 -0.003645 0.0
0.651376 0.562130 0.003180 0.0
3.488127 1.214279 0.003100 0.0
3.305182 0.178123 -0.002704 0.0
0.390082 0.202767 0.000722 0.0
3.028209 1.668500 -0.001994 0.0
0.649439 1.783481 0.001841 0.0
0.046777 1.619841 0.000841 0.0
3.271965 0.236537 -0.000652 0.0
3.777738 0.386568 0.000364 0.0
1.469546 0.066880 0.002124 0.0
1.725609 1.545789 -0.006745 0.0
1.925508 1.868963 -0.006170 0.0
1.465788 0.414146 0.004421 0.0
3.465447 0.148726 -0.006622 0.0
1.580552 1.062249 -0.002377 0.0
3.702114 1.132267 0.005232 0.0
0.663850 0.784525 0.003906 0.0
2.555990 0.713678 -0.000920 0.0
1.132999 1.207584 0.001277 0.0
1.732963 0.395972 -0.000241 0.0
1.843641 0.925075 0.001247 0.0
3.952669 0.583552 -0.001910 0.0
0.959249 1.312049 -0.001580 0.0
3.081326 0.422915 0.000102 0.0
4.048090 0.739951 0.001459 0.0
2.076314 0.785486 -0.001201 0.0
0.982456 1.161002 0.003403 0.0
0.886962 0.657710 0.004172 0.0
2.647115 1.719575 -0.003184 0.0
1.788525 1.074362 0.004443 0.0
0.761968 0.446123 0.002737 0.0
1.419390 1.499132 -0.000341 0.0
2.186530 1.015653 -0.001621 0.0
1.775062 1.582306 -0.001560 0.0
1.612221 0.570434 -0.000549 0.0
3.906713 1.880782 -0.004122 0.0
1.020350 0.502132 0.003421 0.0
3.291187 0.311988 -0.000961 0.0
0.898468 1.207989 -0.003132 0.0
3.415701 1.605908 -0.001034 0.0
2.877397 0.088854 -0.000184 0.0
3.143924 0.489130 -0.001916 0.0
0.806550 0.692655 0.000302 0.0
3.331522 1.862980 0.004197 0.0
3.940307 0.444892 -0.000181 0.0
1.948048 1.077422 -0.000588 0.0
0.582863 0.722808 -0.001206 0.0
0.324971 0.373891 0.000789 0.0
3.060481 0.982115 -0.000829 0.0
2.855202 0.075666 -0.000024 0.0
1.408606 1.221180 0.001286 0.0
2.764314 0.017423 -0.001281 0.0
1.769031 1.019744 -0.002176 0.0
2.732681 0.916614 -0.000722 0.0
1.280700 1.635837 0.006580 0.0
0.385563 1.471355 0.000967 0.0
0.222149 1.589915 -0.002007 0.0
2.358837 0.765761 0.004096 0.0
3.541996 1.286465 -0.002224 0.0
2.983023 1.216158 -0.001173 0.0
3.872143 0.491826 0.002639 0.0
0.075167 0.785921 0.003848 0.0
1.136238 0.586515 -0.000517 0.0
3.688958 1.863996 -0.004651 0.0
0.880432 0.337077 0.002115 0.0
1.473100 0.941069 -0.001096 0.0
1.592896 0.040435 0.002582 0.0
3.203939 1.725594 0.002961 0.0
0.098465 1.729759 0.000360 0.0
3.708848 0.392642 0.001211 0.0
2.036881 1.806687 -0.000483 0.0
3.256141 0.005824 -0.000686 0.0
2.379002 1.816293 -0.002479 0.0
3.401881 1.871822 -0.000810 0.0
0.433183 1.306715 0.004230 0.0
2.334475 0.021567 -0.004844 0.0
1.756016 1.310486 -0.000906 0.0
1.931777 0.058440 0.000647 0.0
2.559694 0.021299 -0.000025 0.0
0.451896 0.674496 0.003501 0.0
0.658346 1.525677 0.001200 0.0
2.579013 0.731346 0.001220 0.0
3.656720 1.105862 0.003065 0.0
4.068266 1.087699 -0.000038 0.0
0.423748 0.819146 0.001168 0.0
2.290741 1.375888 0.000447 0.0
3.042537 1.474867 -0.001102 0.0
3.701146 1.044165 0.002372 0.0
3.092763 0.492169 0.000040 0.0
