3.250805 0.352074 0.001308 0.0
4.383806 0.344138 -0.001822 0.0
3.559751 0.412314 0.003022 0.0
0.654049 0.504542 -0.003753 0.0
0.838737 0.041816 -0.002377 0.0
3.164990 0.823120 -0.002822 0.0
2.613648 0.636486 0.000631 0.0
2.454314 0.243998 0.000258 0.0
1.846614 1.407912 0.001813 0.0
0.344887 1.326021 -0.001437 0.0
2.755383 0.361534 0.001763 0.0
4.379323 1.468409 0.000197 0.0
1.083233 0.696160 0.000975 0.0
3.075551 0.919289 0.001990 0.0
3.453959 1.199188 0.004889 0.0
3.344434 0.458101 -0.001911 0.0
1.799203 0.189108 -0.000536 0.0
4.336001 0.163595 0.000725 0.0
2.642178 0.973174 -0.002310 0.0
3.675943 0.813639 0.002704 0.0
0.294105 0.203895 0.001355 0.0
2.083821 1.417900 -0.001941 0.0
4.175964 1.018545 0.003242 0.0
1.259593 1.462443 -0.000818 0.0
2.723030 0.466553 -0.000446 0.0
0.071456 0.032221 -0.002795 0.0
3.019758 1.228350 -0.000362 0.0
1.857009 1.066692 0.000891 0.0
0.152108 1.296097 0.001911 0.0
1.415407 0.443885 0.001478 0.0
2.242294 0.193274 -0.001887 0.0
2.931827 1.178886 -0.005115 0.0
1.047662 0.650219 0.000552 0.0
1.965304 0.366613 -0.003344 0.0
3.728759 1.212586 -0.001041 0.0
3.048007 0.007553 0.001730 0.0
1.217111 0.088080 0.000170 0.0
1.761146 0.743404 -0.005567 0.0
4.472743 1.110035 0.002070 0.0
3.549983 0.222604 -0.001619 0.0
0.626991 0.994305 -0.002159 0.0
3.435506 0.503734 -0.003013 0.0
0.047685 1.152350 -0.002780 0.0
1.005323 0.608656 -0.003460 0.0
2.208152 0.212527 0.003958 0.0
1.133891 0.926773 -0.000605 0.0
3.393571 1.477004 -0.002897 0.0
3.211497 1.286843 -0.000270 0.0
1.094140 0.478056 -0.005668 0.0
1.306467 1.063688 0.002390 0.0
2.465068 1.384079 -0.003358 0.0
0.518173 0.582085 0.000647 0.0
2.434091 0.859511 0.001786 0.0
2.959200 1.393054 0.000684 0.0
0.462195 0.210582 -0.002240 0.0
2.272014 0.471040 0.002048 0.0
4.372256 0.453202 0.001979 0.0
2.921042 1.104670 -0.001921 0.0
1.576610 1.185275 -0.002554 0.0
1.530203 0.745442 -0.002928 0.0
2.491613 0.739378 -0.000821 0.0
2.935957 0.922562 -0.001065 0.0
1.619367 0.408079 -0.002075 0.0
3.523800 1.464056 0.001711 0.0
0.347057 0.971752 -0.004361 0.0
0.550544 0.020706 0.003985 0.0
1.713436 0.084777 -0.001968 0.0
1.136614 0.553609 -0.002982 0.0
1.957348 0.860315 -0.000032 0.0
3.012957 1.407905 -0.000389 0.0
0.858023 0.794827 0.000618 0.0
4.460754 0.154322 -0.001404 0.0
0.869652 1.131744 -0.000501 0.0
0.628139 0.977816 0.003350 0.0
0.984259 0.710407 -0.000063 0.0
2.503475 0.851355 -0.002964 0.0
1.463609 0.180563 -0.001209 0.0
3.106097 0.799645 0.001371 0.0
1.692759 1.237390 -0.001064 0.0
3.089077 0.238158 -0.000939 0.0
3.134399 0.692667 0.000651 0.0
3.730606 0.879479 0.003329 0.0
3.744053 1.296567 0.001277 0.0
4.100214 0.125836 0.004407 0.0
3.288412 1.276418 0.000217 0.0
0.667002 1.373696 0.000820 0.0
4.262553 1.081227 0.000105 0.0
3.829353 0.884500 0.005184 0.0
3.040535 1.029190 -0.001411 0.0
3.171478 0.121046 0.001158 0.0
0.079342 0.738784 0.002863 0.0
2.789403 1.484000 0.002266 0.0
2.580243 0.526341 -0.004280 0.0
2.498979 1.099614 -0.004474 0.0
0.977828 1.130139 0.000975 0.0
1.369612 1.430213 0.002458 0.0
0.593093 0.102323 0.004753 0.0
1.675421 0.899994 -0.000075 0.0
3.897724 0.793202 0.000360 0.0
3.647673 0.348660 0.003538 0.0
3.350547 1.081917 -0.002703 0.0
3.385354 0.305946 0.001694 0.0
1.674403 0.748000 0.001165 0.0
4.040446 1.361515 0.001370 0.0
3.859466 0.953038 0.001889 0.0
1.686323 0.028309 -0.002826 0.0
1.615295 1.356219 -0.001493 0.0
0.146655 0.668630 0.000043 0.0
3.384702 0.162899 -0.003959 0.0
3.476379 0.889362 -0.002549 0.0
0.123232 0.151296 -0.000235 0.0
4.300810 1.048504 -0.001269 0.0
1.118106 0.660208 0.000153 0.0
2.067487 0.362906 -0.000775 0.0
1.602798 0.181373 -0.005410 0.0
1.105628 0.577941 -0.002626 0.0
0.433872 0.962653 -0.002816 0.0
2.069375 0.789092 0.001933 0.0
2.374282 1.036954 -0.002704 0.0
2.728803 0.135302 0.000632 0.0
2.734626 0.598184 0.003296 0.0
0.428297 0.177829 -0.000199 0.0
1.264817 0.211510 -0.002429 0.0
0.727319 1.306256 0.001636 0.0
0.008174 0.176438 -0.003254 0.0
0.959816 1.442681 0.004194 0.0
0.257763 0.204974 -0.001898 0.0
4.074330 0.610557 -0.003191 0.0
0.259080 0.375184 -0.001302 0.0
2.336090 1.468952 -0.000300 0.0
0.584563 1.159555 0.001681 0.0
4.330573 1.434086 -0.000094 0.0
1.077955 0.579744 0.001299 0.0
2.038873 1.473393 0.003003 0.0
0.422684 0.262870 -0.002807 0.0
0.967915 0.838676 0.000038 0.0
1.324087 0.835895 -0.004119 0.0
3.233789 0.523745 -0.001747 0.0
1.133735 0.776413 -0.001047 0.0
1.627703 1.299732 -0.004131 0.0
2.753531 1.425108 -0.002136 0.0
3.411061 0.857667 -0.003645 0.0
2.554872 0.912711 -0.001644 0.0
3.245997 1.366847 0.003491 0.0
1.697594 1.434463 -0.001031 0.0
0.477025 0.982528 -0.002298 0.0
2.409661 1.268615 -0.000579 0.0
4.322368 0.236996 0.002906 0.0
3.893883 1.397016 -0.002547 0.0
3.440524 0.209870 -0.002623 0.0
0.701177 1.491355 -0.002722 0.0
3.642545 0.870718 0.000849 0.0
3.305615 1.146630 0.004219 0.0
1.082774 0.807865 -0.003817 0.0
2.330482 0.950896 0.000214 0.0
0.432080 1.220100 0.001616 0.0
3.571508 0.645962 -0.001189 0.0
1.093517 0.068011 0.000607 0.0
1.393980 0.521928 -0.000730 0.0
1.022524 0.476033 -0.000005 0.0
2.896762 0.281722 -0.000060 0.0
0.407496 0.001536 0.002114 0.0
3.997767 0.964187 -0.000569 0.0
4.168087 1.247844 -0.001724 0.0
2.706414 0.557723 -0.000312 0.0
2.324813 1.392118 -0.000326 0.0
0.686464 0.631957 -0.002573 0.0
2.376563 1.294036 -0.003186 0.0
1.082181 0.868330 -0.000319 0.0
3.426983 0.767264 -0.001801 0.0
2.451414 0.305903 0.002265 0.0
2.958930 0.915064 -0.002186 0.0
0.532029 1.101729 -0.000671 0.0
2.017297 0.420636 -0.001535 0.0
3.708846 0.253114 -0.000927 0.0
1.299686 0.522782 0.001968 0.0
2.407294 0.306686 0.001147 0.0
0.943826 1.337654 0.002342 0.0
2.024605 0.526268 0.003118 0.0
0.423017 0.051968 -0.001706 0.0
2.511528 0.880428 -0.001490 0.0
2.791783 0.555824 0.001077 0.0
3.350282 0.860606 -0.000210 0.0
3.309628 0.611158 0.002563 0.0
2.958521 0.177260 -0.003518 0.0
3.448424 0.358294 -0.004071 0.0
0.447202 0.843374 0.004609 0.0
0.325929 0.050912 -0.004468 0.0
4.117742 0.769123 -0.001603 0.0
1.129751 0.154852 0.001626 0.0
0.115434 0.457920 -0.002136 0.0
0.448160 0.267430 -0.006903 0.0
0.513548 0.703325 0.001537 0.0
3.088188 1.020889 -0.001200 0.0
1.760458 1.157781 0.000251 0.0
1.869673 0.014341 0.000945 0.0
2.665520 0.789419 0.000963 0.0
0.054855 1.419228 -0.001629 0.0
3.114513 0.445521 -0.003201 0.0
2.355345 1.073682 -0.003466 0.0
0.052163 1.256781 0.003211 0.0
3.717024 0.954778 -0.001720 0.0
3.638039 0.717571 -0.001655 0.0
3.556117 1.148897 0.001283 0.0
2.651157 1.219800 0.002371 0.0
4.015483 0.802686 -0.001995 0.0
3.840648 1.037373 -0.002119 0.0
4.094896 0.875760 -0.000778 0.0
2.754705 0.714398 0.001192 0.0
2.037367 0.622908 0.001952 0.0
3.615443 0.335238 -0.001052 0.0
3.894001 0.659812 0.000362 0.0
3.809939 1.513352 -0.001523 0.0
1.899850 1.042047 0.003366 0.0
0.508931 1.442424 -0.000707 0.0
1.437944 0.614338 0.001263 0.0
2.709902 0.397625 -0.000121 0.0
0.677967 0.506263 -0.003142 0.0
1.936278 0.552211 0.001177 0.0
0.339811 1.360530 -0.002168 0.0
2.390818 0.172807 0.000918 0.0
0.027609 0.883709 -0.000051 0.0
3.919179 0.602421 0.000121 0.0
1.999772 0.195958 -0.000610 0.0
1.192146 0.328377 -0.004125 0.0
2.508056 1.307514 -0.000866 0.0
0.732054 1.344626 -0.001820 0.0
3.063196 0.316579 0.002776 0.0
0.156564 0.885920 0.000282 0.0
3.201844 1.242458 0.000263 0.0
3.537176 0.740712 0.001029 0.0
3.255040 1.355944 -0.001804 0.0
0.270946 0.377401 -0.001103 0.0
3.685710 0.019828 -0.001354 0.0
3.699674 0.255857 0.001097 0.0
1.958485 0.167202 -0.003108 0.0
4.191328 1.403877 0.001133 0.0
0.080092 0.187916 0.000458 0.0
1.590993 0.274184 -0.001753 0.0
3.063242 0.790200 -0.003866 0.0
3.067272 0.197904 0.003850 0.0
0.276542 0.052514 -0.002086 0.0
0.725114 0.793959 -0.002454 0.0
2.898715 0.186393 -0.000195 0.0
4.343365 1.236939 -0.001647 0.0
1.633488 0.365984 0.004261 0.0
4.422329 0.063417 -0.002202 0.0
0.188387 0.668295 -0.001806 0.0
3.469443 0.932338 0.003371 0.0
0.228065 0.818063 -0.003067 0.0
1.724832 1.418308 0.000434 0.0
1.060839 1.463481 0.000534 0.0
2.615263 0.087493 -0.001654 0.0
4.291361 0.034732 -0.001546 0.0
0.540428 1.428915 0.004793 0.0
0.951396 0.598067 0.000041 0.0
2.436364 0.750093 0.001323 0.0
0.985462 0.858805 0.003827 0.0
0.685345 0.909737 0.001468 0.0
1.973876 0.147005 -0.002107 0.0
2.974071 1.166909 -0.002864 0.0
4.118830 0.977049 -0.001551 0.0
1.439008 0.441884 -0.001745 0.0
2.484551 1.462462 0.001398 0.0
3.132613 0.433834 -0.001556 0.0
1.967499 0.930979 -0.006415 0.0
0.408974 1.509965 -0.000914 0.0
3.107341 0.582295 -0.000640 0.0
4.475906 1.280121 -0.000129 0.0
1.037704 0.689139 -0.002726 0.0
1.229589 0.891047 -0.002391 0.0
3.531076 1.256223 0.002000 0.0
1.839670 1.014620 0.002566 0.0
2.096530 0.380029 -0.000275 0.0
2.309608 1.454113 -0.003597 0.0
0.799909 1.399827 0.001015 0.0
0.689043 1.089626 0.004416 0.0
2.173371 0.464412 -0.001467 0.0
1.073836 0.234361 -0.000689 0.0
2.165388 0.423912 -0.002251 0.0
1.693399 0.854905 0.000486 0.0
0.515230 0.192784 0.004447 0.0
2.550239 1.432283 0.000208 0.0
0.475636 0.307599 0.002615 0.0
2.556425 1.299758 0.003814 0.0
0.837225 0.088578 -0.003977 0.0
2.271527 0.100420 -0.003444 0.0
3.017797 0.234539 0.003454 0.0
0.629707 1.191264 -0.004236 0.0
1.072872 1.266420 0.005537 0.0
0.617965 0.223464 0.000529 0.0
3.113421 0.847775 -0.000630 0.0
4.405146 1.498899 0.000742 0.0
0.806872 1.038466 0.002637 0.0
2.083845 0.971939 0.001819 0.0
3.344092 0.531415 0.002202 0.0
2.941007 1.126451 0.001118 0.0
2.722663 0.388048 -0.001177 0.0
1.237190 0.502165 -0.000678 0.0
3.647204 0.423139 0.000530 0.0
2.893376 0.032001 -0.001523 0.0
1.026082 0.350309 -0.000312 0.0
0.734063 0.623306 -0.000341 0.0
4.472722 0.667911 -0.000112 0.0
0.496955 0.454796 -0.000871 0.0
3.194304 0.455996 0.005072 0.0
3.482386 0.351713 -0.004745 0.0
3.374095 0.191377 0.004596 0.0
3.114119 0.573545 0.002500 0.0
2.128768 0.246415 0.000016 0.0
4.458393 1.214293 0.002575 0.0
1.294109 0.323997 -0.005402 0.0
3.270147 0.301533 -0.000388 0.0
4.068680 0.070816 0.001339 0.0
2.314841 1.183168 -0.000226 0.0
4.280695 1.317284 -0.003674 0.0
0.396781 0.160022 0.002959 0.0
3.563721 0.064328 0.002817 0.0
1.296906 0.193969 0.000972 0.0
1.789821 0.661988 0.002469 0.0
0.369371 1.004959 0.002387 0.0
3.962409 0.284292 -0.004763 0.0
2.332698 0.569034 0.002413 0.0
3.953398 0.690230 0.004916 0.0
2.034947 1.024947 0.001433 0.0
2.629904 0.738223 -0.003562 0.0
3.938770 1.441826 0.000163 0.0
0.391521 0.351062 0.000548 0.0
2.053100 0.178242 -0.001713 0.0
3.908057 0.637299 -0.000239 0.0
4.094538 1.218109 0.000107 0.0
3.810416 0.802771 -0.001050 0.0
3.558029 0.310622 -0.003932 0.0
2.288516 0.830407 -0.001106 0.0
3.411857 0.639165 -0.001328 0.0
2.615035 0.390891 -0.000657 0.0
3.912275 1.106014 0.001104 0.0
0.234881 1.461394 -0.000639 0.0
1.828982 0.613727 0.003597 0.0
1.502397 0.357817 -0.002682 0.0
0.862093 1.018105 0.002018 0.0
0.540806 0.968118 0.002592 0.0
3.492006 0.743219 0.000515 0.0
1.617398 0.165854 -0.003420 0.0
1.232455 0.177491 0.000296 0.0
0.956728 0.774229 0.003464 0.0
1.640087 0.666727 0.000381 0.0
4.013624 1.334414 -0.004540 0.0
2.304151 0.803825 -0.003336 0.0
2.692129 0.591447 -0.000441 0.0
0.938413 1.169558 -0.003554 0.0
3.784718 0.287619 0.000557 0.0
0.735481 0.998789 0.001961 0.0
1.662266 1.113967 0.003469 0.0
2.970541 0.063711 0.000408 0.0
3.776578 1.179509 0.003885 0.0
2.878792 0.914993 -0.000569 0.0
1.298329 0.202080 0.001032 0.0
0.911265 1.158525 -0.003801 0.0
3.219001 0.442161 -0.005709 0.0
1.918602 1.020221 -0.000647 0.0
4.023056 0.971020 0.001377 0.0
2.864804 0.892226 0.000430 0.0
3.857059 0.160220 0.003980 0.0
1.598478 0.846491 0.003906 0.0
1.141256 0.803444 0.000015 0.0
4.000908 0.764365 0.000815 0.0
1.123130 0.500912 -0.001183 0.0
1.100836 0.750761 0.001069 0.0
3.140875 1.169124 0.000899 0.0
1.410803 0.914216 0.004474 0.0
2.809079 0.497688 0.000028 0.0
2.536669 1.438037 0.002305 0.0
1.070096 0.531947 -0.000180 0.0
2.293500 1.017150 -0.002291 0.0
1.382623 1.126848 -0.000426 0.0
2.011404 0.304842 0.001636 0.0
2.185769 0.533678 0.002258 0.0
3.824262 0.178691 0.002129 0.0
1.429485 0.457515 0.003419 0.0
4.038458 0.337361 -0.001744 0.0
1.227237 0.409533 0.000469 0.0
3.730080 1.001349 -0.001025 0.0
2.675165 0.138946 -0.003521 0.0
3.025861 0.630438 -0.002086 0.0
2.882009 0.198426 0.003069 0.0
1.008273 0.240036 0.005206 0.0
2.604024 0.608397 0.000558 0.0
3.089616 0.642081 0.000158 0.0
4.447386 0.427897 0.001024 0.0
0.194630 0.607540 0.001558 0.0
2.489182 0.994602 0.000824 0.0
1.987049 0.280742 -0.001508 0.0
0.078117 1.172771 -0.003633 0.0
0.417585 1.301405 0.001129 0.0
3.235655 1.445787 -0.001938 0.0
4.100757 0.174480 0.000337 0.0
1.887775 1.441536 0.000648 0.0
2.056235 1.225059 -0.003341 0.0
4.159135 1.021983 0.005450 0.0
0.787003 0.789636 0.002436 0.0
3.540947 0.832567 -0.001298 0.0
2.015558 0.970381 0.003761 0.0
1.028536 0.630773 0.005852 0.0
0.931101 1.404191 0.002886 0.0
2.328553 0.482736 -0.001857 0.0
4.201878 0.530674 -0.002956 0.0
2.464450 1.291674 -0.001238 0.0
4.075698 1.187493 0.003275 0.0
1.846556 1.186139 0.000513 0.0
2.450452 0.943297 -0.000258 0.0
3.549386 1.339353 0.004202 0.0
3.608940 0.827765 0.000058 0.0
1.017034 1.145961 -0.000292 0.0
1.352364 1.010002 0.003407 0.0
2.798504 0.605308 -0.003659 0.0
1.720172 1.402976 0.003056 0.0
0.784607 0.386971 0.006582 0.0
3.552171 0.823964 0.001698 0.0
1.573332 0.756471 -0.000402 0.0
1.574134 0.744114 0.005177 0.0
4.098126 1.246232 -0.001043 0.0
2.256233 1.211176 0.005152 0.0
2.904157 1.103988 -0.003019 0.0
3.152698 0.139915 -0.000794 0.0
2.176151 0.168378 0.001986 0.0
1.327210 0.628209 0.000338 0.0
3.807505 0.844047 -0.003446 0.0
4.460186 0.877984 -0.002402 0.0
1.273841 0.680063 -0.002921 0.0
4.141389 0.737622 0.001169 0.0
2.860106 0.008283 -0.002549 0.0
4.337704 1.178191 -0.001580 0.0
1.544132 1.207835 -0.002124 0.0
2.569755 0.629417 -0.000273 0.0
1.284589 0.658761 0.001973 0.0
1.307116 1.265933 0.001087 0.0
0.243965 0.753447 0.000538 0.0
3.501503 1.273933 -0.000584 0.0
0.219814 0.861814 0.000920 0.0
4.145142 0.419537 -0.003091 0.0
3.437877 0.763431 -0.002278 0.0
3.731258 1.125124 -0.000621 0.0
1.341250 0.112920 -0.000416 0.0
4.109789 0.616099 -0.000943 0.0
0.883242 1.207417 -0.000784 0.0
0.226013 0.634492 0.004235 0.0
1.069573 0.970759 0.000179 0.0
3.948507 0.155245 0.000656 0.0
1.180291 1.184132 -0.004875 0.0
0.128486 0.199691 -0.000552 0.0
3.069772 0.074248 -0.001630 0.0
2.703477 0.297358 -0.002538 0.0
2.049928 1.395806 -0.001897 0.0
0.009272 1.128882 0.000596 0.0
0.839033 0.388120 0.002401 0.0
1.232600 0.493753 0.002170 0.0
1.403726 0.903687 0.000857 0.0
1.467423 0.222408 -0.002154 0.0
1.844491 1.396786 -0.001885 0.0
1.548764 0.781549 -0.003655 0.0
4.285135 0.446690 -0.001696 0.0
2.917827 0.520247 -0.001654 0.0
3.213479 1.058746 -0.000447 0.0
0.547450 0.779762 0.002434 0.0
0.221435 0.669774 -0.000579 0.0
1.949240 1.298802 -0.000290 0.0
3.034718 0.273759 0.001683 0.0
4.126776 0.720538 0.000779 0.0
1.624520 0.765111 -0.000960 0.0
1.673696 0.513715 -0.001487 0.0
4.106116 1.126827 -0.000377 0.0
3.183742 0.817636 0.000179 0.0
2.751574 0.886151 0.002087 0.0
0.799073 0.171372 -0.000368 0.0
2.255236 1.330241 -0.000915 0.0
3.235277 0.204322 -0.004276 0.0
4.116947 0.268014 0.000684 0.0
0.070225 0.780151 0.000456 0.0
3.618582 0.549317 0.001044 0.0
0.883893 1.452400 0.003470 0.0
3.415767 0.073480 0.000899 0.0
3.072561 0.716858 -0.001718 0.0
3.496439 1.095782 -0.002013 0.0
1.274506 0.111492 -0.000813 0.0
4.126039 0.159695 0.002235 0.0
1.264283 0.411500 0.004435 0.0
0.304156 0.257791 0.004795 0.0
1.456366 0.670594 0.004934 0.0
0.896322 1.494549 -0.002389 0.0
0.038951 1.356558 -0.002990 0.0
3.345660 1.014169 0.002077 0.0
3.771230 0.482450 0.002925 0.0
0.357685 0.293735 -0.002401 0.0
3.136041 0.747428 0.002075 0.0
1.370428 1.364018 0.004037 0.0
0.697790 0.858114 -0.000024 0.0
2.801098 1.427104 -0.000402 0.0
0.986205 0.008390 -0.000501 0.0
3.690798 0.977397 -0.001561 0.0
2.297366 1.245238 0.001568 0.0
0.976612 1.370737 -0.001969 0.0
1.338377 0.717642 0.000940 0.0
1.014311 0.762915 -0.000976 0.0
0.984574 1.421065 -0.000963 0.0
0.212363 0.772349 -0.002257 0.0
1.472536 0.510357 0.003156 0.0
3.156179 0.766925 0.000257 0.0
3.083738 0.323879 -0.004069 0.0
2.626741 0.373846 0.001822 0.0
1.857285 0.776538 0.000929 0.0
2.552265 0.032114 -0.001262 0.0
0.001644 0.370129 0.004159 0.0
1.853890 0.413535 0.000755 0.0
1.186854 0.906917 0.000986 0.0
2.329110 0.440741 -0.001054 0.0
0.422215 0.259977 0.002540 0.0
1.027146 1.205342 0.000012 0.0
2.401757 1.172501 -0.002968 0.0
2.046723 1.487298 0.003272 0.0
4.030696 1.020403 0.000302 0.0
3.670514 0.683434 -0.001543 0.0
0.443655 0.928916 -0.000035 0.0
2.013650 0.270090 0.000950 0.0
4.296977 1.353071 0.001918 0.0
2.220626 0.059876 -0.003285 0.0
0.451156 1.029640 -0.004304 0.0
3.311029 0.429991 0.002717 0.0
1.637785 1.196639 0.002423 0.0
2.211109 1.337264 -0.000564 0.0
0.441086 1.168546 0.001612 0.0
1.634472 0.080877 0.002443 0.0
1.736103 0.966937 -0.003443 0.0
0.524747 1.344713 -0.000746 0.0
3.321244 1.052809 0.002814 0.0
0.679642 0.874253 -0.003471 0.0
4.444903 1.065915 -0.000903 0.0
4.230356 1.159030 -0.004508 0.0
3.878432 0.732239 -0.003912 0.0
0.897510 1.098083 0.002548 0.0
1.549609 0.388363 0.002051 0.0
0.562858 1.288740 0.004401 0.0
3.463359 1.410818 0.001627 0.0
3.127647 0.297774 -0.001676 0.0
4.431477 0.594553 -0.002056 0.0
4.096288 0.427223 -0.003122 0.0
3.555816 1.423360 -0.000231 0.0
1.586519 0.955101 0.003835 0.0
1.365938 0.195107 -0.004698 0.0
3.805158 0.999684 0.000094 0.0
3.916314 1.232575 -0.000603 0.0
2.136166 0.368115 -0.001864 0.0
0.748953 0.959048 0.001440 0.0
3.954403 0.308420 -0.004364 0.0
0.788708 0.642101 -0.000040 0.0
3.770555 0.425538 -0.004780 0.0
0.723650 1.024689 0.000478 0.0
0.001287 1.415836 0.002180 0.0
0.861966 1.360985 -0.003793 0.0
4.076302 0.585959 -0.000621 0.0
3.268609 0.771061 -0.000745 0.0
3.878960 0.730228 -0.002456 0.0
2.369478 0.984792 -0.001624 0.0
2.148564 1.446017 0.000918 0.0
3.276775 0.705809 -0.000172 0.0
1.741725 0.805838 -0.001621 0.0
1.035408 1.095919 0.001334 0.0
1.626672 1.328767 -0.004346 0.0
3.298927 0.412220 0.001810 0.0
0.761153 0.969286 -0.000575 0.0
0.146173 0.319870 0.003074 0.0
2.366149 0.179074 0.000615 0.0
3.632209 1.359255 0.001394 0.0
0.570634 0.109014 -0.001454 0.0
4.402944 0.927352 0.000264 0.0
2.898516 1.427079 0.005212 0.0
0.412973 0.511892 -0.003163 0.0
2.275851 0.976954 0.000644 0.0
1.259111 0.015867 -0.002369 0.0
0.604248 0.164637 -0.001619 0.0
1.099598 0.902591 0.007459 0.0
4.046185 1.162608 0.000140 0.0
0.317537 1.021324 -0.001686 0.0
4.067571 0.274885 -0.001709 0.0
2.281201 1.165096 0.001005 0.0
3.047200 0.121129 0.003260 0.0
3.866670 0.458025 0.002320 0.0
1.136702 0.993253 -0.002389 0.0
2.413725 0.533779 0.003596 0.0
1.706770 0.308617 0.000268 0.0
3.628167 0.335842 -0.000209 0.0
2.510841 0.349918 0.000329 0.0
0.654410 0.769711 -0.001107 0.0
2.532466 0.148942 -0.006637 0.0
2.192702 0.324419 -0.000445 0.0
0.678627 0.890325 0.000656 0.0
2.149992 1.456589 -0.000613 0.0
2.438331 1.419908 -0.000426 0.0
2.494533 0.371186 0.001493 0.0
3.811463 1.295692 0.004653 0.0
3.884290 0.930607 0.007108 0.0
0.606333 1.360879 -0.000945 0.0
0.798286 0.326358 -0.005780 0.0
1.011421 0.349497 0.000757 0.0
0.498885 0.347450 0.000882 0.0
2.824037 1.024124 -0.001060 0.0
2.439202 0.808487 -0.000555 0.0
1.175456 0.485388 -0.000216 0.0
1.764626 0.637708 0.000504 0.0
0.199718 0.536028 -0.005329 0.0
1.880589 0.615688 0.002575 0.0
0.680631 1.476337 -0.000369 0.0
3.526950 1.282269 0.001132 0.0
4.162222 0.400154 0.002598 0.0
4.090923 0.468103 -0.000375 0.0
1.983952 0.445661 -0.003524 0.0
0.006657 0.051075 -0.000080 0.0
3.156284 0.749926 -0.001291 0.0
3.468067 0.603376 -0.000307 0.0
2.925959 1.267186 -0.006569 0.0
1.166384 0.827370 0.002818 0.0
1.959970 0.211082 -0.001399 0.0
1.413210 0.718057 -0.000955 0.0
1.916101 0.576885 0.000257 0.0
0.266658 1.200189 0.002655 0.0
3.574238 0.631218 -0.002947 0.0
0.335370 0.174352 0.001098 0.0
2.202221 0.317464 0.005121 0.0
4.090830 0.871861 0.003661 0.0
3.284656 0.262908 -0.001824 0.0
-0.000427 1.011062 -0.001448 0.0
2.125108 0.612627 -0.002177 0.0
3.738653 0.042740 0.003296 0.0
3.388168 1.022791 -0.002962 0.0
2.837132 1.382513 0.001232 0.0
2.931722 0.435694 -0.000631 0.0
4.106418 0.165151 0.000740 0.0
2.767148 1.196959 0.000525 0.0
3.217758 1.028115 -0.003138 0.0
3.700952 1.188085 0.004312 0.0
1.083673 0.288236 0.004281 0.0
0.011357 1.313952 0.002938 0.0
1.917960 0.760318 -0.003814 0.0
2.617958 1.143481 0.001158 0.0
1.403735 0.421528 0.002940 0.0
3.467363 0.786608 -0.002376 0.0
2.003236 0.425258 -0.000515 0.0
4.343656 0.840065 0.000990 0.0
2.601222 0.735527 0.000677 0.0
2.867956 0.997298 -0.004309 0.0
3.234945 1.484206 0.003956 0.0
1.429034 0.780544 0.001623 0.0
0.709661 0.854196 0.003006 0.0
1.710796 0.165733 -0.001880 0.0
1.382122 0.103472 0.001588 0.0
2.583446 1.035967 -0.000106 0.0
3.855187 0.569776 0.002206 0.0
3.768493 1.219436 0.000226 0.0
3.914670 1.344679 0.000629 0.0
0.102970 0.255657 0.001244 0.0
0.424240 0.276225 0.000607 0.0
1.419297 0.045290 -0.002692 0.0
3.159615 0.653583 -0.002255 0.0
2.816348 1.011135 0.002831 0.0
1.493641 1.371163 -0.001234 0.0
2.289104 0.767556 0.000426 0.0
1.533040 0.749734 0.004823 0.0
3.532293 0.272229 0.001571 0.0
1.667398 0.992877 -0.001018 0.0
0.185798 1.192973 0.001302 0.0
2.617952 0.838949 0.002909 0.0
2.997364 0.325727 0.001943 0.0
0.338361 0.153249 0.004929 0.0
4.279867 0.962956 -0.003590 0.0
3.475637 0.139296 -0.000965 0.0
1.917533 0.103804 -0.004408 0.0
1.968927 0.152108 0.000437 0.0
2.888013 0.267889 0.000822 0.0
0.198777 0.963419 0.000754 0.0
0.356628 0.790737 0.000837 0.0
0.114593 0.347401 0.002552 0.0
0.279655 1.039779 -0.001353 0.0
3.920214 0.857215 -0.000696 0.0
0.767550 1.109247 0.004167 0.0
2.000005 0.897589 0.001027 0.0
0.926654 0.088871 -0.000217 0.0
3.353123 1.393050 0.001763 0.0
0.755793 1.206428 -0.001215 0.0
3.622001 1.135237 -0.002952 0.0
3.605509 0.108072 0.002076 0.0
0.852146 0.168779 -0.000044 0.0
2.246874 0.327387 -0.000669 0.0
3.475851 1.505599 0.005298 0.0
0.625056 0.515000 -0.001301 0.0
0.600001 0.928058 0.004867 0.0
2.889642 0.455125 -0.004068 0.0
3.573101 0.005973 0.002563 0.0
0.172258 0.309393 -0.002770 0.0
1.913190 0.884933 0.003495 0.0
0.998126 0.972738 -0.000793 0.0
3.050346 0.425147 -0.004115 0.0
1.583631 0.204868 -0.000197 0.0
1.349063 1.376003 -0.002253 0.0
2.436634 1.251256 0.000035 0.0
2.264683 0.235653 0.001822 0.0
0.939979 1.086634 0.000041 0.0
2.327357 1.208685 -0.001321 0.0
1.850073 0.736625 0.002298 0.0
0.009423 0.883576 0.001996 0.0
0.819946 0.938367 0.003295 0.0
2.664715 0.390007 0.000291 0.0
0.324625 1.145283 0.001238 0.0
0.099186 0.395424 0.001148 0.0
0.854877 1.250759 0.007239 0.0
4.123914 0.272371 0.002607 0.0
4.134575 0.774254 0.000279 0.0
0.135371 0.326527 -0.000210 0.0
3.865770 1.447134 0.000352 0.0
2.400302 0.466839 -0.000187 0.0
1.278574 0.519074 0.002039 0.0
0.678367 0.410911 -0.001579 0.0
2.352630 0.117072 -0.001945 0.0
1.234805 1.080785 -0.005310 0.0
1.843841 0.653829 0.004200 0.0
0.557197 0.793367 0.004103 0.0
1.113989 0.081679 -0.000395 0.0
2.380163 1.444474 0.000734 0.0
1.569995 1.073745 -0.004207 0.0
1.844723 1.431839 -0.000371 0.0
4.398152 1.148959 -0.001191 0.0
2.816706 1.015902 -0.003741 0.0
0.189302 0.686640 0.001428 0.0
3.475696 0.607206 0.000073 0.0
4.317718 0.593586 -0.003491 0.0
3.073727 0.921035 -0.001999 0.0
1.980844 1.442130 -0.005549 0.0
2.891028 1.315059 0.002702 0.0
0.768233 0.449943 -0.003414 0.0
3.279261 1.072895 0.001557 0.0
3.445251 0.527211 -0.000205 0.0
2.864472 0.495935 0.002049 0.0
4.377875 0.657559 0.000923 0.0
0.147403 1.445132 -0.001064 0.0
0.178124 1.043562 -0.001480 0.0
1.248509 1.211477 0.000523 0.0
4.140206 0.427493 -0.002713 0.0
1.516361 0.361226 0.001224 0.0
3.855142 0.547325 0.000467 0.0
2.467964 0.398808 0.002073 0.0
1.195557 0.832125 -0.002061 0.0
3.362134 0.708100 0.001938 0.0
3.644379 1.146068 -0.001234 0.0
1.498121 0.183843 -0.000256 0.0
1.487656 0.176026 0.000708 0.0
1.496923 1.321212 -0.001538 0.0
1.776621 1.260215 0.001210 0.0
1.055558 1.336018 0.000096 0.0
0.287933 0.540549 -0.002970 0.0
3.624687 1.432278 -0.000661 0.0
1.068876 0.644290 -0.000885 0.0
3.628494 0.077637 -0.003383 0.0
0.169671 0.761253 0.002432 0.0
4.281167 1.416629 0.003698 0.0
1.689395 0.753385 0.000222 0.0
0.188022 0.362958 -0.003106 0.0
3.611313 0.288042 0.002933 0.0
2.013075 0.528265 0.002155 0.0
1.725112 0.521426 0.005600 0.0
3.890135 1.444541 0.004609 0.0
1.217202 0.657888 -0.004098 0.0
3.567697 0.299323 -0.004217 0.0
4.071967 0.810803 0.004902 0.0
2.552972 0.345678 -0.001819 0.0
3.996527 1.271096 0.001446 0.0
1.248870 0.120675 -0.002199 0.0
1.750096 1.238255 -0.006090 0.0
2.715333 0.782393 -0.000590 0.0
1.912806 1.286202 -0.000142 0.0
0.658692 0.284352 -0.003673 0.0
2.405954 0.563414 -0.002636 0.0
4.453433 0.913773 0.001361 0.0
1.140232 0.912895 0.004277 0.0
2.343753 0.373903 0.004229 0.0
4.403318 0.973290 0.002074 0.0
3.802735 0.602093 0.000647 0.0
2.803018 0.010254 -0.002645 0.0
1.100827 1.154505 -0.000392 0.0
3.043523 0.728708 -0.004451 0.0
1.149121 0.865085 0.000285 0.0
2.677478 1.503054 0.002597 0.0
3.987701 0.287245 0.001917 0.0
4.442881 0.912537 -0.002874 0.0
4.010472 1.092455 -0.003818 0.0
1.851844 1.215895 -0.000904 0.0
2.391548 0.090454 0.002627 0.0
1.730942 1.354812 -0.000030 0.0
0.442749 0.283825 0.001680 0.0
2.599772 0.746611 0.002460 0.0
3.568438 0.794353 0.001621 0.0
1.733862 1.141133 -0.001702 0.0
1.649826 1.451855 0.000059 0.0
2.684631 0.263228 -0.002936 0.0
4.009387 0.058256 0.004797 0.0
1.536765 0.827381 0.001091 0.0
2.449828 0.319198 -0.000847 0.0
0.844733 1.100484 0.005337 0.0
3.957777 0.160020 0.000496 0.0
1.544694 1.164764 -0.002902 0.0
4.339899 1.403721 0.003629 0.0
0.542050 1.282070 0.000786 0.0
4.130307 1.329069 -0.004345 0.0
1.227285 0.086069 0.002447 0.0
4.356741 0.060224 -0.003237 0.0
0.062347 1.218011 0.001225 0.0
4.152664 0.015112 -0.002131 0.0
2.348385 0.013567 -0.001748 0.0
3.431855 1.229211 0.001251 0.0
3.957270 1.072434 0.000896 0.0
4.356684 1.187911 -0.005819 0.0
0.179259 1.494554 -0.002204 0.0
3.119681 0.311986 0.001431 0.0
0.869120 0.835757 0.000911 0.0
0.229134 0.895717 0.001066 0.0
1.733055 0.872323 0.000644 0.0
2.130325 0.294900 0.000285 0.0
3.016060 1.355673 0.004306 0.0
2.420589 1.501712 0.000611 0.0
1.633626 0.276552 0.000762 0.0
0.246391 0.944563 0.001690 0.0
3.012276 1.308473 0.004723 0.0
3.913418 0.064614 -0.003602 0.0
3.222790 0.818693 0.001628 0.0
3.072768 0.137754 0.003269 0.0
4.402340 0.897210 0.003685 0.0
4.400591 1.296125 0.001157 0.0
1.445752 0.695187 -0.005452 0.0
2.971034 1.369445 0.002702 0.0
1.577151 0.935511 0.003503 0.0
3.505667 1.118940 -0.000069 0.0
2.604176 0.288304 -0.001485 0.0
1.377341 0.019608 0.001275 0.0
1.105665 0.633883 0.005483 0.0
3.463908 0.286404 -0.001062 0.0
1.741944 0.277836 0.006759 0.0
0.920652 0.233274 -0.002118 0.0
3.187805 1.047100 -0.000590 0.0
0.099221 0.781432 0.002138 0.0
4.320657 0.867835 0.001015 0.0
2.145932 0.838450 -0.001747 0.0
0.897908 0.413302 0.001014 0.0
3.687562 0.138633 0.002457 0.0
0.777457 0.452159 0.000929 0.0
2.266020 0.138292 0.001936 0.0
0.074189 1.395421 -0.000296 0.0
0.002499 0.457245 0.001420 0.0
0.137559 0.751619 0.001411 0.0
1.806596 1.077844 -0.000548 0.0
3.992385 1.493014 0.005966 0.0
0.827690 1.247202 -0.003896 0.0
0.593272 0.904453 -0.000293 0.0
0.986145 1.063654 -0.003513 0.0
0.001972 1.411892 0.001002 0.0
0.461783 0.572697 0.001637 0.0
1.974627 0.021709 0.006116 0.0
3.725846 0.445140 0.002110 0.0
3.874877 1.288045 0.000287 0.0
4.340142 0.171259 -0.000480 0.0
3.305801 1.152769 0.003856 0.0
2.940674 0.404511 0.004219 0.0
3.025243 1.182437 -0.001868 0.0
3.762158 0.194428 -0.001059 0.0
1.254354 0.425789 -0.000291 0.0
3.539406 0.666208 0.005287 0.0
2.734435 0.216848 -0.003478 0.0
4.406309 0.913948 0.002889 0.0
0.011330 1.473328 0.001000 0.0
0.203089 1.273114 -0.001505 0.0
3.262114 0.821095 -0.001545 0.0
2.043937 0.943311 0.002471 0.0
1.085015 1.122113 -0.000671 0.0
1.768821 0.927015 -0.001577 0.0
0.277138 0.457296 0.002243 0.0
1.384719 0.720857 0.004001 0.0
3.587651 0.594925 0.006492 0.0
3.771052 0.007328 0.002089 0.0
3.671478 0.041282 0.001301 0.0
0.721090 0.674526 0.000792 0.0
1.138844 0.002262 -0.000414 0.0
2.765365 1.094579 -0.000651 0.0
0.248074 0.673167 0.000262 0.0
2.735569 0.712960 0.001500 0.0
2.605557 1.142978 0.000962 0.0
1.719276 0.905400 -0.004944 0.0
1.058685 1.052264 0.001003 0.0
3.010822 0.852045 0.003344 0.0
0.420105 0.300233 -0.002972 0.0
0.173835 1.304541 0.001124 0.0
3.676408 0.608424 -0.001489 0.0
0.914450 0.362345 -0.003336 0.0
1.668307 1.039322 0.002446 0.0
0.215906 1.025880 0.000551 0.0
2.465797 1.355635 -0.000693 0.0
0.458516 0.305807 -0.000912 0.0
1.467081 1.038798 0.001190 0.0
3.586584 0.210923 -0.003226 0.0
1.584365 0.568733 0.001639 0.0
1.702424 0.931424 -0.004973 0.0
2.183819 1.017429 0.000749 0.0
0.269897 0.021048 -0.001154 0.0
1.175354 1.496620 0.000502 0.0
2.759543 0.574377 0.003773 0.0
1.388348 1.196603 0.000819 0.0
3.426190 1.177975 0.001549 0.0
2.505981 0.687743 -0.001286 0.0
2.414482 1.318121 -0.000576 0.0
0.458098 0.442441 -0.005576 0.0
1.159699 1.017118 -0.001046 0.0
0.743219 1.189552 -0.001143 0.0
0.658376 1.081292 -0.000506 0.0
2.158765 0.549199 0.001642 0.0
3.244950 1.406789 -0.005523 0.0
4.008832 1.312836 0.000063 0.0
0.663666 1.102542 -0.003790 0.0
2.633287 0.944096 0.002842 0.0
2.669861 0.030834 -0.000269 0.0
4.369140 1.061637 -0.001495 0.0
1.805614 0.822672 0.002301 0.0
4.391893 0.080514 0.002207 0.0
4.113267 0.936429 0.000925 0.0
3.891330 0.715089 0.001619 0.0
3.767627 0.135457 -0.002670 0.0
0.129544 1.057915 -0.002144 0.0
1.551977 0.210692 -0.000118 0.0
1.767384 0.021977 0.000210 0.0
0.405052 0.356825 0.003364 0.0
1.149561 0.487001 0.001776 0.0
1.803900 1.162717 -0.002949 0.0
3.335869 1.280836 0.000894 0.0
0.651569 0.623102 -0.000960 0.0
0.994530 0.214324 0.002719 0.0
4.074882 0.750386 0.001938 0.0
0.495662 0.553696 -0.001228 0.0
4.045150 1.067509 0.000102 0.0
1.027664 1.492461 -0.001407 0.0
0.845536 0.773236 -0.004208 0.0
4.196767 0.630055 0.003000 0.0
3.957547 0.057291 -0.003878 0.0
1.302805 0.231251 -0.000954 0.0
3.837663 0.445821 -0.001310 0.0
2.767383 0.001319 0.001409 0.0
2.148752 0.763016 0.001421 0.0
0.142964 0.263147 -0.000754 0.0
1.175999 0.712109 -0.000907 0.0
3.119380 1.004025 0.002454 0.0
3.270179 0.324580 -0.000660 0.0
2.718332 1.171488 0.000905 0.0
1.932277 0.924550 0.002953 0.0
0.601325 0.432890 0.002192 0.0
0.641593 0.876852 -0.004806 0.0
1.473622 0.928684 0.000315 0.0
1.988507 0.212815 0.002259 0.0
1.689677 0.200395 -0.000348 0.0
0.187937 0.691653 0.005096 0.0
2.195157 1.349829 0.003063 0.0
0.778812 0.109738 0.001424 0.0
2.433005 0.705720 0.004521 0.0
0.254093 0.122134 -0.001791 0.0
0.873016 1.231824 -0.001278 0.0
0.798996 0.925800 0.004830 0.0
2.379156 0.034018 0.001702 0.0
1.962154 0.838698 -0.001704 0.0
1.230055 0.189180 0.001965 0.0
3.625748 0.041192 -0.000099 0.0
3.424915 0.882337 -0.000600 0.0
2.515252 0.461020 0.000995 0.0
0.699714 0.989314 -0.003823 0.0
1.837323 0.612668 -0.002725 0.0
0.227422 0.951413 -0.000215 0.0
0.852498 0.442474 0.000660 0.0
2.671157 0.039246 0.002322 0.0
2.908298 0.270356 -0.003001 0.0
4.025266 1.206501 -0.002502 0.0
3.635687 0.457640 0.001529 0.0
1.782031 0.673849 -0.002389 0.0
3.038323 0.328004 -0.001306 0.0
2.638958 0.713541 -0.000199 0.0
4.291498 0.544833 0.002733 0.0
3.274377 0.138841 -0.003104 0.0
3.226459 0.458665 -0.002367 0.0
3.129798 0.262730 0.002506 0.0
2.945576 1.164048 -0.001901 0.0
3.662424 1.222460 -0.007359 0.0
2.257952 1.182796 -0.000968 0.0
4.106214 0.707646 0.000584 0.0
1.351185 0.399560 -0.004344 0.0
4.198210 0.547904 0.000647 0.0
0.199630 1.099277 0.001297 0.0
0.349490 0.076033 0.002277 0.0
2.462668 1.390101 0.002005 0.0
0.483229 1.298161 0.000706 0.0
1.026345 0.898857 0.001918 0.0
3.960716 0.995556 -0.002174 0.0
1.138706 0.679120 -0.003388 0.0
1.538946 0.531197 -0.000618 0.0
2.877613 0.337588 -0.000712 0.0
0.246873 0.014267 -0.001679 0.0
1.037853 0.430546 0.002110 0.0
2.435751 1.407965 0.003385 0.0
1.448828 0.222894 0.000013 0.0
0.098437 1.395724 -0.001677 0.0
1.207234 1.032930 0.000642 0.0
1.437551 0.422352 0.001240 0.0
2.330822 1.133019 -0.001456 0.0
1.841075 1.315089 0.001456 0.0
3.196672 0.433103 -0.001891 0.0
0.320771 0.272076 -0.002140 0.0
3.056748 1.291295 -0.003373 0.0
3.112347 0.081345 0.004035 0.0
2.205741 0.518801 0.001436 0.0
0.382909 0.827564 -0.001981 0.0
2.736251 0.123207 0.001081 0.0
3.426536 0.327152 -0.003774 0.0
4.289623 0.167107 -0.002380 0.0
3.917431 0.531421 -0.001490 0.0
0.432439 0.241368 -0.000114 0.0
0.805240 0.529714 0.004261 0.0
2.069483 0.101584 -0.006638 0.0
3.776214 0.262948 -0.000056 0.0
3.703996 1.043155 -0.001743 0.0
4.106764 0.623905 0.002996 0.0
3.774062 1.252586 -0.000396 0.0
1.212085 1.127940 -0.002197 0.0
4.284312 1.270600 0.002266 0.0
1.486889 0.447109 -0.002665 0.0
1.167169 0.529408 -0.004212 0.0
0.821451 0.759879 -0.002823 0.0
0.328100 1.102012 -0.001823 0.0
1.132137 1.014737 -0.000389 0.0
3.402941 0.613504 0.002224 0.0
3.223923 0.810105 -0.000380 0.0
1.607096 1.046322 -0.004051 0.0
4.108680 0.394175 0.000651 0.0
2.790439 1.187677 0.003956 0.0
2.059743 0.403358 -0.000703 0.0
1.856846 0.525220 -0.001285 0.0
3.874442 0.296792 0.000049 0.0
1.266006 0.430629 0.000894 0.0
1.197829 1.089162 0.002708 0.0
4.023120 0.934507 -0.005231 0.0
0.375899 1.404339 -0.003096 0.0
3.014881 0.769406 -0.001750 0.0
2.859616 1.143552 0.001498 0.0
2.644926 0.229700 -0.000083 0.0
0.122096 0.627910 0.000904 0.0
0.338426 0.294980 -0.000399 0.0
0.775140 0.816234 -0.003315 0.0
0.257796 0.366877 -0.002244 0.0
1.057271 0.779785 0.002087 0.0
0.680729 0.750835 -0.003921 0.0
1.269155 0.928890 -0.000393 0.0
3.146044 0.524403 0.001731 0.0
1.711492 1.406230 0.001159 0.0
0.114807 1.384066 -0.002020 0.0
3.012357 1.443487 0.003641 0.0
2.845354 1.370316 -0.001313 0.0
2.337026 0.645484 0.002305 0.0
0.968326 0.338998 0.002321 0.0
2.644166 1.452803 0.002403 0.0
0.980281 0.889376 -0.001715 0.0
0.858478 0.823868 -0.003869 0.0
3.558997 1.121600 -0.001608 0.0
3.824692 1.237202 0.003227 0.0
4.146511 0.441028 0.000670 0.0
0.641715 1.409588 -0.001969 0.0
3.619837 0.838908 -0.000089 0.0
1.160176 0.104008 -0.001825 0.0
2.934858 1.016917 0.002365 0.0
3.943831 0.382881 -0.002083 0.0
1.590491 0.304691 0.003119 0.0
3.354468 0.548055 -0.000462 0.0
3.037028 1.358865 -0.001091 0.0
2.054734 0.543726 -0.002477 0.0
2.920626 0.224443 0.001655 0.0
1.825649 0.967397 -0.004085 0.0
2.259392 1.195045 0.000757 0.0
1.329191 0.835532 0.004317 0.0
2.270212 0.754402 -0.000044 0.0
1.669176 0.002428 0.000960 0.0
3.422384 0.224908 -0.000754 0.0
2.463900 0.499523 0.002888 0.0
0.566086 0.741170 -0.002347 0.0
4.293238 1.115008 -0.004596 0.0
1.163623 0.347068 -0.003439 0.0
3.433083 0.743586 0.001869 0.0
3.206298 0.910403 0.002852 0.0
1.805602 1.299906 -0.001503 0.0
3.069512 1.449270 -0.003420 0.0
2.112096 0.375878 -0.002537 0.0
4.396337 1.300193 0.001505 0.0
2.247117 0.876172 -0.000026 0.0
4.002036 0.650320 -0.002597 0.0
0.923620 0.566403 -0.003978 0.0
2.556918 0.276819 -0.002805 0.0
1.219324 1.056508 -0.000802 0.0
4.323314 0.639599 0.000212 0.0
1.434455 1.300864 -0.000175 0.0
3.586592 0.883307 0.001139 0.0
1.477892 0.315505 -0.001990 0.0
1.649932 0.447105 0.000901 0.0
4.013952 0.317081 -0.000015 0.0
3.094553 0.772280 0.001425 0.0
3.478855 0.582376 -0.001816 0.0
1.344876 0.056014 -0.002971 0.0
4.306620 1.282549 0.000563 0.0
1.447372 0.384612 0.003525 0.0
4.125078 0.849700 0.002437 0.0
3.112155 0.411083 -0.003195 0.0
4.046313 1.439583 0.001021 0.0
2.411051 0.777262 -0.003573 0.0
1.310291 0.301463 0.002856 0.0
1.138006 0.746944 0.003718 0.0
4.056163 0.291904 0.001958 0.0
3.695932 0.173233 0.002222 0.0
0.945771 0.494679 0.003950 0.0
0.125129 0.074702 0.002318 0.0
2.353612 1.433377 0.003473 0.0
1.314037 0.503443 -0.002375 0.0
2.288015 0.436534 -0.000189 0.0
3.225118 1.217414 -0.000865 0.0
0.175398 1.175161 -0.000200 0.0
1.361816 0.596407 0.003231 0.0
4.476635 0.309447 -0.003513 0.0
3.329447 1.282871 -0.000177 0.0
1.246500 0.039526 0.001426 0.0
2.205797 0.765122 0.000818 0.0
2.332522 0.245888 -0.001827 0.0
0.700092 0.521567 -0.000595 0.0
2.032241 1.008434 -0.004117 0.0
2.856456 1.500266 0.001980 0.0
2.411800 0.220721 0.004370 0.0
4.469577 0.736191 0.000440 0.0
1.327828 0.413762 0.002108 0.0
3.326861 0.587636 0.000302 0.0
4.427291 0.989844 0.001947 0.0
1.964871 1.377460 0.002521 0.0
1.920288 0.673422 0.001349 0.0
1.052653 0.517134 -0.003477 0.0
1.844506 1.067429 0.000019 0.0
0.211919 1.285725 0.002253 0.0
2.674006 0.982026 0.002515 0.0
1.549049 1.365983 0.001929 0.0
4.073315 0.767731 -0.000788 0.0
2.060753 1.135123 -0.000443 0.0
0.080327 0.597055 -0.000791 0.0
0.738896 0.592608 0.000153 0.0
2.556886 1.324692 -0.002021 0.0
2.782411 0.479268 0.003022 0.0
2.608152 0.187873 0.003914 0.0
2.661408 0.251640 -0.000338 0.0
1.073969 0.039947 -0.000075 0.0
0.265931 1.073983 0.001038 0.0
3.173585 1.058049 -0.001016 0.0
2.856620 0.806848 0.002039 0.0
0.614971 0.087802 -0.001672 0.0
2.982734 0.539570 -0.001544 0.0
0.811981 0.012969 0.000962 0.0
2.909585 0.476669 -0.002389 0.0
4.192725 0.020340 -0.000491 0.0
2.881306 0.830398 -0.003912 0.0
1.171419 0.124393 -0.000397 0.0
4.392875 0.020757 -0.001460 0.0
0.960016 0.123545 0.000278 0.0
1.458201 1.167597 0.001712 0.0
0.292999 0.328520 0.002505 0.0
2.567583 0.905292 0.001159 0.0
3.540590 1.028560 0.002280 0.0
4.375007 0.436986 -0.001477 0.0
0.514125 0.124350 0.003548 0.0
0.666363 0.418390 0.008172 0.0
0.720533 1.086384 0.001148 0.0
4.059942 0.208064 0.003187 0.0
1.145490 1.088582 0.003228 0.0
3.412738 0.709714 -0.002679 0.0
3.392600 1.289656 0.000270 0.0
2.566631 0.552976 -0.000287 0.0
1.182709 0.141631 0.001445 0.0
1.739342 1.045376 0.003264 0.0
2.772493 0.854994 0.001512 0.0
3.192061 1.091880 0.002610 0.0
3.861066 0.287512 0.007713 0.0
2.739873 0.793420 0.001298 0.0
2.410297 0.645920 0.002544 0.0
1.756530 0.259347 -0.003557 0.0
3.772703 0.889334 0.001021 0.0
1.725222 1.161417 -0.006449 0.0
0.143414 0.757974 0.000926 0.0
3.616565 1.191855 -0.001143 0.0
1.371405 0.506634 -0.002120 0.0
1.273545 0.545870 0.001132 0.0
1.399193 0.254333 0.000811 0.0
2.152303 0.515997 -0.004385 0.0
0.197649 0.509106 -0.002440 0.0
0.924857 0.761909 0.000153 0.0
4.355845 0.690383 -0.000849 0.0
3.335700 1.043158 0.002842 0.0
1.964147 0.334962 -0.002579 0.0
1.472524 0.165161 0.001262 0.0
1.498603 1.280520 0.001089 0.0
3.532628 0.830123 0.001918 0.0
1.526088 0.566076 -0.001925 0.0
1.534945 0.640735 -0.001229 0.0
0.959902 0.322453 -0.000298 0.0
2.557501 1.005345 -0.001929 0.0
3.221711 0.812024 -0.000072 0.0
4.446760 1.368102 0.001785 0.0
1.953590 0.455852 0.003009 0.0
1.101997 0.817823 -0.002934 0.0
1.139115 1.419220 0.002798 0.0
2.448807 0.606696 -0.002975 0.0
3.926674 0.114502 0.003507 0.0
0.671445 0.247912 -0.001654 0.0
3.101211 0.193759 0.002984 0.0
3.739424 0.921909 0.001992 0.0
1.333224 0.532234 0.002956 0.0
0.145997 1.269060 -0.004411 0.0
4.442518 0.781733 0.003952 0.0
0.267824 0.502616 -0.001027 0.0
0.243631 0.349432 0.002422 0.0
2.795849 0.667601 0.000364 0.0
2.938879 0.740087 -0.000833 0.0
1.976066 1.496781 -0.002855 0.0
3.268821 1.072066 -0.000549 0.0
3.845022 0.776011 0.001812 0.0
3.418817 0.577261 -0.002686 0.0
3.672876 0.408675 -0.005265 0.0
1.513201 1.051102 -0.002286 0.0
2.413279 0.030851 0.005001 0.0
2.464698 0.010594 0.001803 0.0
0.470721 0.597354 0.000708 0.0
0.361881 0.341792 -0.005168 0.0
2.267541 0.468196 0.005334 0.0
0.815614 1.117785 -0.004700 0.0
2.087515 1.071431 0.002368 0.0
2.417780 1.217746 0.000265 0.0
0.557142 0.913694 0.000828 0.0
0.730289 0.949702 -0.005186 0.0
1.958512 0.677749 0.000590 0.0
0.732218 1.105316 0.001774 0.0
3.515072 1.291111 -0.001031 0.0
3.400562 0.202797 -0.001009 0.0
0.752275 0.295096 0.001369 0.0
0.814274 0.346042 0.002386 0.0
3.668731 0.340528 -0.000513 0.0
1.584955 1.465101 -0.000588 0.0
3.804161 0.883131 0.002903 0.0
4.263318 0.831932 -0.002962 0.0
3.512953 1.075375 -0.000851 0.0
3.641944 1.028551 0.002670 0.0
1.284656 0.619606 -0.004818 0.0
2.798761 0.737356 -0.003101 0.0
2.019217 1.341801 -0.003503 0.0
4.191124 0.770858 0.001542 0.0
3.084245 0.244646 -0.000867 0.0
0.644469 0.936061 -0.000203 0.0
0.130183 0.329940 0.001678 0.0
4.133261 0.873654 0.001616 0.0
3.110429 0.895795 -0.003839 0.0
3.412878 0.120154 0.000485 0.0
0.659286 0.999605 -0.003422 0.0
0.402706 0.567602 -0.001364 0.0
2.500956 0.806888 0.003303 0.0
3.585477 0.610233 -0.000152 0.0
4.033599 0.652283 -0.001085 0.0
2.343773 0.056155 -0.001962 0.0
2.793619 0.901403 0.001166 0.0
4.015083 0.378960 0.003780 0.0
3.368685 1.180231 -0.002374 0.0
3.931800 0.379700 0.000654 0.0
4.315982 1.486031 -0.001184 0.0
2.149157 1.006451 -0.000953 0.0
2.121020 1.174487 0.002534 0.0
3.976611 0.555226 0.001494 0.0
3.806536 1.025506 0.003186 0.0
2.133720 1.132863 0.001725 0.0
0.452824 1.229853 -0.001083 0.0
2.849006 0.291280 0.000620 0.0
3.195113 0.912261 0.000258 0.0
3.259528 1.097978 0.001726 0.0
0.078341 0.035499 0.002989 0.0
4.145267 1.296297 0.000542 0.0
2.276459 1.254941 -0.001860 0.0
2.768961 0.361124 0.001915 0.0
1.787095 0.009645 -0.003182 0.0
2.849322 0.901498 0.006251 0.0
3.278985 1.328516 -0.004780 0.0
3.268265 0.118107 0.000002 0.0
3.311659 0.404487 0.001285 0.0
3.993423 0.524529 -0.001432 0.0
3.371894 0.567551 -0.001696 0.0
1.786703 0.202564 -0.000851 0.0
2.457789 1.167928 0.001531 0.0
1.327055 0.862739 0.003920 0.0
1.264136 0.592647 -0.006638 0.0
2.246013 1.108205 -0.001464 0.0
3.681512 0.549117 -0.000143 0.0
1.240475 1.196830 -0.000224 0.0
3.571410 0.604590 -0.003598 0.0
3.289408 0.863487 -0.003725 0.0
2.346717 0.003357 -0.000116 0.0
3.605940 0.682268 0.000921 0.0
1.059017 1.359144 0.001314 0.0
0.028376 1.215613 -0.004499 0.0
1.656037 0.934400 0.000715 0.0
3.849318 1.461753 -0.001634 0.0
3.711252 0.846673 -0.001288 0.0
2.684441 0.807996 0.000132 0.0
2.906522 0.740300 -0.006125 0.0
1.302185 0.256716 -0.000201 0.0
4.178563 1.440219 -0.001668 0.0
0.150635 1.342499 0.000414 0.0
2.654232 1.008042 -0.001052 0.0
0.876451 0.410242 -0.000474 0.0
4.156422 1.366931 -0.000474 0.0
0.685249 0.123403 0.000675 0.0
1.875967 1.099054 0.004474 0.0
1.796096 0.563042 -0.003493 0.0
4.216710 0.899073 0.001145 0.0
0.737304 1.117771 0.001507 0.0
1.493106 0.629420 -0.000910 0.0
1.404329 1.306969 -0.000573 0.0
1.799431 0.302432 0.004658 0.0
3.118638 0.432730 -0.002687 0.0
2.744849 1.034748 0.000816 0.0
1.001475 0.850237 0.003032 0.0
4.295216 1.377127 0.000750 0.0
4.046907 0.963307 0.002624 0.0
0.038141 0.606390 0.002187 0.0
0.881937 0.633860 0.000819 0.0
4.248020 1.022304 -0.000336 0.0
1.515440 0.977201 -0.002293 0.0
1.196025 1.156089 0.002062 0.0
0.444559 1.172580 -0.003566 0.0
1.431449 1.093028 -0.001111 0.0
2.248525 0.289366 -0.000080 0.0
1.858732 0.818701 0.001161 0.0
2.435923 0.976662 0.002347 0.0
1.464894 0.152554 -0.000907 0.0
2.783754 0.577130 -0.000121 0.0
0.163335 1.121140 -0.001352 0.0
2.887855 1.422606 -0.002743 0.0
1.732010 1.076882 -0.001144 0.0
4.188980 0.930339 -0.000559 0.0
1.350464 0.871843 -0.000196 0.0
0.506579 0.518197 0.002275 0.0
-0.000162 0.023373 0.002584 0.0
1.139129 1.487744 -0.000705 0.0
2.791685 1.090276 0.001120 0.0
2.103029 0.221139 -0.001641 0.0
3.162707 0.557404 -0.000475 0.0
3.591967 1.285623 -0.001110 0.0
0.720653 0.928358 0.001935 0.0
0.693238 0.591365 0.001823 0.0
2.441502 0.893183 -0.001327 0.0
3.717479 0.238692 -0.000326 0.0
2.167251 1.359957 -0.001971 0.0
0.453002 0.942458 -0.001354 0.0
2.567862 1.220603 -0.000381 0.0
1.099698 1.467967 0.001643 0.0
2.540128 1.245282 -0.002171 0.0
2.766701 0.853305 0.001791 0.0
3.569659 1.003383 0.002005 0.0
2.671172 1.067806 0.003468 0.0
1.841490 0.123629 0.003866 0.0
2.464412 0.600053 -0.000987 0.0
1.064716 1.098033 -0.003267 0.0
1.861376 0.923355 -0.000132 0.0
4.276190 1.012781 -0.002454 0.0
0.464791 0.642260 -0.001286 0.0
2.817158 1.441475 0.001439 0.0
4.160318 0.713941 0.000996 0.0
1.464549 0.514819 -0.001090 0.0
3.838853 0.533068 -0.001999 0.0
1.133252 0.319705 -0.000229 0.0
3.255395 0.328778 0.000817 0.0
3.025630 1.483469 0.003107 0.0
2.633618 0.046762 -0.001844 0.0
1.202241 0.508655 -0.006199 0.0
3.032381 0.110457 -0.003548 0.0
4.289412 0.304742 -0.001395 0.0
0.440513 0.472709 0.001696 0.0
1.826030 1.116735 0.003219 0.0
3.926954 1.406169 0.002211 0.0
1.007557 1.066025 0.002561 0.0
0.585389 0.147240 -0.002930 0.0
3.200037 0.843876 0.006377 0.0
1.584063 1.151106 0.003442 0.0
4.382990 0.527963 0.001614 0.0
2.718241 0.557644 -0.002338 0.0
3.621608 1.153242 0.000179 0.0
1.274506 0.684440 -0.002542 0.0
0.127987 1.375698 0.001224 0.0
1.054377 0.649385 0.001670 0.0
2.027718 1.167785 -0.001251 0.0
1.954330 0.141931 0.002452 0.0
0.968068 1.321957 0.001779 0.0
0.472629 0.485309 0.002570 0.0
0.496448 0.557239 0.003216 0.0
1.193577 0.069567 0.002043 0.0
2.767112 1.304252 -0.001317 0.0
0.664941 0.555510 -0.000722 0.0
3.804114 0.985770 0.000157 0.0
3.543948 0.424667 -0.001365 0.0
0.055539 0.397902 0.007953 0.0
3.282579 1.131531 -0.001463 0.0
3.979129 0.289937 -0.001677 0.0
2.330692 1.160912 0.005303 0.0
0.109821 1.238680 -0.000342 0.0
4.047825 0.424348 -0.002603 0.0
3.496137 1.480152 -0.001352 0.0
1.727075 0.840895 0.000594 0.0
4.202386 0.866763 0.001278 0.0
4.320907 0.484829 -0.001163 0.0
0.104903 0.430235 -0.000948 0.0
1.091948 1.363046 -0.002742 0.0
2.288332 0.189542 0.000571 0.0
1.784205 0.220723 -0.001251 0.0
3.881033 0.133105 -0.000439 0.0
3.394569 1.431817 0.001636 0.0
0.994098 0.023051 0.003480 0.0
2.569304 0.331787 -0.005976 0.0
1.847434 0.304368 0.004687 0.0
0.918287 0.494442 -0.001214 0.0
2.243807 0.109354 -0.001422 0.0
0.957663 0.215039 0.000293 0.0
2.632680 1.511877 -0.004795 0.0
0.184850 1.067945 -0.000438 0.0
2.895423 0.790568 -0.004475 0.0
2.358763 0.597436 -0.003719 0.0
1.548813 0.841823 -0.001730 0.0
2.441723 0.823374 -0.000819 0.0
4.376699 1.197729 0.003119 0.0
1.066133 0.282218 -0.003332 0.0
4.264928 0.595441 0.000784 0.0
2.313542 1.046135 -0.002237 0.0
2.609767 0.416057 0.004680 0.0
0.605577 0.800064 -0.000194 0.0
3.613383 0.901369 -0.003644 0.0
4.246770 0.884913 0.000160 0.0
0.985654 1.493854 0.000627 0.0
1.579606 1.045907 -0.003224 0.0
2.610680 1.478046 0.000208 0.0
0.836738 1.176835 0.002899 0.0
0.825873 1.105783 0.000250 0.0
2.790948 1.105614 -0.002410 0.0
0.012821 0.150507 -0.004122 0.0
1.093709 1.311442 0.001008 0.0
2.153098 0.646980 0.001622 0.0
0.701500 0.173066 0.000307 0.0
4.096954 1.000942 -0.005423 0.0
2.323983 0.151105 -0.002195 0.0
3.087584 0.594676 0.003891 0.0
4.025894 1.396884 -0.001645 0.0
0.469342 0.279161 0.003577 0.0
1.398793 0.393157 -0.000116 0.0
2.070287 1.100771 0.001152 0.0
1.472194 0.449113 -0.001504 0.0
4.470958 1.477532 -0.000737 0.0
2.188467 0.013396 0.000418 0.0
1.810660 1.258539 -0.001901 0.0
2.270990 0.673831 -0.001723 0.0
2.790180 0.181828 0.002166 0.0
1.629620 0.091878 -0.001739 0.0
1.677532 0.970378 0.000700 0.0
1.942551 0.680970 0.000174 0.0
2.242863 1.154209 -0.000351 0.0
1.890505 0.743838 -0.001425 0.0
4.139347 0.910367 -0.001093 0.0
3.929258 0.717338 -0.003965 0.0
0.170458 1.378880 0.002550 0.0
3.295147 0.206380 0.001705 0.0
1.019048 0.892269 0.000302 0.0
2.328155 0.265231 -0.004028 0.0
3.779627 0.117100 0.000926 0.0
0.867393 1.375986 0.000927 0.0
1.616272 1.320063 0.000321 0.0
0.163197 0.402862 0.000437 0.0
4.255002 0.717097 -0.000041 0.0
2.351428 0.189595 0.007609 0.0
2.835022 0.772092 -0.002640 0.0
0.636770 0.523830 -0.001615 0.0
1.174308 0.693794 -0.002641 0.0
1.666987 1.470815 0.002330 0.0
3.956929 1.225523 0.003865 0.0
3.319919 0.928723 -0.001007 0.0
2.496467 1.453581 -0.002136 0.0
3.362377 0.430282 -0.001807 0.0
0.609514 0.185875 -0.001564 0.0
2.648492 0.717537 0.000497 0.0
3.291648 0.786752 0.003797 0.0
4.235495 1.364460 0.001263 0.0
3.608364 0.422244 0.001322 0.0
2.654229 1.106680 -0.000170 0.0
2.388100 0.895152 -0.002016 0.0
1.614271 1.363935 0.000413 0.0
1.711553 1.246492 0.000685 0.0
3.028324 0.570441 -0.004052 0.0
2.547234 0.261883 -0.003988 0.0
1.168994 1.009087 -0.001145 0.0
2.074511 0.190629 0.001062 0.0
3.716333 0.815483 -0.006703 0.0
4.081209 1.347015 0.001600 0.0
1.246527 1.037908 -0.000237 0.0
1.955140 0.650745 0.002824 0.0
4.171548 1.186631 0.000760 0.0
1.170680 1.005354 0.000428 0.0
1.585061 1.051212 0.001942 0.0
2.631437 0.697091 -0.002710 0.0
2.965961 0.272608 0.001195 0.0
3.706848 0.250335 0.003319 0.0
3.356464 0.702342 0.002354 0.0
1.810122 0.585466 0.000574 0.0
2.713636 0.640679 -0.000915 0.0
3.137072 1.279791 -0.004238 0.0
