0.008607 1.019295 -0.000638 0.0
4.026311 0.983129 0.001784 0.0
2.235398 1.009177 0.002294 0.0
2.755882 1.410701 -0.002479 0.0
2.008835 0.688595 -0.003336 0.0
4.242049 0.547924 -0.000502 0.0
1.662165 0.692149 -0.004482 0.0
1.753477 1.587454 0.004620 0.0
2.398051 1.225032 0.001943 0.0
0.109070 0.736657 -0.001898 0.0
1.010871 1.715315 -0.000137 0.0
1.397990 1.252861 0.004435 0.0
1.031168 0.277669 0.004024 0.0
1.523456 0.855786 0.002212 0.0
1.506386 1.074898 -0.002898 0.0
1.547460 1.248890 0.002665 0.0
1.373174 0.576266 0.002826 0.0
0.665355 1.438652 0.001677 0.0
2.081106 1.322912 -0.001366 0.0
0.916190 0.046818 0.001072 0.0
1.913640 0.879138 -0.002542 0.0
0.225529 1.286317 0.004894 0.0
4.397605 0.305042 0.001085 0.0
3.548040 0.586383 -0.000474 0.0
1.773591 1.852736 -0.000147 0.0
4.219580 1.753197 0.002180 0.0
2.857301 0.643016 0.003070 0.0
4.683451 0.717409 0.005883 0.0
1.606185 0.877770 -0.002173 0.0
0.512122 1.164128 -0.000747 0.0
1.782535 1.312934 -0.001597 0.0
3.680365 1.171532 0.003330 0.0
3.311195 0.052137 0.001757 0.0
1.005121 1.767808 0.001718 0.0
1.084943 0.999937 -0.002201 0.0
3.630216 1.361267 -0.000871 0.0
2.840557 0.586486 -0.000482 0.0
2.933386 1.268146 0.001003 0.0
3.280205 0.205296 0.001648 0.0
4.338571 1.347397 0.001606 0.0
0.890888 0.158156 -0.000044 0.0
2.917515 1.650479 -0.002866 0.0
1.115228 0.213706 -0.002833 0.0
1.000706 1.167364 0.004158 0.0
4.087719 0.504721 0.000650 0.0
2.946101 1.602654 0.004468 0.0
2.185853 1.051008 0.004249 0.0
0.995699 1.740376 0.000126 0.0
1.075471 0.698588 0.000819 0.0
4.719159 1.290707 -0.001202 0.0
0.617917 1.048911 0.004785 0.0
4.610097 0.692018 -0.003373 0.0
0.524370 0.658633 0.003235 0.0
4.682386 1.654331 0.001749 0.0
1.696150 0.009386 0.000601 0.0
0.919603 0.250608 0.003897 0.0
4.443662 0.635828 0.000380 0.0
0.130082 0.503561 -0.001498 0.0
2.869210 0.010974 -0.001340 0.0
0.897858 1.335542 -0.001500 0.0
1.537511 1.087892 0.000301 0.0
1.593372 0.415140 0.001677 0.0
0.806153 0.382530 -0.002099 0.0
0.125710 1.446587 0.002992 0.0
3.208575 1.847954 -0.001972 0.0
3.523918 0.706183 0.000951 0.0
2.989436 1.645364 0.002915 0.0
4.537591 1.558232 -0.000208 0.0
3.865927 1.631149 -0.003807 0.0
3.111766 1.297607 0.000206 0.0
0.705984 0.567859 -0.001765 0.0
3.477478 1.627624 -0.005821 0.0
3.650168 1.207681 0.001531 0.0
1.681924 0.666568 0.004165 0.0
3.654871 1.110905 0.002745 0.0
0.961422 1.197792 -0.000076 0.0
1.662972 1.041413 -0.000915 0.0
0.070561 0.662578 -0.001994 0.0
1.732171 0.103226 -0.000096 0.0
2.135767 0.065215 -0.002494 0.0
2.947370 1.266479 0.000786 0.0
3.971203 0.002528 0.000813 0.0
0.835375 1.740853 0.004692 0.0
2.805986 0.891956 0.000486 0.0
0.709675 0.613830 0.003453 0.0
3.934000 0.358912 0.005235 0.0
3.775336 0.775928 -0.001043 0.0
2.458865 0.640173 0.001139 0.0
2.516192 0.972437 -0.000836 0.0
4.729197 1.539598 0.000592 0.0
4.436206 0.458161 -0.000526 0.0
2.985750 1.378800 0.005471 0.0
0.303667 1.660217 0.000178 0.0
0.769230 0.930581 0.001919 0.0
2.701199 0.977441 -0.002587 0.0
2.192000 1.545862 -0.004944 0.0
0.155249 1.382458 -0.000384 0.0
3.700107 0.546385 -0.001020 0.0
3.316127 0.159929 0.001073 0.0
0.189945 1.251530 0.000166 0.0
2.187522 0.120686 -0.002149 0.0
0.764857 0.162206 0.006557 0.0
0.706445 0.369446 0.002842 0.0
1.061362 0.448074 -0.000590 0.0
0.953896 0.833016 -0.003388 0.0
4.316669 1.165599 0.004270 0.0
1.792408 1.493394 -0.001363 0.0
3.221237 0.167680 -0.001343 0.0
4.713129 1.861625 0.001565 0.0
0.516323 0.325097 -0.003475 0.0
3.075948 1.212534 -0.002874 0.0
1.173960 1.122175 0.004924 0.0
3.817896 0.448990 -0.000331 0.0
4.166372 1.864334 0.003054 0.0
3.681318 1.422388 -0.000314 0.0
1.954575 0.901156 -0.006099 0.0
3.533892 1.792962 0.000067 0.0
2.789701 0.243540 0.002491 0.0
4.354389 0.518577 0.001389 0.0
2.342939 1.607349 0.002092 0.0
1.541384 1.400388 0.003185 0.0
0.669321 0.965552 -0.001521 0.0
4.382780 0.077484 0.000259 0.0
4.733796 0.372470 0.003875 0.0
2.784836 1.370935 0.000712 0.0
2.699466 0.019428 0.004504 0.0
4.162949 0.613065 0.001797 0.0
3.922348 1.691760 0.003496 0.0
3.355032 1.650707 0.004990 0.0
2.554388 0.584002 -0.002656 0.0
1.359994 1.548512 -0.002208 0.0
2.182372 0.652517 -0.000601 0.0
4.682992 0.908827 0.001366 0.0
3.912597 0.054306 -0.000475 0.0
0.293963 0.363726 0.001324 0.0
1.663742 0.353714 0.000667 0.0
3.985810 0.757953 -0.003642 0.0
2.082638 1.249714 0.000385 0.0
2.985638 1.730477 -0.005012 0.0
1.967756 0.961500 -0.000839 0.0
4.592020 1.520956 -0.002529 0.0
1.650966 0.958267 -0.002074 0.0
0.072385 0.486101 -0.004967 0.0
3.277006 1.001001 -0.001094 0.0
4.372092 0.232374 -0.001237 0.0
3.139337 0.222306 0.001630 0.0
0.968435 1.592307 0.000976 0.0
3.838130 1.049208 -0.004492 0.0
0.493089 0.236515 -0.001617 0.0
3.871442 0.288853 0.000746 0.0
0.722306 1.239142 -0.005319 0.0
1.411223 1.331256 -0.003509 0.0
0.443276 1.654890 0.001864 0.0
2.940703 0.378582 -0.002804 0.0
0.081634 0.366045 0.002949 0.0
3.858838 1.169989 0.005085 0.0
0.121407 0.800976 0.003888 0.0
1.569332 1.449345 0.000679 0.0
0.446858 1.154682 0.002854 0.0
4.571620 0.198367 0.001234 0.0
1.806145 0.823393 -0.004951 0.0
3.336074 1.494579 0.001756 0.0
4.016554 1.335482 -0.000729 0.0
4.265022 0.559305 0.004404 0.0
1.568980 0.029997 0.000658 0.0
3.361534 1.153226 0.003756 0.0
1.142758 1.407571 0.000908 0.0
0.974135 1.230127 0.000890 0.0
2.986070 1.330636 -0.003537 0.0
1.756633 0.694654 -0.001160 0.0
2.891843 1.858154 0.002191 0.0
2.684186 0.152654 -0.003405 0.0
0.699113 0.446709 -0.000850 0.0
2.451290 0.922693 0.001203 0.0
4.330081 0.795555 -0.001191 0.0
1.725365 1.392522 -0.005255 0.0
0.878984 1.320085 -0.001180 0.0
3.581538 0.361227 0.003293 0.0
3.582204 1.791393 -0.004697 0.0
2.380191 0.507567 -0.004012 0.0
4.454240 0.623430 0.001109 0.0
0.579053 0.619147 -0.000476 0.0
2.101259 1.632000 0.000662 0.0
2.957533 1.780819 -0.001111 0.0
3.873719 1.576846 -0.001165 0.0
4.476459 0.961700 -0.001144 0.0
2.480510 0.082761 0.000209 0.0
0.977454 0.861940 -0.001186 0.0
4.731477 0.448277 0.003285 0.0
4.017810 0.228069 0.002951 0.0
0.802694 0.468138 0.000195 0.0
1.940596 0.500233 0.000947 0.0
0.629804 0.499587 0.001024 0.0
2.333606 1.372183 0.003096 0.0
2.220495 0.647519 0.001749 0.0
1.629893 0.630268 0.001332 0.0
2.232251 0.265093 0.000667 0.0
1.734097 0.567692 0.005077 0.0
2.152198 0.647957 0.000674 0.0
3.356706 1.683862 -0.000871 0.0
0.734936 1.831237 0.000759 0.0
3.409545 0.167723 0.003000 0.0
1.505305 0.387197 -0.000872 0.0
4.535656 0.637800 -0.001856 0.0
2.546502 0.015989 -0.000024 0.0
1.432413 0.771421 -0.002198 0.0
0.893003 0.309477 0.000906 0.0
3.459226 0.427531 0.001695 0.0
1.784833 1.259576 -0.002516 0.0
4.335968 1.522891 0.002749 0.0
0.669212 0.830110 0.000068 0.0
4.049107 1.385970 0.001261 0.0
1.338164 0.056553 -0.002213 0.0
1.347388 0.505530 0.000083 0.0
3.966044 1.142254 0.006756 0.0
0.489102 0.662395 0.001066 0.0
0.823587 1.810469 -0.000186 0.0
1.600616 1.779045 0.003466 0.0
2.571237 0.435444 -0.000560 0.0
2.483419 0.908086 0.000399 0.0
1.575030 0.698166 0.004260 0.0
3.458982 1.595424 -0.002388 0.0
4.404675 1.209245 -0.001452 0.0
4.337199 0.523276 -0.000818 0.0
3.112301 1.590736 0.000674 0.0
1.505757 1.610880 -0.002165 0.0
1.063455 1.521646 0.000750 0.0
2.694287 1.456906 0.001190 0.0
1.300544 0.534446 0.002821 0.0
0.872036 0.669584 -0.001041 0.0
2.967146 0.951190 0.000959 0.0
0.379581 0.513341 -0.001081 0.0
0.388025 1.557509 0.001058 0.0
1.120936 1.179323 0.001224 0.0
0.197424 0.089457 0.002070 0.0
1.185443 1.849900 -0.002255 0.0
2.849812 0.017960 -0.000970 0.0
1.221238 0.823385 -0.000344 0.0
2.542954 0.797693 0.003281 0.0
4.435800 0.893894 -0.000688 0.0
0.810655 0.274395 0.002005 0.0
1.310163 0.953413 0.003926 0.0
2.780902 0.072801 0.004701 0.0
0.387286 1.395446 0.003509 0.0
2.123400 1.879832 -0.002615 0.0
0.305909 1.496044 -0.000524 0.0
3.840657 1.267966 0.004009 0.0
2.842978 1.040764 0.001285 0.0
3.390368 0.470306 0.003145 0.0
4.654213 0.805699 0.001894 0.0
2.299358 0.662301 0.000924 0.0
0.287924 0.203562 -0.000006 0.0
3.526685 0.549587 -0.004910 0.0
4.202229 1.209934 -0.000472 0.0
3.702221 0.565915 0.000253 0.0
0.995229 1.056777 0.004036 0.0
2.425891 1.797336 0.000934 0.0
1.083408 0.787055 0.002835 0.0
4.493102 0.952947 -0.003636 0.0
1.280382 0.225205 -0.001325 0.0
3.568398 0.695923 -0.000940 0.0
1.474823 1.318765 0.000493 0.0
0.390365 0.743630 -0.000696 0.0
0.648929 0.001571 -0.004037 0.0
2.466734 1.440669 -0.000288 0.0
2.914791 0.307545 -0.005251 0.0
0.224671 0.310814 -0.002119 0.0
0.171107 0.399269 -0.001389 0.0
3.070560 0.202252 0.001094 0.0
1.366233 1.745634 0.002005 0.0
4.586838 1.203863 -0.001963 0.0
0.268648 0.114180 -0.003986 0.0
4.627938 0.765295 -0.001686 0.0
1.105867 0.269219 0.000985 0.0
1.652692 1.215153 0.003283 0.0
3.902476 1.024874 -0.002839 0.0
2.501414 0.336217 -0.000467 0.0
2.262721 0.435335 0.000192 0.0
3.529676 1.141409 0.000816 0.0
1.076015 0.228197 -0.000985 0.0
4.422419 1.769966 0.001886 0.0
0.738515 1.210084 -0.002011 0.0
4.085327 1.398950 0.003967 0.0
4.543200 1.718499 0.004594 0.0
4.057302 1.528201 -0.001927 0.0
1.764861 1.015110 0.000966 0.0
0.841150 1.507931 0.000124 0.0
3.068554 0.302086 0.003077 0.0
0.823597 0.979575 -0.002057 0.0
1.306108 0.537313 0.003511 0.0
1.550459 0.553528 0.003015 0.0
3.768635 1.829653 -0.003497 0.0
3.312561 0.890509 -0.002349 0.0
4.546579 0.230750 0.001552 0.0
2.739582 0.837288 0.001009 0.0
2.726380 1.745952 -0.000324 0.0
0.296117 0.424151 -0.003056 0.0
0.207920 0.898080 0.002317 0.0
2.451603 0.643183 0.006549 0.0
4.373583 1.357994 0.001011 0.0
2.732688 1.502872 0.003567 0.0
2.481958 1.088255 0.005972 0.0
1.399175 1.508014 0.001213 0.0
2.034320 1.146532 -0.001271 0.0
2.056582 1.770052 0.001463 0.0
2.254925 0.213739 -0.001003 0.0
3.797351 0.254044 0.002492 0.0
3.087458 1.725563 0.002161 0.0
0.109049 0.032531 0.001595 0.0
2.485193 1.361324 -0.000862 0.0
4.731987 0.498629 0.002016 0.0
1.070470 0.936047 0.001318 0.0
3.994209 0.456374 0.002839 0.0
4.431546 0.730851 0.000630 0.0
1.484493 0.973095 0.001590 0.0
1.476887 0.235600 0.004838 0.0
3.690576 1.444853 0.001680 0.0
1.615851 0.083087 -0.000860 0.0
0.774813 0.585226 -0.002224 0.0
3.739162 0.523728 0.003184 0.0
3.543540 0.870698 0.000522 0.0
3.406396 0.678307 0.002205 0.0
2.287409 0.098896 -0.002585 0.0
4.228283 0.981001 0.000017 0.0
1.851180 0.351510 0.001126 0.0
2.378086 1.380174 0.001137 0.0
3.843054 0.353793 0.000236 0.0
0.586268 1.685552 0.000466 0.0
0.126875 0.686339 -0.000175 0.0
2.539585 0.183654 -0.002308 0.0
4.413310 0.844943 0.000404 0.0
1.903803 1.834387 0.003432 0.0
2.194361 0.399358 -0.003622 0.0
3.062816 0.077977 0.000112 0.0
0.047466 1.249953 0.002438 0.0
2.753917 0.782829 0.001519 0.0
4.559461 0.766811 -0.001930 0.0
2.207015 0.132227 -0.000394 0.0
4.440874 1.839144 0.002051 0.0
3.532800 1.071060 -0.000134 0.0
4.744101 0.795834 -0.001659 0.0
0.407312 1.635391 -0.004091 0.0
3.825861 0.657462 0.000623 0.0
0.830949 0.461424 0.000420 0.0
2.413517 1.118572 0.002282 0.0
4.424017 1.286434 0.001009 0.0
2.064371 0.986041 -0.001144 0.0
2.206955 0.082732 0.000211 0.0
2.064520 1.337116 -0.003332 0.0
4.426296 0.731483 -0.003834 0.0
3.153871 1.106936 -0.004349 0.0
0.678174 1.068160 0.004586 0.0
3.676783 0.853613 -0.004502 0.0
2.219189 0.191521 0.002753 0.0
2.078569 1.281590 -0.003760 0.0
0.646749 0.785249 0.001205 0.0
2.810046 1.432885 0.003279 0.0
2.439053 0.462221 0.001179 0.0
1.898784 1.040473 -0.005517 0.0
4.696220 1.256626 -0.001571 0.0
4.710334 0.095920 -0.001708 0.0
3.810536 0.933655 -0.001359 0.0
2.717558 1.693033 -0.001724 0.0
4.256654 1.858425 0.001034 0.0
1.884059 1.220869 -0.000868 0.0
2.877782 0.234840 -0.001850 0.0
2.653901 0.316000 -0.000568 0.0
4.772639 1.411180 0.002909 0.0
0.293934 1.080898 0.001655 0.0
3.852323 0.158849 -0.003157 0.0
4.061283 1.430477 -0.003973 0.0
2.353470 0.245401 0.000978 0.0
2.606722 1.360883 -0.002205 0.0
3.197721 1.456987 -0.001467 0.0
1.017716 0.469826 0.007397 0.0
3.870991 1.774354 -0.005400 0.0
2.162308 1.193539 0.004597 0.0
4.622961 1.159369 0.000250 0.0
3.338263 1.204909 0.001233 0.0
2.891524 1.179431 0.001529 0.0
1.130643 1.207919 0.001526 0.0
2.339902 0.752545 0.003707 0.0
4.329000 1.395752 -0.001783 0.0
0.022797 1.217465 -0.001279 0.0
1.130469 0.666290 -0.000088 0.0
3.326250 0.101387 0.000111 0.0
1.920170 1.877606 0.000669 0.0
0.724797 0.590120 -0.000866 0.0
0.788960 1.671763 0.001500 0.0
1.703929 1.725054 0.001722 0.0
4.091967 0.652937 -0.000627 0.0
4.718443 1.190827 -0.004857 0.0
0.204710 0.999081 0.002882 0.0
1.322391 0.806314 -0.002382 0.0
3.257999 0.191597 0.000807 0.0
3.759449 1.693803 -0.000739 0.0
2.957903 0.793361 -0.004516 0.0
4.398158 1.107322 -0.003320 0.0
1.151812 1.677876 0.000202 0.0
4.082675 1.037667 0.001672 0.0
2.460254 0.389799 0.003065 0.0
2.590767 0.638685 0.001648 0.0
3.443280 0.277402 0.001523 0.0
4.782073 0.881308 -0.002465 0.0
3.525383 0.671470 0.002016 0.0
2.310847 0.053080 -0.002130 0.0
2.466858 0.891141 0.001397 0.0
0.640698 1.424124 0.001091 0.0
3.552915 1.164023 -0.001710 0.0
1.913699 0.440134 0.002865 0.0
2.228551 1.204783 0.004097 0.0
4.022114 1.374152 -0.000116 0.0
3.826467 0.247081 0.002753 0.0
4.066947 1.576669 0.001401 0.0
4.387250 0.951706 -0.000502 0.0
0.010073 1.712366 0.005657 0.0
0.939168 0.320645 0.000329 0.0
2.463754 0.092762 -0.001015 0.0
0.827709 0.369302 0.000127 0.0
0.652722 1.841291 0.001450 0.0
2.207064 1.577727 -0.000393 0.0
1.349007 1.030023 0.004794 0.0
0.475599 0.682915 0.000268 0.0
3.490533 1.593587 -0.001166 0.0
1.862388 1.373268 0.005462 0.0
1.588569 1.360698 0.001876 0.0
1.789494 1.002734 -0.002194 0.0
2.263196 0.053778 0.003701 0.0
3.477562 1.764053 0.001285 0.0
1.672031 1.375707 0.002708 0.0
3.647212 0.916983 0.003938 0.0
1.767575 1.085874 0.001948 0.0
0.423854 0.476773 -0.003543 0.0
2.032000 0.426725 -0.000757 0.0
1.131350 1.508993 0.003540 0.0
4.717234 1.564805 -0.000599 0.0
0.035022 0.379316 0.000286 0.0
1.022417 1.540980 0.001781 0.0
3.298978 0.319756 -0.000556 0.0
0.464124 1.520405 0.002469 0.0
2.014721 0.768364 -0.005629 0.0
4.391443 1.017365 0.001526 0.0
0.597452 1.060745 0.002544 0.0
1.807536 1.227716 -0.002144 0.0
2.294599 0.793104 0.002770 0.0
2.869602 1.111769 0.000313 0.0
1.496150 0.897123 0.002645 0.0
1.870253 0.601647 0.002476 0.0
3.772661 0.079420 0.001363 0.0
2.335655 1.650959 -0.000823 0.0
4.477101 0.087613 -0.001422 0.0
2.866261 0.071801 0.003965 0.0
3.772600 1.872376 -0.002035 0.0
2.676449 1.090652 -0.000247 0.0
1.918209 0.663782 0.000091 0.0
2.895153 0.614423 0.002183 0.0
2.567125 1.462850 0.001563 0.0
3.894504 0.438750 0.001674 0.0
0.978473 1.181710 -0.001693 0.0
0.080608 1.560789 -0.005027 0.0
2.494890 1.676580 0.003837 0.0
2.458203 0.883392 0.000309 0.0
1.363009 1.028014 0.003058 0.0
3.955505 1.174474 0.002119 0.0
2.069062 1.757725 0.001795 0.0
3.299419 1.694051 0.000862 0.0
1.469586 1.044555 0.000988 0.0
3.354745 0.096829 0.000153 0.0
3.127118 1.232096 0.002689 0.0
0.679881 0.357236 0.002125 0.0
4.075783 1.445420 0.002031 0.0
3.472774 1.297544 0.000887 0.0
3.620551 0.573402 0.000246 0.0
2.929650 1.144466 -0.000307 0.0
0.033343 0.392510 0.003530 0.0
2.089662 1.382805 0.000488 0.0
1.591830 0.158515 0.001012 0.0
2.231875 0.683556 -0.001473 0.0
2.839184 1.794501 -0.000813 0.0
4.211942 1.716419 0.002943 0.0
2.166451 1.550728 -0.003087 0.0
4.049860 1.277802 -0.002240 0.0
1.300444 0.356548 -0.003344 0.0
3.846957 0.151967 -0.002466 0.0
2.470094 1.586971 -0.001134 0.0
4.144677 0.787157 -0.001927 0.0
0.726924 0.907590 0.002956 0.0
0.761345 0.174166 -0.002420 0.0
2.571500 1.291070 -0.001091 0.0
3.406318 0.226288 0.000947 0.0
1.110277 1.365815 -0.000149 0.0
2.123308 0.546459 0.001551 0.0
4.022524 0.669328 -0.001984 0.0
3.131058 0.655192 0.000995 0.0
4.107694 1.042258 -0.004908 0.0
2.200062 1.706927 -0.000005 0.0
0.067335 0.420125 0.000272 0.0
3.187726 0.136409 -0.001470 0.0
3.559498 0.542372 0.000990 0.0
3.700191 1.246360 -0.001370 0.0
0.151405 0.535393 -0.001026 0.0
4.050508 1.873818 0.001932 0.0
0.547532 0.180949 -0.001976 0.0
0.253067 1.047977 -0.001493 0.0
4.723580 0.966980 0.000504 0.0
0.950083 1.408513 -0.000702 0.0
4.702611 0.037459 -0.002473 0.0
0.274274 1.763557 0.000415 0.0
1.532084 1.286126 -0.000963 0.0
3.193190 0.362067 -0.001086 0.0
3.395942 0.605603 -0.002964 0.0
2.528608 0.557261 -0.000335 0.0
0.427136 1.323578 0.001238 0.0
1.122981 0.582275 -0.001080 0.0
0.343555 0.784699 -0.001679 0.0
3.678524 1.615563 -0.001213 0.0
1.859500 1.503417 0.003793 0.0
2.256782 0.570039 0.000192 0.0
0.156063 0.280402 0.000463 0.0
0.688824 1.366900 -0.002138 0.0
4.312649 1.416805 -0.001163 0.0
2.075300 0.811891 -0.001710 0.0
2.191035 0.443471 0.000780 0.0
0.971440 0.832072 0.003473 0.0
1.937871 0.155982 0.003641 0.0
0.119003 0.819389 0.003941 0.0
1.255970 1.580685 0.000796 0.0
2.935768 0.788381 -0.001962 0.0
4.496904 0.392341 -0.000745 0.0
4.429946 1.081902 -0.004097 0.0
3.998724 1.747358 -0.001419 0.0
1.090293 1.519234 0.000205 0.0
1.214204 0.834169 0.002338 0.0
0.825321 0.299075 -0.001408 0.0
1.942872 0.280835 0.002199 0.0
4.617445 0.161235 -0.006955 0.0
1.947399 0.720402 -0.000277 0.0
0.894810 1.566542 0.001441 0.0
1.457785 1.152542 -0.003872 0.0
0.274588 0.322972 0.001081 0.0
4.213609 0.895958 -0.000158 0.0
1.607027 0.708860 -0.004150 0.0
1.223503 0.634406 0.000750 0.0
0.455967 1.704341 0.000018 0.0
1.293596 1.367552 -0.002831 0.0
0.774414 1.041922 -0.001152 0.0
4.042796 1.297297 -0.000568 0.0
2.821797 0.076276 0.002843 0.0
2.857428 1.565411 -0.000318 0.0
1.886228 1.474135 -0.000637 0.0
1.834244 0.488904 0.000003 0.0
3.697068 1.821668 0.001365 0.0
1.960110 1.702954 0.001823 0.0
3.420287 1.330298 -0.000398 0.0
3.314161 1.770218 0.000926 0.0
1.361259 1.729492 -0.000154 0.0
4.331538 1.451150 -0.002769 0.0
1.073753 1.159962 -0.002092 0.0
0.595438 0.552068 0.002764 0.0
4.499794 1.543445 0.004726 0.0
2.508892 1.785420 0.001005 0.0
1.041404 0.801191 0.000441 0.0
1.535847 0.880554 -0.007417 0.0
3.855206 1.641831 -0.000808 0.0
4.487002 0.633631 0.002299 0.0
0.171196 1.404863 -0.006605 0.0
3.319207 0.468005 0.001591 0.0
4.665477 0.296499 0.001335 0.0
2.165355 0.732458 -0.001032 0.0
2.188511 0.235586 0.001446 0.0
0.109592 0.429339 -0.005947 0.0
4.222545 0.890321 -0.000313 0.0
1.042619 0.568829 0.003699 0.0
4.644893 1.664688 0.000708 0.0
2.074567 0.062867 -0.001275 0.0
0.000746 0.141539 -0.001117 0.0
1.057920 0.033501 -0.001114 0.0
1.631302 0.969036 -0.000537 0.0
1.139413 0.843746 -0.001511 0.0
3.473773 1.389644 -0.000967 0.0
4.729803 0.793737 -0.001562 0.0
1.436344 0.945431 0.001485 0.0
2.139626 1.115858 -0.000102 0.0
3.206817 0.089615 0.000186 0.0
1.417016 0.928968 -0.003532 0.0
0.114548 1.212701 0.000861 0.0
2.535944 1.457167 -0.002953 0.0
1.473566 1.860978 -0.000155 0.0
4.070133 0.457066 -0.001701 0.0
4.482599 1.680616 -0.001740 0.0
0.930991 0.316085 0.002852 0.0
1.554239 0.547488 0.001303 0.0
1.833724 0.932391 -0.000389 0.0
1.143402 1.125971 0.000269 0.0
0.027315 0.526358 0.001541 0.0
4.127149 0.685881 0.000585 0.0
2.065653 0.992222 0.001653 0.0
3.038534 0.629501 0.001130 0.0
1.622802 1.466117 -0.001706 0.0
3.832888 1.189625 -0.001258 0.0
2.120966 0.958984 -0.000693 0.0
1.112172 0.451140 -0.003879 0.0
0.701432 1.114802 -0.000166 0.0
3.458935 0.623668 -0.002204 0.0
3.967023 1.176139 -0.001058 0.0
0.836307 0.428401 0.003246 0.0
1.628015 0.839284 0.002499 0.0
3.975895 0.264322 0.001667 0.0
3.416829 0.319715 -0.000097 0.0
0.675863 1.567070 0.003513 0.0
0.478273 1.019938 -0.001053 0.0
4.179361 0.581711 -0.002745 0.0
3.361497 1.385356 -0.001800 0.0
1.951882 1.155653 0.003614 0.0
2.907807 1.680476 -0.000130 0.0
1.703919 0.167832 0.000256 0.0
3.918805 0.759611 -0.001229 0.0
1.058547 0.483765 -0.002026 0.0
1.754894 0.159814 -0.000934 0.0
3.701444 1.747509 -0.001552 0.0
3.693216 0.848076 -0.001911 0.0
2.269890 0.655831 0.002669 0.0
3.829965 0.602130 -0.001924 0.0
3.937726 1.494279 0.002005 0.0
4.530948 1.503343 0.002153 0.0
4.576500 1.246692 -0.001997 0.0
3.382449 0.610698 0.001681 0.0
2.608922 0.926957 0.001612 0.0
1.839386 0.862238 0.002808 0.0
0.131720 0.573914 -0.001223 0.0
4.345573 1.331632 0.000033 0.0
1.231681 0.592163 0.002362 0.0
0.426220 0.868439 -0.001420 0.0
2.563406 1.407955 0.002081 0.0
2.000185 0.477662 -0.001996 0.0
3.965255 0.942197 0.000933 0.0
4.273173 0.024206 0.000606 0.0
2.414301 1.754406 0.001235 0.0
0.435496 0.817996 -0.001653 0.0
4.366185 0.194972 0.000970 0.0
3.983786 1.354080 0.000204 0.0
0.931574 0.674572 -0.001319 0.0
3.130654 0.880452 -0.000821 0.0
4.126881 1.008319 0.006214 0.0
1.676793 1.592423 0.003097 0.0
0.303012 0.753334 -0.002505 0.0
4.711881 1.852845 -0.001298 0.0
3.374824 0.813719 0.002785 0.0
2.663457 0.032216 0.001983 0.0
3.672910 1.146730 -0.002814 0.0
3.717462 0.983149 -0.001546 0.0
3.445015 1.129771 0.000105 0.0
2.795859 0.975368 -0.003469 0.0
3.859195 1.891851 -0.000203 0.0
1.784322 0.357895 0.001957 0.0
1.552009 1.127252 -0.002671 0.0
1.338777 1.314496 -0.005020 0.0
4.204290 0.064736 0.003011 0.0
3.828997 0.428430 0.001928 0.0
1.818547 0.007582 -0.002614 0.0
3.082001 0.776241 0.002424 0.0
3.274538 1.023179 -0.003814 0.0
4.569706 1.097161 0.001824 0.0
2.802720 0.238294 0.000188 0.0
3.642862 1.578865 0.003719 0.0
0.873833 1.034976 0.000502 0.0
4.621961 1.596575 -0.002918 0.0
4.627762 1.170891 -0.000128 0.0
4.674680 1.514710 0.000501 0.0
3.306763 1.872163 -0.003898 0.0
0.799332 0.996550 -0.002032 0.0
4.285110 0.257325 0.000996 0.0
2.831870 1.070736 -0.000696 0.0
2.084763 0.348639 -0.001253 0.0
2.035020 0.385422 -0.000935 0.0
1.121707 0.341797 0.000451 0.0
3.267305 1.607623 0.002155 0.0
0.029785 0.609633 0.003707 0.0
0.109704 1.253944 0.004201 0.0
3.051361 0.918859 0.001609 0.0
3.190269 0.689506 0.002501 0.0
4.338808 0.792964 -0.002497 0.0
1.921067 0.115864 0.001298 0.0
4.690383 0.556499 -0.004302 0.0
2.198720 0.010176 0.000190 0.0
4.143209 1.374371 0.001818 0.0
4.074159 1.686566 0.002108 0.0
3.893677 0.313975 -0.000549 0.0
0.230155 0.315641 -0.002103 0.0
1.919261 1.234391 0.000357 0.0
4.089655 1.060996 0.002116 0.0
0.964819 0.360656 0.001166 0.0
3.857208 0.686335 0.003243 0.0
1.763597 0.590698 -0.003562 0.0
0.371423 0.762226 -0.004907 0.0
1.116928 0.959286 -0.001846 0.0
1.505651 1.347727 0.001651 0.0
3.214892 0.250325 -0.001507 0.0
4.680541 0.487995 -0.005230 0.0
1.662513 1.648811 -0.000565 0.0
4.010328 0.540186 -0.001560 0.0
1.538762 0.772880 -0.001111 0.0
2.136792 0.594582 0.000134 0.0
3.961104 1.757357 -0.001340 0.0
4.368297 1.847157 0.003279 0.0
2.532191 1.152882 0.002574 0.0
0.064309 0.261792 -0.000464 0.0
0.433742 0.454858 -0.001103 0.0
1.137359 0.308734 0.004792 0.0
3.780573 1.473613 -0.003204 0.0
2.429600 1.506471 0.005251 0.0
1.908627 1.155683 0.000357 0.0
0.378426 0.191174 -0.002982 0.0
1.174415 0.963084 0.001387 0.0
0.467446 1.732885 0.000120 0.0
0.799845 1.024503 0.002740 0.0
3.392834 0.061369 -0.007391 0.0
1.607937 1.165141 -0.002531 0.0
2.590143 0.272810 0.001330 0.0
4.105787 1.766647 0.002769 0.0
1.722775 0.464673 -0.000656 0.0
1.678744 1.168197 -0.000178 0.0
1.222024 0.538602 0.004900 0.0
0.490111 0.436734 0.001680 0.0
3.395620 0.392165 -0.001431 0.0
0.408122 0.896260 0.002650 0.0
0.566842 0.966943 -0.000474 0.0
0.207203 0.245821 -0.002309 0.0
0.927420 1.548608 -0.000870 0.0
2.542267 0.287537 -0.000416 0.0
0.160744 0.504761 0.001859 0.0
0.265455 0.897010 -0.005011 0.0
0.331315 0.686611 0.000983 0.0
0.080873 0.344441 -0.004604 0.0
4.552470 0.245347 0.003528 0.0
1.047407 0.891026 0.005652 0.0
3.545226 1.533768 -0.001815 0.0
4.298627 1.824617 -0.002707 0.0
0.883098 1.541787 -0.004279 0.0
1.516060 0.179243 0.000088 0.0
0.010223 0.762976 -0.001589 0.0
1.496081 0.387713 -0.004126 0.0
4.602566 0.787048 -0.003351 0.0
4.299359 1.879698 0.004767 0.0
3.759526 0.845754 -0.004533 0.0
3.716603 1.418592 -0.000763 0.0
0.993534 1.581948 -0.003971 0.0
0.779136 0.928705 -0.000149 0.0
2.941060 0.355937 -0.003484 0.0
2.512460 1.468527 0.005223 0.0
3.617834 0.959006 0.000857 0.0
2.363372 1.388088 0.002025 0.0
0.507372 1.437308 -0.000904 0.0
4.025218 1.463110 0.003039 0.0
1.322433 0.541118 -0.002945 0.0
3.604115 1.783979 0.000763 0.0
3.404479 0.013135 0.002338 0.0
4.398476 0.865972 -0.000042 0.0
4.002712 0.548113 0.003159 0.0
2.455081 0.750716 -0.002352 0.0
1.796923 1.102097 -0.002709 0.0
1.305499 0.228656 0.000129 0.0
2.505358 0.645987 -0.004005 0.0
4.113235 1.144496 -0.000778 0.0
2.244226 0.209406 -0.000090 0.0
1.932208 1.495325 -0.001220 0.0
0.240091 0.862048 -0.005342 0.0
3.227896 0.557624 0.001849 0.0
3.132586 1.760386 -0.004041 0.0
3.363881 1.144663 0.000569 0.0
2.762379 0.924539 -0.003245 0.0
0.346905 1.339845 0.000186 0.0
3.824530 0.588418 -0.003011 0.0
2.105145 0.498498 -0.001240 0.0
0.911179 0.319299 -0.000833 0.0
4.396262 1.072914 0.007109 0.0
1.734364 0.581039 0.000812 0.0
1.548491 0.098023 0.000726 0.0
1.622409 1.193681 0.006535 0.0
0.094434 0.502217 -0.001139 0.0
4.578827 1.163985 -0.003870 0.0
1.683092 1.864817 -0.001833 0.0
1.747799 1.549814 -0.003881 0.0
0.407609 1.303039 -0.003683 0.0
4.336540 1.787834 0.005924 0.0
3.355744 1.409984 -0.003023 0.0
4.002952 0.913912 -0.000888 0.0
1.672517 0.609397 -0.002378 0.0
1.595397 1.568108 0.002535 0.0
2.849736 1.107174 0.003376 0.0
3.948110 1.290807 0.000637 0.0
4.752331 1.098429 0.005459 0.0
4.197176 0.879963 0.002417 0.0
4.477857 0.588855 -0.000408 0.0
4.611519 1.471992 0.000513 0.0
3.850090 1.298108 -0.001980 0.0
3.025527 0.407128 0.002087 0.0
3.491960 1.870485 -0.002895 0.0
2.981549 1.021240 -0.002349 0.0
4.267088 1.266541 0.003031 0.0
0.265666 0.618849 0.001533 0.0
3.764622 0.952328 -0.003587 0.0
0.727635 1.788499 0.000501 0.0
0.410917 1.537537 -0.000386 0.0
0.382035 0.961650 -0.004704 0.0
2.669784 0.544119 0.002283 0.0
4.654439 1.405115 -0.000236 0.0
0.937410 1.658545 -0.001406 0.0
4.522437 1.810531 0.001837 0.0
0.824296 0.077667 -0.004283 0.0
2.341192 0.960560 -0.000904 0.0
4.437600 1.848559 -0.001121 0.0
3.979492 0.340756 -0.001244 0.0
4.532343 1.117688 0.001953 0.0
3.871234 1.033288 -0.003487 0.0
0.669695 0.664871 -0.006658 0.0
1.781928 0.657465 0.000456 0.0
0.093292 0.177446 -0.002685 0.0
1.582313 1.670792 0.003590 0.0
0.583855 0.615633 -0.004056 0.0
3.942617 1.041251 0.005645 0.0
1.515896 1.676974 -0.007978 0.0
1.812693 0.537670 -0.001734 0.0
1.573879 1.538982 -0.000398 0.0
4.055234 1.410154 -0.000345 0.0
2.236289 1.747507 -0.000183 0.0
3.801062 0.840915 -0.000612 0.0
2.587789 0.637965 -0.004428 0.0
3.302331 0.208632 -0.002976 0.0
3.377732 0.170803 0.002368 0.0
3.374092 1.052530 -0.000540 0.0
0.358127 1.535328 -0.001609 0.0
1.828684 1.562494 -0.001291 0.0
4.747205 0.105978 0.001112 0.0
3.652740 0.186887 0.001281 0.0
3.364742 1.378238 0.003171 0.0
1.482479 1.661199 -0.001407 0.0
2.121439 1.188102 -0.001024 0.0
2.001498 1.009685 -0.001207 0.0
3.710914 0.337312 -0.000103 0.0
1.983930 1.465519 0.003485 0.0
2.648969 0.312203 -0.003865 0.0
3.234759 0.234952 0.000851 0.0
0.612064 1.054864 -0.001641 0.0
3.651319 0.644249 -0.001121 0.0
1.430892 1.878035 -0.000870 0.0
2.487563 1.253206 0.002283 0.0
0.368713 1.070770 0.001163 0.0
1.275276 0.054009 0.001095 0.0
0.358429 1.080787 -0.000495 0.0
3.119174 1.476948 0.002427 0.0
3.416877 0.288511 0.000718 0.0
2.094458 1.810979 -0.001240 0.0
2.946706 0.601600 0.002131 0.0
1.938389 1.819512 -0.002898 0.0
3.489710 0.700046 -0.000941 0.0
2.893205 0.070835 -0.002932 0.0
2.450534 1.129010 -0.002690 0.0
2.766256 1.448487 -0.002953 0.0
4.066325 0.177708 -0.000772 0.0
0.098277 0.051042 0.000210 0.0
4.163297 0.444206 -0.001431 0.0
0.073738 0.560446 0.001809 0.0
4.485369 0.092687 -0.000512 0.0
0.349837 1.003419 0.002753 0.0
2.447870 0.120789 -0.001166 0.0
3.320653 0.047760 -0.001192 0.0
2.679640 1.544384 0.001117 0.0
3.047168 0.143551 -0.003724 0.0
2.044131 1.203006 0.000777 0.0
0.063779 1.839446 0.001844 0.0
0.699877 0.575477 -0.001875 0.0
4.259547 0.734119 0.003094 0.0
3.380922 1.360788 -0.004027 0.0
4.067015 0.731854 -0.001018 0.0
4.229858 0.082032 0.006783 0.0
2.754583 1.067945 -0.001943 0.0
0.003306 0.121994 0.002378 0.0
1.251988 1.748546 0.001735 0.0
4.682246 0.282793 -0.001096 0.0
0.522311 1.827322 -0.004616 0.0
3.629632 0.297726 -0.002913 0.0
3.561829 1.206838 -0.002488 0.0
3.033814 1.256021 0.000607 0.0
4.286997 1.788114 -0.001326 0.0
2.279929 0.831792 0.000369 0.0
2.309306 0.986112 0.002811 0.0
1.265660 0.594484 0.001293 0.0
3.865019 1.715269 -0.000952 0.0
4.778970 1.034903 0.004411 0.0
1.786161 0.932106 -0.002192 0.0
4.123769 1.020864 -0.003330 0.0
0.614712 1.214922 -0.000226 0.0
4.067141 0.519269 0.002050 0.0
4.310482 1.252916 0.002032 0.0
3.542177 1.094751 -0.003591 0.0
0.455004 0.960129 0.003606 0.0
0.030417 0.961702 -0.000167 0.0
0.429598 1.347501 0.000280 0.0
2.671339 0.474006 -0.002441 0.0
3.061748 0.505742 -0.002142 0.0
2.848681 0.405357 -0.001285 0.0
3.402063 0.489190 -0.003955 0.0
3.703514 1.643255 0.000240 0.0
2.012410 0.727879 -0.000723 0.0
2.890689 1.760067 -0.003115 0.0
3.194888 1.761135 -0.000053 0.0
4.317049 0.452996 -0.001306 0.0
4.182109 0.669067 0.000715 0.0
3.957394 1.753204 0.003291 0.0
2.272475 1.209149 -0.001995 0.0
3.735071 0.236401 0.001241 0.0
3.090195 0.603807 0.000541 0.0
4.295363 0.697833 0.003218 0.0
0.373715 1.800087 -0.004656 0.0
3.198441 0.329584 -0.003856 0.0
1.716077 0.242575 -0.001070 0.0
2.904004 0.122413 0.001533 0.0
0.990467 0.102504 0.001617 0.0
0.899866 1.818998 -0.001218 0.0
0.256006 0.636005 0.001922 0.0
0.888173 0.776015 0.002923 0.0
1.489755 1.351608 -0.000351 0.0
1.690516 0.796329 0.001681 0.0
2.423704 1.854852 0.000470 0.0
0.540686 0.436661 -0.001621 0.0
4.003165 1.650951 0.004022 0.0
2.599935 0.050802 -0.002244 0.0
0.169706 0.621613 0.001550 0.0
0.007712 1.851595 0.000564 0.0
4.553178 1.374246 0.002944 0.0
0.996962 1.249506 0.004032 0.0
2.566591 0.879913 0.000012 0.0
0.820991 1.057095 0.002044 0.0
3.645259 1.062265 -0.001409 0.0
3.735511 0.792964 -0.000274 0.0
3.895970 1.663070 0.000591 0.0
4.298358 1.299028 -0.000296 0.0
0.863402 0.155297 0.001837 0.0
4.312134 1.045358 0.000241 0.0
2.458208 1.178640 -0.001541 0.0
2.476549 0.650689 0.000261 0.0
4.011265 0.068850 0.000538 0.0
0.169268 1.513777 -0.000931 0.0
2.730527 0.908384 0.000553 0.0
3.939181 0.374220 0.002398 0.0
3.945839 1.849085 -0.001427 0.0
0.467620 0.967469 0.001588 0.0
0.188646 0.779306 -0.002912 0.0
3.480741 1.338851 0.002272 0.0
2.932917 1.086693 0.001225 0.0
0.502706 1.091186 -0.005466 0.0
0.620374 1.768277 -0.004759 0.0
0.295834 0.132342 0.000567 0.0
2.549805 1.574318 -0.000711 0.0
3.179744 0.272143 -0.002327 0.0
1.192460 0.745404 -0.000170 0.0
2.020315 0.252004 0.001424 0.0
3.332520 0.650472 -0.000326 0.0
3.513891 1.065974 0.001203 0.0
2.236611 0.952387 -0.000234 0.0
3.901198 1.612116 -0.000118 0.0
3.301863 0.033300 -0.005308 0.0
3.836396 1.876380 0.006959 0.0
3.063735 0.846871 0.002596 0.0
4.275893 0.093848 -0.001901 0.0
4.038967 1.861586 0.001045 0.0
3.660227 1.426764 -0.000921 0.0
1.777168 0.946719 0.000317 0.0
3.267710 1.336678 -0.003182 0.0
3.453468 1.751786 -0.000060 0.0
0.864871 1.493992 -0.001912 0.0
0.297567 0.727123 -0.001968 0.0
4.721544 1.217332 -0.002031 0.0
1.790208 0.425639 -0.001879 0.0
4.344028 1.226843 0.000331 0.0
4.099486 1.654656 0.002646 0.0
1.396787 1.811744 0.003003 0.0
0.644970 1.846127 0.002305 0.0
3.577099 0.673162 -0.005452 0.0
3.878059 1.334549 0.000648 0.0
1.098942 1.843074 0.003768 0.0
3.120141 0.699375 0.001006 0.0
2.847822 1.206715 0.000513 0.0
4.217304 0.946622 -0.003735 0.0
2.463090 0.735546 0.001865 0.0
3.507923 1.013969 0.000762 0.0
0.525870 1.432823 -0.000908 0.0
4.126543 0.512826 0.000267 0.0
2.075037 1.499143 -0.001383 0.0
3.158694 0.646914 -0.001339 0.0
0.469578 0.278842 0.002837 0.0
1.551031 1.304423 -0.000124 0.0
3.783669 0.045236 0.001639 0.0
0.596253 0.165376 0.001525 0.0
0.416266 0.245482 0.002116 0.0
4.620996 1.537305 -0.003611 0.0
1.318340 1.156747 0.000422 0.0
2.179336 0.630346 0.000511 0.0
3.480153 0.473095 -0.003099 0.0
3.194797 0.601500 0.000488 0.0
2.278785 1.559701 -0.000588 0.0
2.611707 1.470435 0.002086 0.0
1.147734 1.789086 -0.001436 0.0
3.172375 1.598657 0.004088 0.0
0.323180 1.750552 -0.001214 0.0
1.812223 0.493814 0.001906 0.0
3.850115 0.140671 -0.001149 0.0
4.240828 0.551837 -0.003154 0.0
0.485699 0.628700 0.000883 0.0
1.508873 0.537626 -0.000596 0.0
0.195864 0.613962 -0.000914 0.0
1.409042 0.684131 -0.000123 0.0
1.234373 0.795503 0.003870 0.0
2.290891 1.450156 0.002044 0.0
4.776830 0.486394 -0.001583 0.0
0.459655 1.594191 -0.005723 0.0
3.715380 1.445361 0.000733 0.0
2.219655 0.298661 0.002016 0.0
2.115567 0.433655 -0.000488 0.0
1.270627 1.528233 0.001897 0.0
1.006549 1.046883 0.001651 0.0
2.845747 1.305659 0.003773 0.0
0.572443 1.360163 -0.000477 0.0
1.092755 1.847555 -0.000756 0.0
3.922934 1.463579 -0.003214 0.0
2.380177 0.583282 -0.004110 0.0
0.002911 0.571063 -0.002043 0.0
3.081739 0.893828 -0.000138 0.0
2.264288 1.611593 -0.000412 0.0
0.350338 0.518777 0.007080 0.0
3.466653 0.542369 0.001119 0.0
3.336450 1.199964 -0.001230 0.0
2.231497 1.440425 0.003433 0.0
2.891388 0.706397 0.000658 0.0
3.686444 0.223621 0.000558 0.0
1.433800 1.779262 0.004613 0.0
2.293241 1.304533 -0.000416 0.0
3.850256 1.347789 0.000448 0.0
4.608535 1.863442 -0.002225 0.0
2.733299 0.453159 -0.001412 0.0
4.389857 0.658019 0.003352 0.0
2.999724 1.423437 -0.001228 0.0
3.325273 0.559032 0.003851 0.0
3.415113 1.233405 0.002494 0.0
4.144774 0.528224 -0.002189 0.0
3.632638 1.661934 0.002399 0.0
2.193117 1.849536 0.003626 0.0
1.725390 0.156151 -0.004458 0.0
0.979319 1.796065 0.001199 0.0
2.126395 0.752177 0.005707 0.0
0.343641 0.933136 0.000466 0.0
3.328847 1.326650 -0.001692 0.0
1.061629 1.209702 0.003075 0.0
2.329411 1.382633 0.006145 0.0
0.989503 1.842370 0.003472 0.0
1.402751 0.715284 -0.001145 0.0
0.583425 0.535117 0.002211 0.0
0.395621 0.198601 -0.000619 0.0
4.056599 0.213194 -0.000425 0.0
4.080798 1.069598 -0.001022 0.0
2.423435 0.413021 0.002025 0.0
4.634836 1.420050 0.000256 0.0
4.146937 0.974458 0.000807 0.0
3.965919 1.041746 0.002269 0.0
4.515114 1.868655 0.000025 0.0
0.094866 1.387148 -0.001853 0.0
3.916737 0.666836 0.001162 0.0
3.723134 0.597939 0.000695 0.0
0.731920 1.594555 0.001897 0.0
3.637906 0.846744 -0.001596 0.0
1.009431 0.872577 0.002719 0.0
2.771422 0.594888 -0.006307 0.0
1.439461 1.406949 -0.000126 0.0
0.279123 0.089376 -0.001988 0.0
0.923439 1.632684 -0.002160 0.0
1.250301 1.531031 0.001581 0.0
1.481623 0.849683 -0.001164 0.0
2.996457 0.084113 -0.000129 0.0
4.672010 1.151296 -0.002025 0.0
4.339489 1.655662 -0.003017 0.0
3.927604 1.090989 0.000061 0.0
1.100075 0.610926 0.002760 0.0
4.432474 1.061141 0.002802 0.0
2.969829 0.960258 -0.001721 0.0
4.122306 0.544513 -0.001949 0.0
2.094633 0.821648 -0.002951 0.0
1.343243 0.018460 -0.001746 0.0
4.292398 1.120167 0.004508 0.0
1.200139 0.961679 0.000094 0.0
2.330726 0.046330 -0.000305 0.0
2.803029 1.367041 0.002954 0.0
1.190021 0.879774 -0.002654 0.0
2.660011 0.559559 -0.001573 0.0
1.737114 1.685555 -0.003783 0.0
1.435738 0.905297 0.000940 0.0
4.325782 0.980240 -0.001379 0.0
2.162335 1.567456 -0.001185 0.0
3.014807 0.147789 0.001453 0.0
2.711391 1.862894 -0.000674 0.0
2.285862 0.573260 -0.001584 0.0
1.637179 1.827942 0.000357 0.0
4.520836 0.712731 0.000602 0.0
4.631166 0.193554 -0.001168 0.0
3.705481 1.413272 0.001856 0.0
1.493952 1.813995 -0.001026 0.0
3.551472 0.529211 0.002642 0.0
0.583645 1.627611 0.005121 0.0
0.436060 0.374526 0.004338 0.0
3.872888 1.686475 -0.001426 0.0
3.062332 0.451432 0.003611 0.0
0.720043 0.983208 0.001740 0.0
1.453629 0.703270 0.003341 0.0
1.268525 0.350757 0.003538 0.0
3.209759 1.324406 0.002731 0.0
2.784762 0.099254 0.002787 0.0
1.639310 1.406886 -0.000885 0.0
1.420472 0.601025 0.004160 0.0
3.905613 1.425048 0.000476 0.0
3.936875 0.464028 -0.000281 0.0
4.224787 0.399384 0.000041 0.0
3.766465 0.385370 -0.001475 0.0
2.454266 1.131038 0.001005 0.0
4.616037 1.307742 0.000491 0.0
0.519976 1.589086 -0.002639 0.0
3.308032 0.197177 -0.001409 0.0
0.190011 0.836566 -0.001381 0.0
0.884762 0.013844 0.000719 0.0
3.851642 0.841687 -0.001992 0.0
3.776283 1.400984 -0.001218 0.0
1.277060 1.342977 -0.003458 0.0
4.437038 0.154407 0.000290 0.0
1.371196 1.664295 0.001074 0.0
0.470286 0.547866 -0.001709 0.0
1.838818 1.133540 0.000996 0.0
0.022230 1.871552 0.003809 0.0
2.657044 1.250343 0.000767 0.0
4.042330 1.787008 0.000791 0.0
4.409712 1.002231 0.001922 0.0
0.615767 1.535165 0.000933 0.0
2.681630 1.612852 0.001540 0.0
1.474594 0.744421 -0.000525 0.0
4.513183 1.023992 0.004184 0.0
1.468654 0.017223 -0.001336 0.0
4.441670 1.737762 0.001983 0.0
1.230717 0.649932 -0.001589 0.0
0.315757 0.686368 -0.002635 0.0
4.585927 1.123469 -0.002819 0.0
4.068466 1.757182 0.001070 0.0
3.009180 0.796416 0.001100 0.0
4.344182 1.789320 0.005147 0.0
3.308432 0.321294 0.000684 0.0
1.936341 0.231755 0.000688 0.0
0.498100 1.491739 -0.003148 0.0
4.432550 1.573630 0.000585 0.0
2.620077 0.767585 0.000540 0.0
2.913683 1.670814 0.000785 0.0
2.700474 0.627142 0.001008 0.0
4.429406 1.379211 0.000542 0.0
0.993968 1.106841 -0.001385 0.0
2.180299 0.653271 0.001699 0.0
0.188274 1.697119 -0.000850 0.0
1.054771 1.552375 -0.003971 0.0
0.084678 1.737669 0.000506 0.0
0.360135 1.071603 -0.000807 0.0
4.397348 1.783588 -0.000021 0.0
0.457099 1.763049 -0.005012 0.0
3.591556 1.671215 0.002300 0.0
1.345082 0.144201 0.002109 0.0
4.688385 1.748261 0.002818 0.0
3.588520 0.759449 -0.001629 0.0
4.219074 0.344229 0.002853 0.0
2.411982 0.256196 0.000955 0.0
2.252366 0.806809 0.001967 0.0
4.009741 1.744941 0.002620 0.0
0.929760 1.347813 -0.002343 0.0
4.643611 1.121148 -0.000931 0.0
1.786790 1.794203 0.001782 0.0
3.415232 0.310412 -0.002457 0.0
0.704847 1.130800 -0.005035 0.0
0.267316 1.086098 0.001504 0.0
3.513999 0.405488 0.001187 0.0
1.168356 1.387234 0.002731 0.0
3.289608 1.717468 0.001666 0.0
4.318474 1.211088 0.002220 0.0
3.417134 1.105160 -0.001407 0.0
1.382263 0.066084 -0.001689 0.0
3.417922 0.439002 0.001712 0.0
1.822701 0.717384 -0.005052 0.0
1.271644 0.987230 0.004356 0.0
1.702145 1.277425 -0.000366 0.0
4.009258 0.402312 -0.001800 0.0
4.398531 0.426207 0.000598 0.0
3.001468 1.032488 0.004291 0.0
1.370731 0.661952 -0.004929 0.0
3.524863 1.513507 -0.003022 0.0
4.408804 1.178722 0.001388 0.0
2.789358 1.805779 -0.000063 0.0
4.102447 1.063146 -0.000701 0.0
3.782438 0.441628 0.001093 0.0
3.247791 1.621467 0.003678 0.0
2.445067 0.043603 0.002164 0.0
0.957283 1.073488 -0.000001 0.0
0.926770 1.114177 -0.001064 0.0
4.369995 0.201241 -0.000825 0.0
1.041308 1.115862 0.005674 0.0
3.349756 1.707260 0.001058 0.0
2.097841 1.052520 0.002778 0.0
1.455324 1.490585 -0.002771 0.0
0.089381 0.900253 -0.000330 0.0
4.760736 0.601379 -0.004773 0.0
1.019101 1.400112 0.001242 0.0
1.544423 1.229276 0.007981 0.0
2.554481 1.049220 -0.005543 0.0
4.328361 1.831801 0.003060 0.0
0.480322 0.252262 -0.005211 0.0
1.627618 1.715367 0.002790 0.0
1.135602 1.390840 0.000383 0.0
3.221600 1.138520 0.001595 0.0
4.545273 0.266977 -0.001055 0.0
2.259767 1.492891 -0.002528 0.0
2.770456 0.879429 0.000577 0.0
3.118785 0.851544 0.001540 0.0
2.242017 1.541344 0.000676 0.0
0.313525 0.493554 0.003970 0.0
1.193962 1.681199 0.002385 0.0
0.888392 0.044855 0.000856 0.0
0.424981 0.483285 -0.000319 0.0
3.476109 0.438478 -0.000816 0.0
1.100523 0.783026 -0.002460 0.0
4.365954 1.539514 -0.002328 0.0
2.023860 1.631688 -0.000889 0.0
0.941457 0.989040 0.004406 0.0
1.916237 0.919106 -0.000887 0.0
3.668333 0.873163 0.000936 0.0
4.620108 1.102377 0.003936 0.0
2.631452 0.946130 0.004690 0.0
1.952031 0.861943 -0.001252 0.0
0.102930 0.211675 -0.006470 0.0
1.757743 0.795512 -0.000093 0.0
3.768651 0.110667 -0.000938 0.0
3.011452 0.212293 0.001670 0.0
3.295039 0.649310 0.003067 0.0
4.119673 0.087619 0.003205 0.0
1.962403 0.639945 0.005309 0.0
1.211692 0.601986 -0.000565 0.0
3.059812 1.609033 0.002411 0.0
0.298630 1.371486 0.002235 0.0
3.760737 0.796848 -0.000315 0.0
4.519832 1.386367 0.000426 0.0
0.883857 0.733279 -0.002733 0.0
1.447589 1.049423 -0.001104 0.0
0.619160 0.197130 0.000097 0.0
0.132982 0.102869 0.002356 0.0
0.345454 1.756931 -0.001655 0.0
3.226649 1.116765 0.003141 0.0
1.135668 1.124202 -0.003472 0.0
3.942680 0.473266 0.000570 0.0
1.795496 0.748826 -0.000213 0.0
3.594159 1.143393 -0.001072 0.0
2.851419 0.900917 -0.000229 0.0
0.320907 1.844050 0.000276 0.0
3.882119 1.877453 -0.001951 0.0
0.189103 1.620553 0.000269 0.0
2.308359 1.763596 0.000433 0.0
0.720239 0.721144 -0.006016 0.0
0.210553 1.457571 -0.002000 0.0
1.345116 1.445590 -0.002244 0.0
2.486679 0.257431 0.003206 0.0
2.458508 1.755831 -0.003433 0.0
3.119655 0.582197 -0.002126 0.0
3.631294 1.047035 -0.000580 0.0
1.498729 1.830269 0.001067 0.0
0.649140 0.062766 0.001212 0.0
2.817115 1.308885 0.004474 0.0
2.495265 0.189284 0.000005 0.0
0.273326 0.135281 -0.004359 0.0
4.465079 0.246890 0.005136 0.0
2.579340 1.296048 0.001748 0.0
3.276904 1.697119 0.004893 0.0
0.920560 1.433986 -0.001817 0.0
4.144096 1.381822 -0.002814 0.0
2.075143 0.516205 -0.002416 0.0
4.751674 0.964436 -0.000718 0.0
0.646737 1.806169 0.000115 0.0
0.684042 1.419652 0.000456 0.0
0.465400 0.364914 0.002059 0.0
4.596202 1.723734 -0.002219 0.0
0.343168 0.207921 0.001923 0.0
0.159215 0.007734 -0.002263 0.0
0.559898 1.558569 0.002600 0.0
3.941973 0.560143 -0.002463 0.0
0.997586 1.485224 0.001670 0.0
0.006017 0.838052 0.000376 0.0
0.279647 1.031518 -0.002024 0.0
3.521549 1.795072 0.002606 0.0
1.955666 0.269369 -0.000562 0.0
2.958031 0.998312 0.002919 0.0
2.838082 0.729991 -0.000088 0.0
1.314160 0.451133 0.001560 0.0
4.563690 0.357428 -0.003050 0.0
0.054897 1.020148 0.002207 0.0
2.751050 1.449002 0.001703 0.0
2.220013 0.890354 -0.001036 0.0
0.019600 0.043132 -0.002072 0.0
2.195682 0.659364 0.000960 0.0
1.374452 0.462424 0.001560 0.0
3.408853 0.186191 -0.003664 0.0
3.571029 0.021177 -0.000976 0.0
2.667764 0.498185 -0.001606 0.0
4.652232 0.478697 -0.001560 0.0
0.323260 0.187017 -0.001587 0.0
4.740417 0.263640 0.001210 0.0
0.832678 0.877454 0.001805 0.0
2.873697 1.695672 0.001446 0.0
1.943920 0.281562 0.002120 0.0
2.579853 1.806982 0.002335 0.0
0.077886 1.832027 -0.001333 0.0
4.067250 0.743616 -0.000275 0.0
3.102488 0.583148 0.001339 0.0
2.594354 1.242631 -0.001255 0.0
3.779390 0.831819 0.000053 0.0
3.979015 0.822199 -0.001970 0.0
2.972159 1.731252 -0.001215 0.0
4.271389 1.801817 0.001481 0.0
3.895463 1.593723 0.002433 0.0
3.747771 0.026720 0.000154 0.0
2.998980 0.840001 -0.003873 0.0
3.183810 0.718464 -0.000813 0.0
1.281743 1.409776 0.001958 0.0
1.540434 1.787427 -0.001301 0.0
4.145553 1.456348 0.001441 0.0
4.499099 0.354185 -0.000255 0.0
1.586361 0.628271 0.000342 0.0
1.044583 0.602803 -0.002626 0.0
2.086371 1.356698 -0.004458 0.0
0.954539 0.493771 0.001618 0.0
0.685598 1.069784 -0.002111 0.0
3.045355 1.532710 0.004288 0.0
0.590389 1.579307 0.000718 0.0
3.536905 1.857262 0.003998 0.0
2.548889 0.290726 -0.001614 0.0
0.757739 0.897445 -0.000794 0.0
1.593837 1.890821 -0.003711 0.0
4.087560 0.029280 -0.000002 0.0
0.576994 0.285043 -0.004294 0.0
2.391660 0.343276 0.001230 0.0
3.170000 1.661129 0.001016 0.0
1.888191 1.253922 -0.003003 0.0
3.737074 1.764233 -0.003132 0.0
3.314173 0.588382 -0.000149 0.0
2.430933 1.241818 0.001674 0.0
4.281105 0.742382 0.001274 0.0
3.104246 1.112906 -0.002354 0.0
4.722407 0.311293 0.001038 0.0
4.144481 0.580050 -0.003535 0.0
1.855883 1.076235 -0.006139 0.0
3.268408 0.058134 0.001685 0.0
4.052902 0.649940 0.001826 0.0
4.065994 1.719263 0.000579 0.0
3.607832 0.583594 0.001974 0.0
0.719503 0.030442 0.004224 0.0
2.784193 1.809671 0.003586 0.0
3.818326 0.827498 -0.001473 0.0
1.740146 0.828939 0.001041 0.0
2.302848 1.163983 -0.000840 0.0
3.393713 1.783708 -0.003262 0.0
1.096831 1.355333 0.001690 0.0
1.005278 0.687484 0.001242 0.0
2.981413 0.745625 0.000143 0.0
1.496583 1.834862 -0.000785 0.0
0.577325 0.522102 -0.001437 0.0
1.044740 1.204121 -0.000280 0.0
0.098837 1.365794 0.002186 0.0
3.280950 1.524784 0.002758 0.0
4.130836 0.214088 0.001412 0.0
4.309906 0.981896 -0.004096 0.0
4.079878 1.172910 0.002448 0.0
4.064865 0.791560 -0.000909 0.0
4.729976 1.773606 -0.001373 0.0
2.040307 0.966671 -0.000011 0.0
2.066744 0.178288 -0.000097 0.0
0.080849 0.138958 -0.004434 0.0
1.947998 1.754322 0.001148 0.0
0.703109 0.072849 -0.001767 0.0
0.599708 1.201258 0.001564 0.0
1.844608 0.229237 -0.003582 0.0
2.386254 1.589764 0.001341 0.0
0.929673 1.222602 0.000566 0.0
2.542757 0.031134 -0.005128 0.0
0.384010 0.125397 -0.000124 0.0
4.318661 1.321510 0.002761 0.0
3.775814 1.086886 -0.000748 0.0
3.943574 1.571721 0.004134 0.0
4.212664 0.459487 0.001494 0.0
3.701781 0.779104 0.002072 0.0
2.848422 0.885209 -0.002191 0.0
3.539968 0.737546 -0.001139 0.0
3.756811 1.681239 0.002473 0.0
0.627242 0.492731 0.004275 0.0
3.088802 0.718502 -0.003109 0.0
3.508169 1.778653 -0.002924 0.0
1.285410 0.272528 -0.001834 0.0
2.414611 0.419612 -0.002361 0.0
3.874143 1.645474 0.000162 0.0
0.502006 0.271330 -0.000440 0.0
4.398394 1.393584 -0.001560 0.0
3.582147 0.378212 -0.001271 0.0
0.121591 1.318095 -0.000415 0.0
4.438160 0.757520 -0.003382 0.0
4.249708 0.745489 0.002122 0.0
2.902596 1.332956 0.000626 0.0
0.392141 0.275646 0.002275 0.0
4.299620 0.439393 0.003291 0.0
2.160770 1.562690 0.000821 0.0
1.510410 0.348832 0.000317 0.0
0.147830 0.983592 -0.005126 0.0
4.173347 0.743881 -0.000905 0.0
3.342427 1.239615 0.003375 0.0
1.894199 0.914319 0.001529 0.0
1.347669 1.009176 -0.001123 0.0
1.089933 0.741394 -0.001548 0.0
2.881948 1.603015 -0.002744 0.0
3.344763 0.527100 0.000196 0.0
0.603909 0.045469 0.002513 0.0
4.593449 0.001576 0.001784 0.0
0.535342 1.141140 -0.003594 0.0
0.960372 1.746332 -0.001877 0.0
3.999498 0.578662 0.000840 0.0
3.353627 0.216466 0.001637 0.0
3.605872 0.379721 0.002918 0.0
0.976313 1.021798 -0.005000 0.0
2.808970 0.754341 0.001825 0.0
3.916034 0.317584 -0.000486 0.0
0.577192 0.289289 -0.000087 0.0
3.471228 0.251089 0.001933 0.0
2.035830 0.424329 0.000993 0.0
3.107350 0.743137 0.001090 0.0
2.651646 0.359022 -0.001067 0.0
3.953378 0.360126 -0.000855 0.0
4.726547 1.406621 0.007599 0.0
0.656185 1.263191 -0.002474 0.0
4.116693 1.471775 -0.002199 0.0
3.560777 1.588097 0.002156 0.0
1.884169 1.340440 0.002637 0.0
1.054735 1.531108 0.000235 0.0
2.594380 0.104467 -0.002319 0.0
2.989359 0.155528 -0.002974 0.0
3.736474 0.095685 0.003045 0.0
3.337134 0.296177 0.002491 0.0
1.804993 0.320678 0.001457 0.0
1.494487 1.562591 -0.002250 0.0
0.891107 0.747184 -0.000792 0.0
3.138726 0.477733 -0.004258 0.0
0.305811 1.234239 0.001655 0.0
2.955497 1.166674 -0.002828 0.0
3.044059 0.628752 0.000056 0.0
1.979715 0.079741 0.000860 0.0
3.917538 0.407210 -0.001327 0.0
1.480726 0.873210 -0.002466 0.0
1.211816 1.638772 -0.000882 0.0
4.709957 1.170613 -0.004701 0.0
0.756899 0.446198 -0.004410 0.0
0.790444 0.488467 0.000085 0.0
2.859714 0.986914 0.008150 0.0
3.978938 0.546232 0.001791 0.0
1.513504 0.149277 0.001263 0.0
4.731314 0.939058 0.002346 0.0
0.700585 0.394272 0.000071 0.0
3.860304 0.111057 -0.003188 0.0
4.273218 1.606546 -0.002760 0.0
1.710416 0.674336 -0.002618 0.0
3.722641 0.351498 0.003179 0.0
1.712325 1.185286 0.000812 0.0
1.698946 1.807088 -0.003754 0.0
1.591555 1.194531 -0.001372 0.0
4.091233 0.707287 -0.000282 0.0
1.804937 1.393302 -0.002582 0.0
2.037139 0.330673 0.001814 0.0
3.781008 0.321729 -0.002136 0.0
2.605709 0.937739 -0.000958 0.0
3.746633 0.502413 0.000459 0.0
2.767900 0.292655 -0.002201 0.0
2.375122 0.295762 -0.001657 0.0
0.439262 1.723194 -0.000483 0.0
2.036797 1.296163 0.002721 0.0
4.569956 0.239146 -0.001859 0.0
0.848955 0.156010 0.001600 0.0
0.986625 1.801054 -0.001248 0.0
4.550449 0.063797 -0.003960 0.0
0.297923 0.239709 -0.000307 0.0
3.446576 0.876052 0.001105 0.0
2.756811 1.861767 0.000544 0.0
2.500904 1.550365 -0.003060 0.0
0.832730 0.887333 -0.002559 0.0
4.695904 1.497056 -0.000481 0.0
0.871600 0.144914 0.001049 0.0
3.562143 1.339839 -0.000707 0.0
2.094797 1.836656 0.002008 0.0
3.372266 0.525879 -0.005937 0.0
3.624274 0.636719 -0.003501 0.0
1.009777 1.714066 0.002535 0.0
4.394249 0.967198 -0.002425 0.0
3.702177 0.614829 0.002673 0.0
4.753824 1.722585 -0.003218 0.0
1.837789 0.923548 0.001126 0.0
2.076174 0.419379 -0.001887 0.0
0.517194 1.711279 0.001848 0.0
2.353073 0.243158 -0.002506 0.0
3.165911 0.280245 0.000152 0.0
3.083326 0.206254 -0.000942 0.0
3.736215 0.622396 0.000327 0.0
4.291857 0.346325 -0.001348 0.0
1.850116 0.867381 -0.005453 0.0
0.374171 0.864179 0.000762 0.0
4.067211 0.828046 0.003570 0.0
2.378375 1.488703 -0.001619 0.0
4.233954 1.869283 -0.000461 0.0
0.958939 1.690114 0.005510 0.0
1.201267 1.053714 -0.006253 0.0
0.967881 0.043646 -0.000690 0.0
2.460406 1.858036 0.000787 0.0
1.295543 0.956725 -0.001290 0.0
4.423229 0.199721 -0.000369 0.0
