1.177829 0.502258 0.004781 0.0
2.216236 1.271479 -0.001513 0.0
1.322470 1.824849 -0.000204 0.0
2.563767 0.893317 0.001181 0.0
1.970385 0.048822 0.002203 0.0
0.366620 0.304551 -0.004124 0.0
2.563525 0.007212 -0.005580 0.0
3.460598 1.565431 0.001338 0.0
2.887942 1.045530 0.002593 0.0
1.479910 0.650965 0.002473 0.0
2.780356 0.298708 -0.001795 0.0
0.413927 1.943410 -0.000131 0.0
2.065784 0.107315 -0.002398 0.0
2.582875 0.203571 0.003328 0.0
3.191086 1.628940 0.004252 0.0
0.823769 0.049768 -0.002780 0.0
2.212703 1.039337 0.000269 0.0
3.433393 1.042617 0.001414 0.0
2.705522 0.373573 0.002020 0.0
2.656412 1.125556 0.002640 0.0
3.525353 0.622787 -0.000056 0.0
0.059959 0.747183 -0.001047 0.0
0.753877 0.520126 0.000379 0.0
0.276840 1.970835 0.000351 0.0
1.118505 0.100373 -0.001414 0.0
4.087686 0.942648 -0.001097 0.0
0.575634 1.181440 -0.000975 0.0
2.786253 1.060467 -0.006278 0.0
2.237165 0.821594 0.001323 0.0
0.723881 1.815289 -0.000859 0.0
3.457474 1.240759 0.003000 0.0
0.630077 0.738886 0.001902 0.0
3.334180 0.620276 0.000760 0.0
2.844128 1.402601 -0.001802 0.0
0.647471 1.234439 -0.000346 0.0
0.643534 0.213129 0.000435 0.0
2.487376 0.648618 0.000799 0.0
3.636622 1.769595 0.000821 0.0
1.090263 1.752624 -0.000720 0.0
0.536144 0.503293 0.001071 0.0
1.470108 1.965340 -0.000007 0.0
1.799325 0.784345 -0.002468 0.0
1.443753 1.344576 0.001802 0.0
4.296551 1.360254 0.001843 0.0
2.529928 1.868114 0.000702 0.0
1.604980 0.937331 0.000252 0.0
0.561423 1.389620 -0.003507 0.0
0.230824 1.024546 0.000412 0.0
3.557465 1.426572 0.002897 0.0
4.305631 1.272428 0.002429 0.0
3.502871 1.277243 0.001982 0.0
2.914738 1.671612 -0.000155 0.0
3.262919 1.990397 -0.002328 0.0
1.331162 0.429169 0.000993 0.0
1.253876 1.887209 0.000353 0.0
1.882377 1.620207 0.000946 0.0
3.636972 0.304113 -0.003904 0.0
0.030756 0.893048 -0.002298 0.0
2.874124 1.487849 0.000179 0.0
1.614133 0.070162 0.000264 0.0
0.299670 0.894382 -0.000435 0.0
3.939038 0.313387 -0.000152 0.0
3.098750 0.228217 -0.005256 0.0
0.881785 1.476981 0.004395 0.0
0.790046 0.346532 -0.000927 0.0
2.366660 0.066823 -0.001171 0.0
0.478343 0.366098 -0.000273 0.0
1.074922 0.159875 -0.004954 0.0
3.372638 1.586989 0.005246 0.0
3.086166 1.509544 -0.003255 0.0
1.736601 0.580522 0.002102 0.0
3.524860 1.962429 -0.001053 0.0
2.916562 1.515770 -0.001671 0.0
0.500495 1.135530 0.001611 0.0
0.938486 1.991976 -0.004678 0.0
2.741183 1.828681 0.002385 0.0
2.364445 1.618989 -0.000027 0.0
1.913902 0.779488 0.000418 0.0
3.319462 0.948963 -0.004068 0.0
3.928719 0.071467 -0.001168 0.0
2.158754 1.355763 -0.000083 0.0
1.355750 0.912460 -0.001375 0.0
0.215849 1.692180 0.002690 0.0
3.488143 0.841329 0.001645 0.0
0.047258 0.449026 0.001130 0.0
2.284968 1.244695 -0.000740 0.0
2.271412 1.282317 0.000301 0.0
3.265795 0.406247 0.003062 0.0
2.114890 0.239892 -0.000735 0.0
1.590512 1.948071 -0.002358 0.0
4.114477 1.549532 -0.004834 0.0
1.117204 0.412999 -0.003133 0.0
2.129523 0.850027 -0.000113 0.0
0.992343 0.545228 -0.000350 0.0
0.930187 0.720963 0.006579 0.0
0.556054 1.666001 0.001011 0.0
2.894934 1.270857 -0.000698 0.0
3.912949 0.939015 -0.003363 0.0
3.247551 1.247695 -0.000703 0.0
1.336396 1.574490 -0.003664 0.0
0.034479 0.026589 -0.000789 0.0
1.666296 0.878133 -0.000859 0.0
2.860321 0.154470 0.002445 0.0
1.226938 0.715363 0.004521 0.0
4.032096 0.716887 -0.000114 0.0
1.031668 1.373298 -0.000542 0.0
1.977251 0.148525 -0.003821 0.0
4.272613 1.368050 -0.000026 0.0
0.606481 0.174483 -0.000556 0.0
3.906231 1.586370 -0.001194 0.0
2.919368 0.808576 0.000172 0.0
0.021562 0.031525 0.002458 0.0
2.964314 1.302649 0.003616 0.0
3.790982 0.135354 0.002937 0.0
1.085719 1.461490 -0.000524 0.0
0.131770 0.050051 -0.001591 0.0
4.217905 1.031122 -0.002725 0.0
2.408459 1.697181 0.000095 0.0
1.886906 0.990661 0.000747 0.0
3.767206 0.793969 -0.000903 0.0
2.593471 1.546160 0.004158 0.0
4.304350 1.030661 -0.000171 0.0
0.570610 1.526493 -0.000590 0.0
1.801010 1.875004 -0.000648 0.0
1.344007 0.061074 -0.005672 0.0
1.347357 1.923119 -0.001333 0.0
3.100338 1.020054 -0.000029 0.0
2.458043 0.714457 0.004947 0.0
2.497208 0.095546 -0.002175 0.0
2.451879 1.289371 -0.002867 0.0
1.625978 0.065559 0.000975 0.0
3.439387 0.771277 0.001874 0.0
0.146892 0.444367 0.003294 0.0
4.061797 1.197220 -0.000133 0.0
2.772117 1.978957 -0.001937 0.0
3.247927 1.807899 0.005063 0.0
1.351686 0.582050 0.005652 0.0
0.744938 0.838805 -0.001300 0.0
0.969688 0.597320 0.002778 0.0
3.661099 1.548491 -0.001906 0.0
3.213198 1.854865 0.002676 0.0
2.893235 1.744542 -0.001260 0.0
2.510577 1.356862 0.000649 0.0
1.736984 0.019135 0.003133 0.0
1.006834 0.840413 -0.001236 0.0
3.735667 1.155377 -0.002146 0.0
2.446419 1.693736 0.000541 0.0
1.277117 1.325263 -0.003449 0.0
2.456520 0.746762 0.001966 0.0
1.170422 1.884874 -0.000336 0.0
3.228453 1.316400 0.002062 0.0
0.062432 1.788819 0.003070 0.0
2.144142 1.150265 0.001720 0.0
0.814212 1.155072 -0.001074 0.0
1.487852 0.288932 -0.000209 0.0
2.919109 0.565812 0.000997 0.0
4.217193 0.119607 0.001586 0.0
4.024738 0.899202 -0.000485 0.0
1.373916 1.740730 -0.002485 0.0
0.975307 1.245966 0.002995 0.0
3.853630 1.227792 0.000435 0.0
4.147838 0.813984 -0.002344 0.0
0.159423 1.562284 -0.004200 0.0
1.636900 1.340278 0.001293 0.0
2.919477 1.624091 -0.000157 0.0
2.164716 1.890626 -0.006134 0.0
2.325030 1.783309 0.005144 0.0
4.153804 0.101412 -0.000408 0.0
0.774174 1.096721 0.004308 0.0
4.279984 1.868177 0.002371 0.0
3.431553 1.639889 0.001924 0.0
1.255410 0.254822 -0.001881 0.0
0.221511 1.427422 -0.005396 0.0
0.403309 1.635106 -0.000640 0.0
0.344861 1.126633 0.000309 0.0
1.776633 0.136411 -0.000118 0.0
2.422713 0.707238 0.001238 0.0
1.008463 1.359784 -0.004159 0.0
0.943594 1.211816 -0.003498 0.0
0.879130 0.765998 0.002587 0.0
1.576264 1.122984 0.002278 0.0
2.714426 1.883739 0.000772 0.0
2.046358 1.779629 -0.002154 0.0
2.876286 1.088496 0.002526 0.0
3.209320 1.414133 0.001734 0.0
3.859695 0.040666 -0.000315 0.0
0.498488 1.805604 0.001748 0.0
3.937176 1.337761 -0.000109 0.0
2.526725 1.004654 0.000037 0.0
0.577694 1.055185 0.002779 0.0
0.080042 0.470761 -0.000254 0.0
2.944884 0.351131 -0.003003 0.0
0.802375 0.626601 0.001575 0.0
1.264450 1.957185 -0.001274 0.0
1.700271 0.731955 -0.003835 0.0
0.768046 0.617818 -0.000210 0.0
3.939899 1.096124 -0.000127 0.0
1.884219 0.333073 0.001453 0.0
4.277752 1.884990 0.001931 0.0
0.589426 1.494410 -0.004752 0.0
2.345418 0.119805 -0.001351 0.0
2.988508 1.826884 0.005183 0.0
2.064721 -0.000446 0.001097 0.0
2.479293 0.812829 -0.004084 0.0
1.477885 1.295841 0.000411 0.0
2.410939 0.170041 -0.004261 0.0
0.596320 0.353904 -0.000497 0.0
1.277950 1.130411 0.000913 0.0
1.431897 0.483850 0.000239 0.0
3.727792 0.942483 -0.003952 0.0
1.152450 1.290660 0.002489 0.0
3.742073 1.570368 0.004006 0.0
3.895861 0.821549 0.000282 0.0
0.281511 0.844025 -0.000279 0.0
1.114776 1.361468 -0.001434 0.0
0.164184 1.633164 -0.002701 0.0
0.531289 1.521357 0.001460 0.0
2.645645 0.090647 0.002037 0.0
2.184851 1.867439 0.001308 0.0
2.020678 0.892873 -0.002861 0.0
2.642376 1.862503 -0.001001 0.0
0.455566 1.568116 0.004702 0.0
2.193100 0.003384 0.000079 0.0
3.745256 0.416258 -0.004169 0.0
0.836975 0.636456 -0.002175 0.0
0.228545 1.324012 0.000314 0.0
2.270388 0.493152 0.001283 0.0
0.413704 1.946087 0.003420 0.0
4.206330 1.130523 -0.001801 0.0
3.118284 1.168708 0.000503 0.0
1.965407 1.953362 0.000561 0.0
3.012962 0.701159 -0.001116 0.0
4.087742 0.561195 0.000412 0.0
1.531790 0.814670 -0.001868 0.0
3.914578 0.084132 -0.000514 0.0
2.319530 0.569246 0.000124 0.0
2.060831 0.174572 -0.002552 0.0
2.166572 0.810411 0.002095 0.0
1.823107 0.472799 0.001631 0.0
3.069083 0.995226 0.002538 0.0
4.261231 1.312705 0.000642 0.0
2.880377 1.538503 -0.001939 0.0
0.111168 1.137849 -0.001161 0.0
1.255449 0.228741 0.001573 0.0
3.578639 1.693978 -0.004166 0.0
2.027066 1.444943 -0.000070 0.0
2.907017 1.257819 0.000317 0.0
2.899241 1.000017 -0.000847 0.0
2.447532 1.971077 -0.001121 0.0
1.216073 0.374385 0.000117 0.0
0.810949 0.458340 0.002524 0.0
0.882394 0.190244 0.003217 0.0
1.306059 0.816054 -0.001738 0.0
3.321577 0.478303 -0.001997 0.0
2.535742 0.792217 -0.003132 0.0
1.755330 0.409477 0.001835 0.0
1.302999 1.423629 -0.000903 0.0
2.888569 1.520289 -0.003905 0.0
3.946282 1.952106 -0.002490 0.0
0.583125 0.752898 -0.000494 0.0
0.711374 0.976555 -0.003308 0.0
0.631488 0.389058 0.001781 0.0
1.220958 1.071565 0.002315 0.0
0.927695 1.387164 0.000540 0.0
4.222890 1.891953 -0.000394 0.0
3.685732 0.590616 -0.002285 0.0
2.367812 2.005740 -0.000807 0.0
1.457060 1.844236 -0.003092 0.0
1.483228 0.340254 0.000232 0.0
1.616539 0.668015 0.002771 0.0
0.244135 1.238932 0.001599 0.0
2.124129 1.555467 -0.003488 0.0
0.790783 0.916002 0.002580 0.0
3.188846 0.774970 0.000814 0.0
2.211744 1.943891 -0.002526 0.0
4.291705 0.211411 -0.001352 0.0
3.620734 1.026835 0.001178 0.0
1.891156 1.523516 0.003346 0.0
3.199235 0.244742 -0.000525 0.0
1.860660 0.762622 -0.000475 0.0
2.140678 0.843333 0.003579 0.0
2.749491 0.695274 0.003343 0.0
3.153084 1.147869 -0.003423 0.0
2.432309 1.118678 0.006695 0.0
2.443123 0.374371 -0.001146 0.0
2.559525 1.778312 0.002714 0.0
3.879506 0.444984 0.001187 0.0
0.569533 0.048684 0.000595 0.0
2.298387 0.928904 0.001131 0.0
3.200913 0.615203 0.001492 0.0
1.603410 0.909012 0.001245 0.0
1.380821 0.468935 0.000082 0.0
3.902197 1.413280 0.000466 0.0
3.869553 0.984571 0.001641 0.0
3.058508 1.075112 -0.001778 0.0
2.446420 0.794692 0.000040 0.0
2.265048 0.682840 -0.006993 0.0
0.876962 0.492738 -0.000463 0.0
4.273912 1.753650 -0.004198 0.0
3.332997 0.440274 -0.000473 0.0
2.836120 0.433855 -0.000219 0.0
1.989902 1.450561 0.003929 0.0
0.433972 0.206586 -0.001686 0.0
0.113910 0.940403 -0.000866 0.0
3.006201 1.998080 -0.002627 0.0
0.097913 0.946503 0.000447 0.0
2.267399 1.286833 -0.001539 0.0
2.055361 1.338573 -0.000076 0.0
3.622849 0.524142 -0.000702 0.0
3.717544 1.490131 0.003660 0.0
0.889173 0.233016 -0.000735 0.0
4.103826 1.293300 0.003014 0.0
0.155420 1.305486 0.004769 0.0
1.142662 1.701083 -0.000448 0.0
1.644996 1.180969 -0.004551 0.0
0.069847 1.764003 0.005021 0.0
2.063657 0.445242 -0.002055 0.0
1.755448 0.033058 -0.000817 0.0
1.251652 1.588165 -0.001613 0.0
4.256420 1.778124 -0.001379 0.0
1.720303 1.664008 -0.002462 0.0
1.660809 1.528264 0.001203 0.0
1.094451 0.834603 -0.003079 0.0
0.097488 0.356105 0.001709 0.0
3.940777 0.291227 -0.000568 0.0
2.053888 1.645188 -0.000743 0.0
0.418948 0.066445 -0.001765 0.0
2.716187 0.414306 0.003934 0.0
1.617664 0.741757 -0.003445 0.0
1.075450 1.382553 0.000532 0.0
2.468241 1.874986 -0.004558 0.0
1.426718 0.559865 -0.003014 0.0
2.768509 1.678240 -0.004430 0.0
1.166546 1.838976 -0.004887 0.0
1.771557 0.334514 0.000537 0.0
1.410852 1.357893 0.003291 0.0
3.089952 0.847693 -0.001016 0.0
1.591887 1.589715 -0.001288 0.0
1.745931 1.498322 -0.000252 0.0
3.466068 1.942772 0.003751 0.0
2.999728 0.826936 0.002936 0.0
3.488997 0.143166 -0.000630 0.0
1.135053 0.667974 -0.001162 0.0
1.283758 0.753620 0.001355 0.0
0.398511 0.772646 -0.000440 0.0
1.241944 1.434792 -0.002465 0.0
2.162321 0.238320 0.000368 0.0
3.968523 0.813790 -0.003338 0.0
1.348332 1.564604 -0.000490 0.0
2.217847 1.891202 -0.002243 0.0
0.438787 0.625453 -0.002138 0.0
3.920179 1.397163 -0.001000 0.0
3.075687 0.806296 0.000994 0.0
2.053814 0.684236 0.002614 0.0
2.734251 0.755974 0.001964 0.0
4.264919 1.622280 -0.000387 0.0
0.465674 0.418365 -0.001026 0.0
2.537636 1.966284 0.004252 0.0
3.253293 1.604491 0.001553 0.0
2.745297 1.869520 0.001200 0.0
1.959578 0.289008 -0.002126 0.0
3.776893 1.388439 0.001310 0.0
3.719958 1.556936 -0.005170 0.0
4.058265 1.604473 -0.001466 0.0
2.910366 0.832972 0.001482 0.0
1.505049 2.002788 0.002827 0.0
3.114759 1.744707 -0.001924 0.0
0.767595 0.599343 0.002860 0.0
1.448850 1.728247 -0.000720 0.0
0.575015 1.799093 -0.000913 0.0
3.136977 0.215382 -0.001816 0.0
3.893856 1.083109 -0.000147 0.0
0.755957 0.040387 -0.001797 0.0
0.444469 1.470816 -0.001689 0.0
3.531582 1.881060 -0.002735 0.0
0.133745 1.553550 -0.003607 0.0
1.639201 1.374864 -0.000046 0.0
2.586446 0.645632 0.000410 0.0
2.750465 1.697123 0.001354 0.0
1.814887 1.013781 0.000865 0.0
2.845579 0.223309 -0.002540 0.0
1.018701 1.279018 0.000968 0.0
1.031806 0.817252 0.000923 0.0
1.225337 1.122462 0.000622 0.0
0.599398 1.505857 0.003759 0.0
1.262795 1.554695 0.000676 0.0
4.296373 0.113274 -0.002701 0.0
2.846929 1.240850 -0.002195 0.0
2.880459 0.689681 -0.001841 0.0
1.379477 1.304776 0.001497 0.0
1.454427 1.089349 -0.000131 0.0
0.591872 1.988344 0.001962 0.0
0.603827 0.621944 -0.002696 0.0
3.539924 1.302842 -0.000186 0.0
2.388179 0.612982 -0.003142 0.0
2.954213 0.752004 0.000953 0.0
0.491464 0.938383 -0.001276 0.0
1.707510 1.186136 -0.001090 0.0
4.032966 0.760583 0.001332 0.0
3.030767 1.053675 0.002648 0.0
1.014117 0.141761 0.002974 0.0
2.408245 1.488038 -0.001752 0.0
1.246977 0.016030 -0.001508 0.0
1.120084 0.287939 -0.002591 0.0
3.995462 0.150939 0.001073 0.0
2.381482 0.464630 -0.000882 0.0
3.325445 0.193190 0.000086 0.0
3.333082 1.234296 0.002629 0.0
1.599474 0.272950 0.002367 0.0
1.765077 0.797850 -0.002458 0.0
0.593822 1.795296 -0.000056 0.0
3.246184 0.942555 0.003282 0.0
3.350333 1.269830 0.001272 0.0
1.999529 0.679036 0.002510 0.0
1.165227 0.768951 -0.001706 0.0
2.826362 0.645821 0.001281 0.0
0.696212 1.503823 0.000266 0.0
2.321861 1.671805 -0.001067 0.0
1.547247 0.993629 -0.002138 0.0
3.218802 1.200590 0.001219 0.0
4.240992 1.451334 -0.001099 0.0
3.467720 0.538546 0.001592 0.0
0.585987 0.808231 -0.003119 0.0
3.348911 0.295158 -0.004069 0.0
1.398250 1.608490 -0.001908 0.0
4.054491 0.732475 0.002664 0.0
3.298165 0.412835 0.003857 0.0
0.715303 1.174299 0.001007 0.0
1.707758 1.041843 -0.000333 0.0
1.692289 0.047103 -0.003872 0.0
2.091356 1.855978 0.002494 0.0
1.718638 0.456462 -0.004928 0.0
0.978627 0.224759 -0.000178 0.0
0.751350 1.404225 -0.006487 0.0
1.869178 0.133366 0.001041 0.0
0.724153 1.454732 0.004237 0.0
3.622193 0.681914 0.003069 0.0
1.279151 0.769644 0.001366 0.0
3.873857 1.531825 0.002121 0.0
2.640196 1.774146 0.001538 0.0
3.874364 1.993189 0.003156 0.0
1.821116 0.273479 0.001174 0.0
1.350505 1.779347 0.000581 0.0
2.554936 1.804798 0.002299 0.0
2.674915 0.405792 -0.000996 0.0
4.076472 1.781943 -0.000623 0.0
2.646803 0.803171 0.002715 0.0
2.129334 1.480196 0.003167 0.0
1.997939 0.071700 0.000328 0.0
1.136457 1.978696 0.004051 0.0
3.021228 0.101368 -0.001881 0.0
3.758640 1.722009 0.000532 0.0
1.789269 0.733671 -0.001524 0.0
1.328289 1.598922 -0.001837 0.0
0.255625 0.804577 0.003204 0.0
2.843720 1.059391 0.001184 0.0
0.240452 1.507648 -0.003163 0.0
1.627836 0.930207 0.000066 0.0
3.043173 0.281545 0.000515 0.0
1.729159 1.135742 -0.000413 0.0
0.707075 0.162996 -0.002362 0.0
0.129933 1.163130 -0.002978 0.0
1.134391 1.679370 0.001568 0.0
2.886517 0.689651 0.000950 0.0
3.650554 1.966469 -0.000179 0.0
1.506447 1.075682 0.001102 0.0
2.236068 1.145372 -0.001163 0.0
3.319410 0.030546 0.001669 0.0
3.568169 0.175767 0.003100 0.0
0.066712 0.009529 -0.001104 0.0
1.808424 1.402739 0.001579 0.0
3.597150 1.018249 0.002626 0.0
3.128066 0.231016 -0.007739 0.0
3.900572 1.424163 0.000166 0.0
2.941990 1.788802 -0.004835 0.0
3.179932 0.806250 -0.001720 0.0
1.123754 1.519200 0.000546 0.0
3.617475 1.797812 -0.004651 0.0
0.642365 1.984280 0.002651 0.0
4.026766 1.233560 0.000005 0.0
2.193859 1.520404 0.001063 0.0
0.542442 0.881688 0.000749 0.0
2.114324 1.278475 0.005290 0.0
0.119692 1.885123 0.003498 0.0
2.838948 0.155803 -0.002747 0.0
1.542689 1.605490 -0.001587 0.0
2.956826 1.041508 -0.001207 0.0
1.175242 0.111912 0.003916 0.0
3.155530 1.700620 -0.000478 0.0
1.964367 1.441384 -0.000830 0.0
3.418434 1.329667 -0.002033 0.0
4.186532 0.665930 -0.001628 0.0
3.695572 1.520172 -0.001073 0.0
3.453938 0.474225 0.002591 0.0
4.067085 1.701161 0.003269 0.0
1.367606 0.537772 0.001416 0.0
1.894513 0.788087 0.000204 0.0
2.770474 1.851740 -0.003084 0.0
3.765141 1.159830 0.001349 0.0
3.422125 1.584289 0.002356 0.0
0.358507 0.594710 0.000704 0.0
0.174482 1.092071 -0.000344 0.0
2.791842 1.942086 0.000254 0.0
2.031103 1.350740 0.001343 0.0
0.354021 0.904242 0.000180 0.0
0.553395 1.831108 -0.000092 0.0
2.978152 1.110593 -0.001291 0.0
2.410802 1.610923 -0.000241 0.0
2.208860 0.812440 -0.001292 0.0
0.518688 1.058119 0.004094 0.0
2.256347 0.106472 -0.004176 0.0
3.750006 0.707725 -0.000407 0.0
3.501335 0.240713 0.000038 0.0
2.828294 0.542959 0.001303 0.0
0.223458 1.662814 0.000734 0.0
1.929118 1.920671 -0.002407 0.0
3.181028 0.115952 -0.005136 0.0
2.991545 0.246408 -0.000374 0.0
2.563337 1.104738 -0.003136 0.0
0.230641 1.452598 -0.001783 0.0
0.212846 1.191083 -0.006187 0.0
3.829075 0.988912 0.005936 0.0
4.209741 0.300466 -0.001314 0.0
1.894429 0.704477 0.000902 0.0
1.963745 1.835357 0.000449 0.0
2.440963 1.654706 -0.003713 0.0
0.130424 1.702966 0.002371 0.0
0.568756 1.492452 -0.001639 0.0
0.927037 0.026006 -0.000325 0.0
4.294631 0.275140 -0.000499 0.0
0.742482 1.360548 -0.000804 0.0
3.178575 0.757267 0.000091 0.0
2.381683 1.643565 0.002626 0.0
1.857169 1.083588 -0.004027 0.0
1.773926 1.042911 0.005672 0.0
3.894270 1.173185 -0.001400 0.0
0.113551 0.570219 0.000923 0.0
4.174683 0.029677 0.001981 0.0
0.208563 1.608258 0.000056 0.0
0.151132 0.385725 0.002811 0.0
0.970995 1.488909 -0.000636 0.0
2.155671 1.956576 -0.000012 0.0
0.956002 0.923970 0.005172 0.0
1.037319 1.057755 -0.008002 0.0
1.040621 1.487722 -0.001182 0.0
0.948966 1.293079 -0.000903 0.0
0.498648 1.752341 0.000280 0.0
1.916468 0.721535 0.000264 0.0
1.837562 1.779072 0.002741 0.0
4.019226 0.257831 0.000023 0.0
3.914480 0.130629 0.001266 0.0
0.423419 1.747079 -0.000842 0.0
1.922415 1.063222 -0.004900 0.0
3.411713 0.882089 0.002294 0.0
0.536143 0.253359 -0.001811 0.0
1.473023 0.501813 0.001213 0.0
0.417234 0.409725 0.002541 0.0
3.543343 1.696845 -0.004499 0.0
0.803821 1.817869 0.000398 0.0
4.305775 1.797550 -0.001554 0.0
3.171606 0.809720 0.003831 0.0
3.631931 1.643322 -0.001355 0.0
2.633044 1.163352 -0.000470 0.0
0.517718 0.356053 0.000865 0.0
1.716067 0.675812 0.003452 0.0
2.989325 1.170410 -0.002787 0.0
2.012291 0.538879 -0.001107 0.0
3.787635 1.731446 0.000415 0.0
1.987413 1.210777 0.000443 0.0
2.067340 1.245340 -0.000654 0.0
2.395872 1.485519 0.004660 0.0
2.092350 1.271576 -0.001966 0.0
0.353171 0.804848 0.001870 0.0
2.548890 0.551366 0.000012 0.0
3.834396 1.862452 -0.000322 0.0
3.693109 1.890018 -0.002181 0.0
1.093274 1.190666 -0.002289 0.0
3.988001 1.297648 -0.001512 0.0
0.942089 1.597568 0.000539 0.0
1.903011 1.963181 0.001458 0.0
1.339524 1.402447 0.004527 0.0
3.949896 1.842802 0.000873 0.0
0.646239 1.468401 0.001451 0.0
3.396123 1.130590 -0.003897 0.0
2.954279 1.557900 -0.001483 0.0
4.125160 1.670172 -0.002401 0.0
3.297476 1.074443 -0.002241 0.0
3.276670 1.421897 -0.003542 0.0
0.420034 1.342561 -0.000535 0.0
3.701729 0.220096 0.001620 0.0
4.235340 1.820092 0.001283 0.0
2.767860 1.040446 0.001306 0.0
2.554379 0.543593 -0.003858 0.0
1.336330 0.425144 0.002206 0.0
1.008445 0.504533 0.000146 0.0
3.458312 0.724273 -0.004648 0.0
3.510854 1.670997 0.003866 0.0
4.160740 1.486516 -0.001077 0.0
0.734599 1.080633 0.003593 0.0
4.186007 0.192320 0.005022 0.0
2.601779 1.621067 0.000193 0.0
0.360418 0.424212 -0.000990 0.0
2.699732 1.791656 0.000639 0.0
0.087793 1.471727 0.002856 0.0
3.344555 1.934270 -0.002128 0.0
0.730045 1.396194 0.006422 0.0
1.032073 0.173430 -0.005378 0.0
1.930839 1.869033 0.002448 0.0
3.021655 1.541187 0.001719 0.0
1.847499 1.285399 -0.003760 0.0
1.701709 1.710328 0.003285 0.0
1.152276 0.366996 0.002722 0.0
1.584178 1.557844 -0.004204 0.0
1.353748 0.707949 0.002585 0.0
0.212067 0.603172 -0.000397 0.0
1.234506 0.919100 -0.000512 0.0
1.202477 0.915391 -0.003696 0.0
3.785373 0.550840 0.002351 0.0
3.599585 0.778539 0.003409 0.0
3.366847 1.007214 -0.001645 0.0
3.024302 1.626719 -0.001066 0.0
2.239642 0.684481 0.001003 0.0
3.487433 0.897801 0.001766 0.0
4.217943 0.931956 0.001158 0.0
3.041656 0.644994 -0.002136 0.0
0.834006 0.197453 0.002604 0.0
0.499602 0.154462 0.002238 0.0
2.821548 1.738665 -0.003278 0.0
3.229329 0.610410 -0.003536 0.0
3.869993 1.751779 -0.001231 0.0
2.074089 1.461970 0.002227 0.0
0.563975 0.933007 0.000599 0.0
1.278465 0.532360 0.003476 0.0
2.668578 1.536594 0.002551 0.0
4.102694 1.884647 0.002202 0.0
1.390179 0.799651 0.003981 0.0
2.286941 1.352508 -0.001512 0.0
4.097109 1.618133 -0.002198 0.0
2.989858 1.562832 -0.002125 0.0
3.769683 1.268422 -0.004283 0.0
3.253871 1.278958 -0.002088 0.0
0.907483 0.164907 -0.004422 0.0
1.851699 0.419316 0.004644 0.0
2.965267 1.133745 0.002712 0.0
0.444232 1.881189 0.002058 0.0
1.150726 0.718820 -0.002244 0.0
0.609242 1.748736 0.000443 0.0
1.803963 0.179963 -0.000124 0.0
3.586586 0.159069 -0.001964 0.0
0.423822 1.854704 0.002069 0.0
2.636930 1.666837 0.000531 0.0
0.456551 0.566306 -0.002171 0.0
1.160795 1.201653 0.001921 0.0
3.489163 1.081770 0.000728 0.0
3.814739 1.194060 0.005310 0.0
3.734795 0.126229 -0.000603 0.0
2.031985 1.479050 0.001789 0.0
3.306204 1.588698 -0.001081 0.0
3.483199 1.384221 0.002228 0.0
0.143074 0.715697 -0.000683 0.0
3.388838 1.552671 0.001855 0.0
4.001332 1.068010 0.000900 0.0
2.276522 0.243113 0.002635 0.0
1.029572 0.392445 -0.002512 0.0
3.556341 1.666263 -0.001407 0.0
1.111383 0.273023 -0.001541 0.0
4.002638 0.941957 -0.001790 0.0
1.801753 0.427271 -0.000013 0.0
0.821618 0.227502 -0.001150 0.0
2.762503 0.436216 0.001265 0.0
2.773194 1.620807 0.003911 0.0
1.372659 1.475318 0.001785 0.0
2.615951 1.202754 -0.002279 0.0
1.952214 1.691449 -0.000336 0.0
0.056607 0.237789 -0.004503 0.0
1.927359 1.021608 -0.000663 0.0
2.089246 0.329459 -0.001044 0.0
2.778878 1.839616 -0.002416 0.0
4.300569 1.802450 0.000546 0.0
3.904235 1.777529 -0.003619 0.0
3.654453 0.882175 -0.002526 0.0
3.291617 1.428325 -0.001217 0.0
1.811747 1.810029 -0.001185 0.0
0.073816 0.754865 0.000281 0.0
4.089658 1.494454 -0.000030 0.0
4.164690 1.461920 0.002906 0.0
0.763608 0.600090 -0.000778 0.0
0.467970 0.476025 0.004817 0.0
1.936363 1.329913 -0.002266 0.0
2.834685 1.509922 0.001100 0.0
2.600172 0.623088 0.004970 0.0
0.767843 0.018933 0.003372 0.0
0.424634 1.748914 -0.002653 0.0
0.669265 0.929791 -0.006107 0.0
1.550712 0.320855 -0.002335 0.0
1.020737 1.217003 0.000696 0.0
3.913612 0.808454 -0.000715 0.0
3.317405 1.625460 0.000988 0.0
1.189547 0.341247 -0.000917 0.0
4.175830 0.622656 -0.001751 0.0
1.385863 1.681520 0.000424 0.0
2.125330 1.628502 -0.001275 0.0
3.873107 0.791070 0.000729 0.0
0.762717 1.534425 0.000952 0.0
1.635635 0.528970 -0.003111 0.0
3.276543 1.567979 0.000116 0.0
1.346166 0.366930 0.003346 0.0
1.220857 1.244583 -0.002255 0.0
2.737614 1.742434 0.000367 0.0
3.924198 1.511654 0.000941 0.0
1.896621 0.938426 0.000150 0.0
1.741924 1.956096 -0.003548 0.0
1.032557 1.615999 0.002926 0.0
0.358516 1.402928 -0.004340 0.0
2.847822 1.224950 -0.001609 0.0
2.776048 1.680669 0.001915 0.0
0.186594 1.544511 -0.001141 0.0
1.058764 1.342527 -0.003765 0.0
1.797961 1.991553 -0.002897 0.0
0.174163 1.546759 0.000886 0.0
0.740240 0.856281 0.005822 0.0
3.400397 0.367062 -0.002215 0.0
1.566602 1.631335 -0.001235 0.0
1.155233 1.982986 -0.000573 0.0
0.331771 1.029974 0.003164 0.0
2.334691 1.172254 0.003379 0.0
2.600605 1.251873 0.001346 0.0
3.362943 0.316105 -0.000398 0.0
1.071927 1.250041 0.000359 0.0
3.494773 1.783794 -0.000544 0.0
3.293541 1.143182 0.003658 0.0
3.083605 0.585807 0.001508 0.0
1.627651 0.116900 -0.001182 0.0
0.589053 1.208211 -0.002780 0.0
1.311895 0.351406 -0.000698 0.0
3.757839 1.230362 0.000281 0.0
1.694248 0.314950 -0.001659 0.0
0.455667 0.304352 0.002735 0.0
1.858466 1.479541 0.004971 0.0
1.298447 0.003471 -0.000128 0.0
1.478021 0.859056 -0.003586 0.0
3.092167 0.977599 0.003286 0.0
2.585081 1.273555 -0.000201 0.0
0.357704 0.724722 -0.002108 0.0
3.703628 1.041452 0.000168 0.0
2.995679 1.075310 -0.002956 0.0
0.610015 1.126714 0.001600 0.0
1.830320 0.389671 0.002007 0.0
2.509538 1.817588 -0.002029 0.0
2.993857 1.552623 0.004430 0.0
0.377861 1.829806 0.005112 0.0
0.088864 1.389693 0.000180 0.0
3.914619 1.214417 0.000091 0.0
3.327098 0.421706 0.000905 0.0
2.072058 0.743826 -0.001379 0.0
2.306482 1.542610 0.001791 0.0
0.285323 0.956370 0.003530 0.0
2.049929 0.747305 -0.000660 0.0
2.817650 0.135538 0.001964 0.0
1.019630 0.923646 0.001893 0.0
2.677270 0.715482 0.004327 0.0
1.154486 1.935241 0.002026 0.0
2.398302 0.417027 -0.000194 0.0
0.148823 0.137831 0.001921 0.0
0.436555 0.930599 -0.004056 0.0
2.383049 0.209287 0.002121 0.0
3.350224 0.567248 0.001197 0.0
0.866578 0.625440 -0.003020 0.0
0.231864 0.705255 -0.000388 0.0
1.753913 1.344159 -0.001322 0.0
2.855125 0.013852 -0.001485 0.0
2.252871 1.557206 0.003050 0.0
4.053725 0.741545 -0.000971 0.0
2.710734 0.317715 0.000977 0.0
0.970682 1.922469 -0.001114 0.0
0.398583 1.195080 0.001069 0.0
2.240305 1.054480 0.001850 0.0
1.743329 0.366618 0.001203 0.0
1.678243 0.528136 0.000940 0.0
0.681729 0.809521 -0.000863 0.0
2.623194 0.654728 -0.001724 0.0
1.571999 0.511131 -0.000475 0.0
2.657058 1.136953 -0.004704 0.0
3.020267 1.527535 -0.000864 0.0
0.262718 0.100461 0.002095 0.0
2.045119 0.766978 -0.001591 0.0
4.212903 0.202043 -0.000598 0.0
0.126138 0.011967 0.001665 0.0
0.795702 0.769153 -0.002530 0.0
0.032054 1.241641 -0.001464 0.0
3.798467 0.659899 -0.004068 0.0
4.275054 0.712502 -0.000701 0.0
2.898265 0.450882 0.000064 0.0
3.177354 1.115816 0.004741 0.0
2.717081 1.643087 -0.000070 0.0
3.821708 0.194905 -0.002055 0.0
2.009257 1.824924 -0.002316 0.0
4.162583 0.551572 0.006421 0.0
3.668148 0.543372 0.000575 0.0
0.296974 1.690368 -0.000145 0.0
1.233835 0.654958 -0.000740 0.0
2.325880 0.514501 -0.003077 0.0
0.893643 0.807605 0.005376 0.0
2.117724 1.108210 -0.003930 0.0
2.322446 0.270288 -0.001721 0.0
3.159161 1.003883 0.000973 0.0
3.957419 1.819669 0.002122 0.0
3.812109 0.318693 0.001333 0.0
1.953837 1.006695 -0.002440 0.0
1.643140 1.790460 0.000785 0.0
0.863609 0.424360 0.001514 0.0
3.442824 1.202804 -0.001270 0.0
2.564585 1.039226 -0.000367 0.0
1.833397 0.042426 0.001101 0.0
2.160361 0.207461 0.000431 0.0
3.892266 0.494896 -0.006715 0.0
2.353108 1.621514 0.001193 0.0
3.227535 1.132722 0.002157 0.0
1.632666 0.438508 -0.007511 0.0
3.807453 0.791919 0.000787 0.0
2.674047 1.159188 -0.000845 0.0
3.087919 1.551739 -0.004313 0.0
0.701019 0.885332 0.003031 0.0
1.443067 0.492779 0.004950 0.0
3.025776 0.533751 -0.001312 0.0
0.455669 1.077299 0.002472 0.0
0.314585 2.017930 0.001220 0.0
1.625386 0.007824 -0.001478 0.0
0.002251 1.809856 -0.001654 0.0
3.225684 0.836269 0.002573 0.0
1.865369 0.180734 -0.002537 0.0
3.732189 0.057759 0.001883 0.0
3.990644 1.801074 0.001528 0.0
2.190789 0.045869 0.000898 0.0
3.136632 0.842269 0.003335 0.0
1.262973 1.967984 0.002835 0.0
2.006240 1.003304 -0.001386 0.0
1.513486 1.642189 -0.002775 0.0
2.969055 1.584702 -0.003108 0.0
2.043904 1.387834 -0.000761 0.0
1.872810 1.819568 -0.003841 0.0
4.004921 1.021279 0.002003 0.0
0.242444 1.203025 0.000908 0.0
1.037297 0.030833 0.000692 0.0
3.860514 1.051043 0.002914 0.0
3.083086 1.954215 -0.001357 0.0
1.173501 1.759463 -0.000311 0.0
0.833017 0.244767 -0.002688 0.0
3.555007 0.848919 -0.001771 0.0
1.102034 0.700878 0.000479 0.0
3.483328 1.569901 0.000708 0.0
0.028264 1.687518 -0.003196 0.0
4.257373 0.255451 -0.002345 0.0
1.201934 1.533368 0.000890 0.0
3.516669 1.437762 0.003090 0.0
3.811822 1.967761 -0.000674 0.0
4.130183 0.011974 0.002889 0.0
2.842647 0.829970 -0.002287 0.0
3.757065 0.146113 0.001426 0.0
0.501007 0.154677 -0.003049 0.0
3.440958 1.363878 -0.003114 0.0
3.691220 0.827704 -0.001907 0.0
3.959513 1.688361 0.000535 0.0
0.699716 0.167566 -0.004477 0.0
4.253952 1.059342 -0.003092 0.0
3.813610 0.036370 -0.004438 0.0
2.518217 1.643081 -0.000196 0.0
0.809118 1.011193 0.000716 0.0
4.231952 1.313076 0.002860 0.0
2.260504 1.953984 0.001879 0.0
2.474029 1.398278 0.001699 0.0
1.803188 0.502233 0.003675 0.0
1.324916 0.818712 0.001212 0.0
3.454317 1.017157 -0.001127 0.0
0.442324 1.563140 0.005007 0.0
1.029488 0.348935 -0.001517 0.0
1.153540 0.774037 0.001915 0.0
2.077042 0.235674 0.000437 0.0
2.934342 0.973970 -0.004352 0.0
2.526566 1.435039 -0.001836 0.0
1.834914 1.604782 0.000737 0.0
2.587681 1.163792 0.001992 0.0
2.143208 0.925037 0.003855 0.0
1.152797 1.514508 -0.001402 0.0
3.159608 1.035861 -0.001103 0.0
2.502347 1.741765 0.004100 0.0
4.230233 1.091534 0.000704 0.0
1.393208 0.214472 -0.000738 0.0
2.848563 1.487766 -0.000880 0.0
3.202600 1.374518 0.001924 0.0
1.863560 1.322931 0.000513 0.0
2.244439 1.852330 0.000055 0.0
1.108135 0.654610 -0.000888 0.0
2.613705 0.711339 -0.002308 0.0
4.132513 1.833949 -0.003532 0.0
3.406653 0.671044 -0.004103 0.0
3.081486 0.179465 0.002523 0.0
0.066344 0.427894 -0.002117 0.0
0.201490 0.938606 0.004104 0.0
3.440301 1.515717 0.000234 0.0
3.421195 0.104849 0.000967 0.0
0.655924 0.143484 0.000059 0.0
3.248942 0.265693 0.001235 0.0
1.739312 0.090735 0.006329 0.0
3.880880 1.548489 0.000580 0.0
1.963310 1.929626 -0.001741 0.0
1.721985 0.087465 -0.004176 0.0
2.380762 0.037138 0.001512 0.0
1.657581 1.994229 -0.003398 0.0
0.291881 1.163526 0.003267 0.0
3.342905 0.946545 0.002783 0.0
3.864642 0.449840 -0.000614 0.0
3.857982 1.859880 -0.001374 0.0
1.147697 2.020295 0.003986 0.0
2.718728 0.794538 0.000422 0.0
3.250654 1.322697 -0.002474 0.0
3.124829 1.092562 0.002848 0.0
2.849704 0.187444 -0.000779 0.0
1.825544 1.983939 -0.002635 0.0
1.563657 0.020940 -0.001991 0.0
2.520559 0.141328 -0.002771 0.0
2.619988 1.222103 -0.005406 0.0
2.016791 1.291421 0.000605 0.0
1.445073 1.960321 -0.005517 0.0
3.788768 0.061061 0.003333 0.0
1.982565 0.807192 0.000110 0.0
1.276603 0.737510 0.001242 0.0
1.977742 0.180333 -0.003985 0.0
0.336644 1.533398 -0.000286 0.0
4.094238 1.031740 -0.001870 0.0
3.778981 0.063359 -0.001611 0.0
3.136390 0.889521 -0.002925 0.0
2.906975 0.756857 0.002553 0.0
0.178394 1.368157 -0.002501 0.0
3.490090 0.806319 -0.000709 0.0
3.436091 1.105397 -0.000069 0.0
2.013781 0.527461 0.000554 0.0
3.963653 0.804293 -0.001531 0.0
4.133975 0.558704 0.001571 0.0
1.481435 1.370761 0.000970 0.0
1.519197 1.626675 0.001859 0.0
3.284224 1.322512 -0.004287 0.0
2.334084 1.244353 0.000848 0.0
0.949405 1.737064 0.004810 0.0
2.650567 1.021478 -0.001224 0.0
0.204443 1.810409 0.000253 0.0
4.194054 0.058695 -0.000049 0.0
2.362772 0.821346 -0.002173 0.0
2.030636 1.900753 0.004289 0.0
2.720045 0.286139 -0.000619 0.0
1.109847 1.266974 0.002281 0.0
2.271335 0.895528 0.001923 0.0
2.295864 1.225139 0.003206 0.0
4.043841 0.743572 0.000216 0.0
2.189653 0.269738 0.005000 0.0
3.350644 0.835418 -0.001964 0.0
2.363679 1.739181 0.002164 0.0
1.188426 1.305085 -0.000496 0.0
1.922000 1.953468 -0.003637 0.0
3.807274 0.819055 -0.000162 0.0
2.952060 1.070307 0.002426 0.0
2.160275 0.251221 0.003157 0.0
3.101077 0.000102 0.002872 0.0
1.121644 0.907306 -0.003154 0.0
0.967334 1.511397 0.000774 0.0
1.295659 0.517027 0.000552 0.0
1.040924 2.010780 -0.003059 0.0
1.208666 1.770384 -0.002435 0.0
0.265453 1.501749 -0.008238 0.0
3.985501 0.148368 0.004275 0.0
2.458900 1.808854 -0.001482 0.0
4.154354 1.605742 -0.001554 0.0
0.939564 0.500431 -0.001890 0.0
0.474058 1.685089 -0.002831 0.0
2.942472 0.296461 0.002907 0.0
1.558838 0.685867 0.004115 0.0
3.544399 1.669322 -0.002013 0.0
1.713789 1.072514 0.001631 0.0
2.844135 0.056389 0.000349 0.0
0.836811 0.370310 -0.001751 0.0
3.959749 0.124102 -0.000205 0.0
4.142441 1.021630 -0.001126 0.0
2.957212 0.898620 0.000494 0.0
1.616473 1.302114 0.002282 0.0
1.010332 1.881554 -0.004809 0.0
2.684141 1.811752 0.001727 0.0
2.162341 1.841085 0.002091 0.0
0.522290 1.382350 -0.002625 0.0
2.515511 0.826173 0.003838 0.0
4.204555 1.277856 0.001565 0.0
0.921458 0.496102 -0.000274 0.0
0.148749 0.696019 -0.000763 0.0
0.245481 1.913968 -0.000017 0.0
2.980860 0.422350 0.004639 0.0
4.073815 1.128502 -0.006224 0.0
3.950481 1.290268 0.003891 0.0
2.167334 1.353309 -0.001992 0.0
2.505477 1.978629 -0.004922 0.0
3.756591 0.989351 -0.002388 0.0
2.025077 1.052865 0.004193 0.0
4.086330 0.505515 -0.002607 0.0
0.380726 0.998022 -0.002222 0.0
3.364607 0.084751 -0.002444 0.0
1.971529 1.371707 -0.001057 0.0
3.772700 1.444229 0.001916 0.0
0.143351 1.095437 0.001218 0.0
0.610847 1.133625 -0.002625 0.0
1.486045 0.745133 0.005146 0.0
1.162215 0.241548 0.002854 0.0
3.619204 1.126898 -0.000347 0.0
3.133978 1.370404 0.002297 0.0
3.152429 0.864869 -0.000631 0.0
3.796385 0.631764 0.002172 0.0
1.366995 1.958047 -0.002671 0.0
0.029712 1.686630 0.001617 0.0
0.864478 0.658392 -0.003178 0.0
0.232051 1.849754 0.000018 0.0
2.997928 0.436404 0.002391 0.0
3.011848 1.160113 -0.001366 0.0
2.929540 0.661917 -0.001638 0.0
1.493600 0.577225 -0.005339 0.0
4.023308 0.376267 0.004108 0.0
4.172770 1.084911 -0.000942 0.0
2.224417 0.252831 0.003660 0.0
2.852389 2.002962 -0.003021 0.0
2.637478 0.699482 -0.001276 0.0
2.407925 1.394442 0.001524 0.0
4.225403 1.442954 -0.000703 0.0
2.757487 1.653790 -0.001066 0.0
3.548972 0.356977 0.000301 0.0
0.243075 1.977581 -0.002025 0.0
3.207508 1.275888 0.001512 0.0
2.364963 1.997688 0.004859 0.0
2.589686 1.618978 -0.005515 0.0
0.971288 1.979978 0.000597 0.0
0.081608 0.157845 -0.001387 0.0
1.969465 0.423155 -0.000727 0.0
2.126808 1.963600 0.001379 0.0
3.689792 1.018586 -0.004013 0.0
1.574710 2.009260 -0.000501 0.0
3.281478 0.660020 0.001476 0.0
0.090251 0.345009 0.002435 0.0
1.097953 1.967938 0.002638 0.0
2.921807 1.637776 0.000218 0.0
2.889419 1.119618 -0.004372 0.0
0.113238 1.550654 -0.003105 0.0
1.835407 1.457196 0.001509 0.0
1.466168 1.815408 -0.000003 0.0
3.251158 0.309544 0.002595 0.0
4.199292 0.079452 0.000347 0.0
1.088806 0.802616 -0.000432 0.0
1.751768 0.138679 0.002994 0.0
1.716320 1.155995 -0.003253 0.0
1.141410 1.958143 -0.000301 0.0
1.887080 1.917932 0.001745 0.0
4.075166 1.964497 0.001885 0.0
2.421118 0.123901 -0.001451 0.0
2.987471 0.315925 -0.003769 0.0
4.292998 1.479137 -0.001742 0.0
2.102762 0.189818 0.001941 0.0
1.448770 0.655250 0.002397 0.0
3.370719 1.307545 -0.002783 0.0
1.909373 1.663886 -0.000770 0.0
1.884448 1.679804 0.005927 0.0
4.252281 0.778904 -0.004773 0.0
2.922582 0.426701 0.001335 0.0
3.549603 1.440642 -0.001446 0.0
2.658580 1.362683 0.002536 0.0
0.708172 1.207397 -0.000564 0.0
3.035235 1.810431 0.002063 0.0
3.146757 0.221481 -0.004455 0.0
1.314911 0.318720 0.000172 0.0
0.542996 0.561606 0.001926 0.0
4.070059 1.553701 -0.003397 0.0
3.242716 0.112232 0.001121 0.0
3.888877 1.827750 -0.003387 0.0
3.838822 1.416160 -0.004216 0.0
1.812517 1.493718 -0.000957 0.0
0.492987 0.465605 -0.000487 0.0
0.240545 0.191928 0.002824 0.0
3.482138 1.537648 0.000835 0.0
1.844355 1.473367 -0.001252 0.0
2.762314 1.089065 -0.003717 0.0
3.268259 1.066510 -0.001186 0.0
1.962810 1.342610 0.002248 0.0
0.270858 0.229881 -0.001077 0.0
0.730592 0.545816 -0.002324 0.0
4.070141 1.249029 -0.001076 0.0
2.894396 0.856241 0.000332 0.0
0.533414 0.946879 0.000928 0.0
3.725155 1.524305 0.003828 0.0
4.201639 0.486828 -0.000877 0.0
0.527670 0.088034 -0.000342 0.0
3.683209 0.381872 0.000392 0.0
0.452769 1.967707 -0.003451 0.0
1.567029 0.238180 -0.001963 0.0
3.304143 1.395694 -0.000045 0.0
3.325387 0.225582 -0.001432 0.0
1.759648 0.729321 -0.001353 0.0
0.429365 0.600741 -0.001058 0.0
0.529811 0.105008 0.001224 0.0
0.644346 0.951864 0.001359 0.0
4.292860 1.214318 -0.002023 0.0
1.853541 0.143985 -0.001644 0.0
4.240436 1.515083 -0.001435 0.0
1.634477 1.910854 0.000199 0.0
3.255318 1.754256 0.000201 0.0
0.305953 2.020438 0.000262 0.0
2.293766 1.982016 0.005969 0.0
2.087059 1.726822 -0.000793 0.0
0.166705 1.665974 -0.000809 0.0
2.505799 1.765304 0.001137 0.0
3.835264 1.966542 0.004603 0.0
3.396982 1.529804 0.000137 0.0
3.864469 1.369527 0.000154 0.0
4.273192 0.138917 0.000314 0.0
4.200585 0.824448 -0.003776 0.0
0.805423 0.262927 -0.001243 0.0
0.439156 0.298430 -0.000089 0.0
1.260505 0.346776 -0.001505 0.0
0.013327 0.847517 0.001011 0.0
2.494674 0.739023 0.000693 0.0
0.294095 0.180951 0.000576 0.0
2.781187 0.708886 0.002298 0.0
4.259569 1.663280 -0.000653 0.0
3.922174 0.134496 0.001865 0.0
0.901334 1.644819 -0.000138 0.0
2.766977 1.479959 0.002945 0.0
4.018348 1.212804 0.005889 0.0
0.678030 0.084394 -0.001308 0.0
0.259301 0.398989 -0.004747 0.0
2.257877 1.266043 0.000245 0.0
0.289146 1.598164 0.003345 0.0
2.108731 1.351930 -0.003680 0.0
1.684113 1.800383 0.000370 0.0
4.045909 1.468758 -0.002624 0.0
3.765910 0.125814 -0.000347 0.0
3.143135 0.253752 0.000952 0.0
2.672163 1.014540 -0.000360 0.0
3.137072 1.571041 -0.002449 0.0
1.851045 0.405041 -0.000687 0.0
0.428143 0.482631 0.003228 0.0
1.167672 1.451173 0.002356 0.0
1.582061 1.293523 0.002416 0.0
1.089718 0.178309 0.004006 0.0
4.220559 1.522993 0.004785 0.0
1.622289 1.902596 0.001182 0.0
2.017442 0.684309 -0.001637 0.0
3.448381 0.060047 0.004723 0.0
3.560255 0.655997 -0.001274 0.0
3.556700 0.124118 0.000075 0.0
3.084514 1.618287 0.002548 0.0
1.385090 1.478253 0.000760 0.0
0.958092 1.546412 0.002404 0.0
2.801762 1.452920 -0.000264 0.0
0.069606 1.029363 -0.002278 0.0
4.214302 1.466723 -0.000521 0.0
4.072000 0.005213 0.003085 0.0
1.507776 1.069751 0.001451 0.0
4.031864 1.379844 0.000699 0.0
2.856555 1.428337 -0.001821 0.0
0.688463 0.076522 -0.000894 0.0
1.409777 1.393233 -0.000977 0.0
3.182084 1.492874 0.000853 0.0
2.129836 1.108334 0.000800 0.0
3.816858 1.989621 0.001532 0.0
2.039983 1.948962 0.000507 0.0
1.383857 1.869950 0.003009 0.0
0.316480 1.555203 -0.002229 0.0
0.732456 1.562801 0.000253 0.0
1.007604 1.238098 0.002283 0.0
4.258225 1.460149 -0.001883 0.0
4.083946 0.451831 -0.005332 0.0
3.650320 0.832714 -0.000863 0.0
3.711780 0.219884 -0.000383 0.0
2.109977 1.146528 0.000262 0.0
2.034377 0.873499 0.000462 0.0
4.283377 0.661404 -0.000738 0.0
1.096520 1.704368 0.001431 0.0
0.196357 0.244391 0.002284 0.0
2.394629 1.282081 -0.002906 0.0
0.597923 1.003196 -0.001878 0.0
2.444001 1.599782 -0.004448 0.0
0.445495 1.846417 -0.000496 0.0
3.513335 0.906965 0.000298 0.0
2.727035 0.451644 -0.001783 0.0
0.602880 1.063392 -0.002857 0.0
3.368513 1.988320 -0.000049 0.0
0.148221 0.058016 0.000253 0.0
3.035523 1.712001 0.000098 0.0
3.979725 0.443348 -0.001908 0.0
1.275932 1.030229 -0.005218 0.0
3.822963 0.079885 0.004518 0.0
0.161201 0.963811 -0.002445 0.0
0.861182 0.085333 -0.001105 0.0
1.588850 1.082410 -0.002039 0.0
1.432533 1.604125 0.004177 0.0
3.054560 1.757554 0.004079 0.0
0.742529 1.034099 0.006308 0.0
3.845237 0.383241 -0.002887 0.0
3.467423 1.672830 0.005407 0.0
1.242852 1.607942 0.002339 0.0
3.966018 1.124148 -0.001299 0.0
1.785967 1.903161 0.001419 0.0
2.045522 1.258976 0.000969 0.0
4.249990 1.156243 0.004213 0.0
3.592795 0.358715 -0.005092 0.0
0.284037 1.037257 -0.001337 0.0
1.673605 1.227647 0.001026 0.0
0.997713 1.903695 0.000015 0.0
0.753827 1.273969 -0.000856 0.0
1.837181 2.018685 -0.000535 0.0
0.218990 0.019693 0.002816 0.0
3.674335 1.960791 0.000597 0.0
3.695874 1.110313 0.000236 0.0
2.260264 1.806595 -0.004731 0.0
1.083545 1.638983 0.000868 0.0
1.250818 1.079625 -0.000341 0.0
2.723964 0.577467 -0.000777 0.0
3.252937 1.982344 -0.000429 0.0
1.897298 1.728585 0.002863 0.0
0.363652 0.074721 -0.001032 0.0
2.649916 0.952386 0.000537 0.0
1.667016 1.168153 0.001345 0.0
3.804891 0.674231 0.002384 0.0
3.904831 0.809730 0.000069 0.0
0.062620 0.438754 -0.005469 0.0
3.969197 0.672090 0.003697 0.0
3.849018 0.969582 0.001348 0.0
2.552997 1.115441 0.002049 0.0
2.645292 0.689992 -0.002864 0.0
2.490966 1.934448 0.000572 0.0
3.627530 0.280757 0.002119 0.0
3.805923 1.882630 0.005223 0.0
0.667144 0.955691 0.006543 0.0
2.629938 0.778543 0.000499 0.0
4.294301 0.052200 0.003162 0.0
4.260392 1.774854 -0.000508 0.0
2.112046 0.304068 0.004390 0.0
1.274782 1.505783 -0.002673 0.0
1.519007 1.783960 0.001131 0.0
3.482715 0.333727 0.002540 0.0
0.129131 0.488254 0.000600 0.0
2.132703 1.583990 0.000880 0.0
4.030063 0.438454 0.001897 0.0
0.720520 1.966128 0.000754 0.0
3.123595 1.280927 0.001195 0.0
3.417706 0.384088 0.003445 0.0
1.493879 0.450360 -0.002069 0.0
3.856083 0.829086 0.000675 0.0
0.711187 1.505881 0.003159 0.0
1.640115 0.038433 -0.001269 0.0
4.102274 1.703912 0.002218 0.0
2.835307 0.579050 0.000856 0.0
1.964636 1.693608 -0.004200 0.0
1.075827 0.337801 -0.000759 0.0
0.619874 0.740522 0.000063 0.0
0.427157 0.640192 0.002789 0.0
1.340511 1.221805 -0.001497 0.0
0.123040 1.628720 0.001071 0.0
3.195598 0.684837 -0.002186 0.0
4.218147 0.237852 -0.000158 0.0
4.237837 1.710713 -0.003937 0.0
3.824658 1.117709 0.003684 0.0
0.443192 1.564699 -0.002190 0.0
2.961983 1.379378 0.000477 0.0
1.847586 0.166399 0.003543 0.0
2.376173 1.780725 0.000898 0.0
2.316545 0.527558 0.005333 0.0
0.908677 0.692953 -0.000685 0.0
0.925609 1.961851 -0.003940 0.0
4.095864 1.998524 -0.002298 0.0
1.732521 1.802139 -0.001116 0.0
0.933821 0.890885 0.008059 0.0
3.350631 0.282004 -0.002160 0.0
2.677178 0.839911 0.002263 0.0
2.121311 0.829102 -0.000122 0.0
2.984044 1.679620 0.005267 0.0
1.210407 1.585965 -0.002897 0.0
2.515950 1.461260 0.001736 0.0
1.725318 0.214185 -0.002190 0.0
3.141608 0.983795 0.001165 0.0
1.654534 1.554313 0.002766 0.0
3.638620 1.253457 0.003410 0.0
3.835511 0.778829 -0.004387 0.0
3.031326 1.273942 0.001372 0.0
3.302399 1.096106 0.002036 0.0
1.012547 1.333409 0.000381 0.0
1.779081 0.748241 0.001716 0.0
3.572536 0.009416 0.000543 0.0
1.927510 0.189801 -0.000671 0.0
2.017667 0.195108 0.001213 0.0
4.036477 1.659886 -0.002589 0.0
0.784251 1.825624 0.003516 0.0
3.561965 0.917093 -0.003348 0.0
3.268023 0.234072 -0.005373 0.0
2.853025 1.989743 -0.002538 0.0
0.255673 0.460234 0.001930 0.0
2.186299 1.489434 0.000517 0.0
3.889512 0.708071 0.003953 0.0
1.925328 1.967459 -0.001304 0.0
2.451240 1.953850 -0.001889 0.0
1.757713 1.589443 0.002020 0.0
1.032552 0.720795 0.003237 0.0
3.568621 1.040730 -0.001331 0.0
0.053273 0.240769 -0.002406 0.0
0.911945 1.742538 -0.001294 0.0
2.751550 1.063654 -0.002166 0.0
3.537031 0.655092 -0.000520 0.0
1.990676 0.600816 0.004424 0.0
3.915292 1.163667 -0.000507 0.0
3.689372 1.000005 0.002363 0.0
1.254072 0.682463 0.001684 0.0
3.940093 0.811078 -0.001462 0.0
1.973107 1.873542 -0.003598 0.0
1.771490 0.634589 0.003018 0.0
1.010706 1.817238 0.000509 0.0
0.038900 1.376176 0.001664 0.0
3.431315 0.006705 0.000515 0.0
3.988997 0.573918 -0.001622 0.0
1.204243 0.018194 -0.000708 0.0
3.022077 1.567404 0.006543 0.0
2.494996 1.467797 0.000784 0.0
0.499667 1.016122 0.000849 0.0
3.089098 0.487867 0.003760 0.0
1.777068 1.099212 -0.001207 0.0
2.523571 0.337798 0.000569 0.0
4.310995 1.789244 0.000923 0.0
2.646182 1.402397 0.000923 0.0
0.450405 0.439206 0.000879 0.0
3.289043 1.370069 0.002989 0.0
1.221687 0.913868 0.002411 0.0
1.339278 0.236333 0.003462 0.0
2.524590 1.496106 0.000233 0.0
3.524978 0.938048 -0.001014 0.0
3.398982 0.278499 0.001253 0.0
2.738946 0.170512 0.003372 0.0
3.322599 0.397484 0.004665 0.0
3.631924 1.610761 0.002531 0.0
3.105985 1.084598 -0.002809 0.0
0.611361 1.591087 0.000289 0.0
2.681781 1.560243 0.002010 0.0
4.041393 1.623230 0.001254 0.0
1.047649 0.924517 -0.002424 0.0
0.830869 2.016587 -0.000308 0.0
4.098755 1.024834 -0.003364 0.0
2.412017 1.799250 -0.005542 0.0
2.272738 1.460849 -0.001614 0.0
3.688543 0.343153 0.002669 0.0
2.392559 1.172458 0.003603 0.0
1.159661 1.040623 0.000979 0.0
2.913980 0.031242 -0.002746 0.0
3.956679 1.079930 -0.002246 0.0
0.608189 1.858102 0.003158 0.0
0.680168 0.232856 0.001214 0.0
4.037199 0.914538 0.002009 0.0
1.293312 1.436941 0.002847 0.0
3.236667 1.820691 0.000163 0.0
0.060539 0.575465 0.002977 0.0
2.467989 0.458485 0.000405 0.0
3.945140 0.667295 0.000618 0.0
1.446290 0.506042 0.000332 0.0
1.722255 0.395023 0.004667 0.0
3.054131 0.058129 -0.001856 0.0
3.385723 0.767471 0.003751 0.0
4.217770 0.549334 -0.000031 0.0
3.473242 0.997884 -0.000856 0.0
2.035928 0.069730 -0.001615 0.0
1.282832 0.653224 0.000394 0.0
1.010331 1.032349 0.001493 0.0
2.644994 1.263638 -0.002190 0.0
3.900623 1.335924 -0.002247 0.0
0.015397 0.268951 0.000754 0.0
0.081877 0.113500 0.002732 0.0
1.236460 0.771661 0.006085 0.0
0.815629 0.684707 -0.000986 0.0
2.887907 0.263838 0.002806 0.0
0.079629 0.712295 0.002668 0.0
2.777251 1.844540 -0.000773 0.0
4.294365 1.687763 0.001073 0.0
3.292178 0.822238 -0.001287 0.0
3.147738 1.606137 -0.000682 0.0
3.119702 1.994574 0.000502 0.0
2.609717 1.493397 0.005181 0.0
0.071936 1.270031 0.002645 0.0
0.951016 2.007226 -0.000033 0.0
3.479358 1.622750 -0.000459 0.0
1.709310 1.818062 -0.003360 0.0
3.067523 1.571694 -0.003336 0.0
3.586157 1.351414 -0.000765 0.0
2.349407 1.935249 0.001620 0.0
0.099454 1.164032 0.003213 0.0
4.137288 0.900433 -0.002024 0.0
2.566914 0.383653 0.001380 0.0
2.595552 1.637201 -0.000956 0.0
2.787415 1.217882 -0.001060 0.0
2.825131 0.614577 0.006825 0.0
3.759560 0.051720 -0.001967 0.0
0.595627 1.727152 0.003925 0.0
2.354386 0.416959 0.001130 0.0
0.123999 0.960721 0.001139 0.0
1.061831 1.767437 0.000264 0.0
0.150484 1.634654 0.006655 0.0
4.008395 0.016957 -0.000075 0.0
2.549099 1.591200 0.000625 0.0
4.025116 1.208679 -0.001944 0.0
3.304083 0.257605 0.000470 0.0
0.611720 1.141512 0.001134 0.0
0.604238 1.151501 0.004475 0.0
2.836427 1.698006 0.003307 0.0
0.603116 0.938099 -0.004220 0.0
2.135847 0.026985 -0.000286 0.0
3.525459 1.310768 -0.001196 0.0
0.145090 1.372935 -0.002674 0.0
3.042830 0.292185 0.004868 0.0
0.034502 0.538621 -0.003831 0.0
3.881351 0.404642 0.000059 0.0
3.912765 1.030411 -0.000550 0.0
0.896638 1.207097 -0.001747 0.0
0.631918 0.885779 0.001983 0.0
0.145951 0.387868 0.002141 0.0
0.328934 0.671984 -0.003060 0.0
0.381805 1.646618 -0.000992 0.0
1.197853 1.968705 -0.001714 0.0
2.349418 0.433682 0.000338 0.0
1.358376 0.572243 0.001113 0.0
2.357467 1.715222 -0.001165 0.0
3.298329 0.030957 -0.000350 0.0
0.593244 1.939395 0.001876 0.0
3.628121 1.184066 0.005811 0.0
0.741844 0.675764 0.000414 0.0
2.967147 0.610630 0.000919 0.0
2.300068 0.176765 -0.001762 0.0
1.381818 0.329465 -0.000824 0.0
0.584366 1.277897 -0.000472 0.0
3.435687 1.521383 -0.002761 0.0
1.566998 1.881361 -0.004088 0.0
0.883937 1.549751 -0.001004 0.0
2.759902 0.154552 0.001345 0.0
3.295270 0.047954 0.000619 0.0
1.885781 0.011193 -0.002435 0.0
4.180426 0.587331 0.004066 0.0
1.054306 1.767456 0.003280 0.0
0.028263 0.541790 -0.000948 0.0
0.439195 1.066123 0.000601 0.0
2.300469 0.921447 -0.004583 0.0
3.381666 0.875132 0.002077 0.0
1.743683 1.448779 -0.001642 0.0
0.993509 0.011647 0.003008 0.0
1.962263 1.491549 -0.000445 0.0
0.972862 1.721011 0.002188 0.0
0.963212 1.505712 0.004218 0.0
1.339382 1.943173 0.001498 0.0
1.767456 1.706014 0.002525 0.0
2.427674 1.300761 -0.000977 0.0
1.000035 1.780952 -0.002614 0.0
0.125257 0.043453 -0.000657 0.0
0.940775 1.302519 0.001726 0.0
2.616371 1.897843 -0.001580 0.0
1.741471 0.725822 -0.000234 0.0
0.993630 0.400535 -0.001386 0.0
2.539772 1.456430 0.001875 0.0
1.892993 0.011851 0.001293 0.0
3.271637 0.235881 0.002600 0.0
2.164655 1.792312 -0.000284 0.0
3.342004 0.367895 0.003582 0.0
2.398535 0.011484 -0.000858 0.0
0.932659 0.710555 -0.005902 0.0
1.210044 0.834511 -0.000662 0.0
1.753228 1.893227 -0.000984 0.0
0.997264 0.217279 0.002208 0.0
2.360711 1.871083 -0.002842 0.0
4.043269 1.844996 -0.001317 0.0
3.180200 0.193467 0.000486 0.0
2.293102 1.028022 0.000774 0.0
0.261637 1.606587 -0.000176 0.0
3.337627 1.987080 -0.001905 0.0
2.672360 1.464024 -0.001385 0.0
0.825817 0.344166 -0.000687 0.0
2.325575 1.180123 0.001103 0.0
1.260633 1.628684 -0.004077 0.0
0.171319 1.483114 -0.002258 0.0
1.267293 0.721336 0.001128 0.0
3.505018 1.526521 -0.002325 0.0
0.185148 1.844353 -0.003540 0.0
2.169404 0.217626 -0.001497 0.0
1.707319 0.513296 -0.005547 0.0
2.051367 1.287122 -0.002429 0.0
1.077900 0.073253 0.002097 0.0
1.172629 1.309677 -0.001589 0.0
0.317271 1.476362 -0.001371 0.0
3.043190 0.132308 0.001273 0.0
1.735225 0.373597 -0.000784 0.0
4.004666 1.968588 0.000662 0.0
0.140371 0.187374 -0.003780 0.0
1.481923 1.509703 0.002848 0.0
3.005568 0.313696 0.003994 0.0
1.068668 0.142568 -0.000637 0.0
1.382510 1.660895 0.004344 0.0
4.153976 0.132562 0.000990 0.0
0.571103 1.380669 0.000480 0.0
4.178131 1.151321 0.001133 0.0
0.397186 0.348231 0.001092 0.0
3.633929 1.594217 -0.003023 0.0
3.534148 1.682454 0.002745 0.0
1.196154 0.431128 0.001422 0.0
0.875428 1.402697 0.001020 0.0
3.439409 0.719941 -0.001733 0.0
0.465424 1.884448 0.000427 0.0
0.597108 0.496107 -0.000896 0.0
0.742091 0.301287 0.000436 0.0
0.282622 1.139780 0.001179 0.0
2.622325 0.430295 0.004520 0.0
1.343970 0.354276 0.000211 0.0
1.157590 0.378481 0.000640 0.0
3.201703 1.587047 0.001171 0.0
0.600942 1.675285 -0.003160 0.0
3.494121 1.786801 0.003130 0.0
0.919068 0.962082 -0.001627 0.0
0.988956 1.573681 0.000696 0.0
3.187244 1.518022 -0.003663 0.0
0.044895 1.726188 -0.000132 0.0
3.167077 0.345642 -0.004411 0.0
1.020072 1.435345 0.000361 0.0
