4.06965781 0.52072241 -0.00183925 0.00000000
3.19439004 1.41498758 0.00355874 0.00000000
3.99129107 1.15420079 -0.00194076 0.00000000
1.21624796 0.58308788 0.00069323 0.00000000
1.91440497 1.14370960 -0.00591248 0.00000000
3.37479879 0.91680946 0.00197039 0.00000000
4.50725598 0.24450590 -0.00303047 0.00000000
3.64773892 0.75413813 0.00044368 0.00000000
2.40356288 0.31686473 0.00246998 0.00000000
3.33921458 1.08154690 -0.00223600 0.00000000
2.34173316 0.14144202 -0.00206620 0.00000000
3.58574645 0.78712995 0.00366873 0.00000000
3.88264501 1.27478727 0.00154329 0.00000000
2.44676260 0.41825638 -0.00304729 0.00000000
1.79783037 0.06772423 -0.00044936 0.00000000
4.21074226 1.27021816 0.00486821 0.00000000
0.78511695 1.35218797 0.00081257 0.00000000
2.69176172 0.47337872 -0.00086557 0.00000000
4.60445600 0.05229478 0.00167783 0.00000000
4.31854939 0.54440027 0.00159655 0.00000000
2.26737744 1.44976247 -0.00108823 0.00000000
2.00012603 0.41831762 0.00043341 0.00000000
0.98462799 0.09893695 -0.00410787 0.00000000
1.48315763 0.82386411 0.00258864 0.00000000
3.43252043 1.12706997 0.00654502 0.00000000
0.73596877 0.71848343 -0.00053660 0.00000000
2.19975261 1.59889824 -0.00157256 0.00000000
3.34453691 0.23712677 0.00128115 0.00000000
3.78833757 1.59046204 -0.00116326 0.00000000
2.61102711 1.22373593 0.00015957 0.00000000
1.61574405 1.07274782 0.00271945 0.00000000
1.61752985 1.79729488 -0.00379991 0.00000000
3.09184166 0.33436594 0.00095999 0.00000000
3.84857393 1.32284860 0.00196593 0.00000000
3.09425045 1.55674286 0.00566046 0.00000000
4.21105895 1.24286092 0.00003812 0.00000000
1.78776299 0.06001336 -0.00267882 0.00000000
4.61082415 1.33468902 -0.00031049 0.00000000
1.39530145 1.31031104 0.00133404 0.00000000
0.21929425 1.49434934 -0.00227138 0.00000000
1.86983702 1.44780002 -0.00051581 0.00000000
1.14743334 1.78913735 -0.00564463 0.00000000
0.92280488 0.07989779 -0.00275095 0.00000000
2.27992171 1.26080374 -0.00026230 0.00000000
0.99270112 0.05523464 0.00013540 0.00000000
2.37444847 1.60996727 -0.00032241 0.00000000
4.53050930 0.59949095 0.00236887 0.00000000
2.46996425 1.54617911 -0.00083278 0.00000000
1.80311541 1.74818638 0.00048178 0.00000000
1.98160333 0.22434105 -0.00180780 0.00000000
2.35116499 1.30932869 -0.00143115 0.00000000
4.04751584 0.52939958 0.00134638 0.00000000
4.28405144 0.90881373 0.00143613 0.00000000
1.99904908 0.06008028 0.00356199 0.00000000
3.06376107 0.27268317 -0.00248680 0.00000000
3.35785273 1.11905282 0.00191770 0.00000000
2.97462187 1.01889881 0.00251330 0.00000000
4.07479508 1.21839208 0.00057919 0.00000000
3.90089433 0.47228044 -0.00043793 0.00000000
0.52510753 1.33274647 -0.00188668 0.00000000
2.62634272 1.42408207 0.00060036 0.00000000
1.03146380 1.35462237 -0.00167965 0.00000000
3.82934989 0.92445985 0.00203767 0.00000000
2.29281596 1.57116737 -0.00406820 0.00000000
2.88752849 1.52233543 0.00218199 0.00000000
3.82881991 0.71369248 -0.00183490 0.00000000
3.84901793 0.19689902 -0.00033772 0.00000000
1.94515803 0.66376917 -0.00023224 0.00000000
2.77084241 1.07294337 0.00284982 0.00000000
2.43128962 1.34627273 0.00012483 0.00000000
0.13310013 0.29996951 0.00156950 0.00000000
2.01054942 1.55964608 -0.00084618 0.00000000
0.87819087 0.40737855 0.00216228 0.00000000
3.10847830 0.58778117 -0.00261746 0.00000000
1.43980220 1.38238974 -0.00229798 0.00000000
0.42848627 1.20419995 -0.00184304 0.00000000
3.27199452 1.19280516 0.00069231 0.00000000
4.04037648 0.89234966 -0.00172994 0.00000000
1.09883750 1.47989718 0.00061689 0.00000000
4.45962957 1.59004794 -0.00010469 0.00000000
3.79812203 1.76110193 0.00419680 0.00000000
4.30030562 0.79040678 0.00305110 0.00000000
0.89148480 0.80585068 -0.00206556 0.00000000
0.81823896 0.84391717 0.00117504 0.00000000
2.71719968 0.07976560 -0.00193853 0.00000000
3.36267383 0.72647875 0.00269274 0.00000000
0.73947153 0.35445062 0.00369821 0.00000000
0.82731905 1.01311758 0.00215969 0.00000000
2.82457640 1.22724614 -0.00063646 0.00000000
1.99116256 0.39890728 0.00153546 0.00000000
1.64829380 0.09092892 -0.00053183 0.00000000
0.69437201 0.34313538 0.00051818 0.00000000
2.24928446 1.22224409 0.00004115 0.00000000
1.04900839 0.18157130 -0.00100233 0.00000000
1.32533476 1.80157051 -0.00021331 0.00000000
3.22700031 0.16596382 -0.00207782 0.00000000
4.04584541 0.37162303 0.00366107 0.00000000
2.22849826 0.71792943 -0.00287713 0.00000000
3.30153728 1.55832518 -0.00128537 0.00000000
1.71608469 1.22022179 -0.00374259 0.00000000
3.76139274 0.86624119 -0.00053251 0.00000000
0.87526853 0.85445360 0.00148321 0.00000000
1.61382213 1.34326154 -0.00398631 0.00000000
2.01478027 1.79531259 0.00039697 0.00000000
3.45763415 1.36775892 0.00162778 0.00000000
3.25910365 1.04571993 -0.00126791 0.00000000
1.58731733 1.09599740 -0.00187555 0.00000000
3.34131584 0.64686503 0.00246082 0.00000000
2.53780007 1.17754015 -0.00252341 0.00000000
0.78845396 1.56373149 -0.00277998 0.00000000
2.51773120 0.91721328 -0.00124352 0.00000000
0.82469216 1.77849474 -0.00134478 0.00000000
4.28061429 0.49226351 -0.00242842 0.00000000
0.58583092 1.25197601 0.00150149 0.00000000
4.36744198 0.14064778 -0.00196512 0.00000000
2.35882366 0.21210225 -0.00056505 0.00000000
1.81576244 0.44918986 0.00172595 0.00000000
3.25032751 1.32884031 0.00132520 0.00000000
1.69622543 1.09576363 -0.00171292 0.00000000
3.48960696 0.11793203 0.00186026 0.00000000
4.37130958 1.31309626 -0.00078477 0.00000000
1.17439951 0.46575111 0.00012314 0.00000000
1.54550185 0.82592362 -0.00106471 0.00000000
4.60292333 1.36723179 -0.00000619 0.00000000
2.91042346 0.08809109 -0.00431002 0.00000000
3.35362681 1.17247034 -0.00299861 0.00000000
2.18861542 0.36988956 -0.00093811 0.00000000
1.40079545 1.78372579 0.00228811 0.00000000
3.72651665 0.07178629 0.00611651 0.00000000
2.69668741 1.29873831 0.00123961 0.00000000
4.13495492 0.94622830 -0.00343555 0.00000000
0.36144294 0.69933247 -0.00218993 0.00000000
0.05142268 0.70930007 -0.00048385 0.00000000
3.92735647 0.25243622 -0.00121050 0.00000000
2.68182767 0.69794512 0.00302553 0.00000000
1.01137108 1.20059639 -0.00379412 0.00000000
2.36291609 1.73001302 0.00313941 0.00000000
3.93545822 1.57192425 -0.00199578 0.00000000
3.98887952 0.69632575 0.00257689 0.00000000
3.21127557 1.48952795 0.00022392 0.00000000
3.84566263 1.51171475 0.00010275 0.00000000
4.33571563 1.03195321 0.00125436 0.00000000
3.96964091 1.51238351 -0.00278143 0.00000000
1.45228971 1.50838430 -0.00150498 0.00000000
0.08257251 0.09932774 -0.00088995 0.00000000
3.89318220 0.35610556 0.00014689 0.00000000
3.62623874 0.68015362 0.00098600 0.00000000
1.82197592 0.06435988 0.00117957 0.00000000
3.25438291 0.02883117 0.00187748 0.00000000
3.22590921 1.76274036 -0.00007460 0.00000000
4.09872216 0.36033951 -0.00058047 0.00000000
1.87629050 0.91178350 -0.00125279 0.00000000
2.42154234 1.73063073 0.00116488 0.00000000
4.06305577 1.25459908 0.00088723 0.00000000
3.94212534 0.38353905 0.00047261 0.00000000
1.83752683 1.62099366 -0.00042644 0.00000000
3.80779769 0.01641047 -0.00023848 0.00000000
0.58380458 0.40526255 0.00017547 0.00000000
2.17891453 1.65304210 0.00159613 0.00000000
3.36872250 0.39969167 0.00232582 0.00000000
0.82977192 0.24655185 -0.00001210 0.00000000
1.28593165 0.95787877 0.00165904 0.00000000
3.07573276 0.16523523 -0.00222049 0.00000000
0.42239637 0.37773183 -0.00019138 0.00000000
3.30963493 0.52590251 0.00164273 0.00000000
1.76935467 0.16195977 0.00272675 0.00000000
4.52819108 1.28774420 -0.00124543 0.00000000
2.54871621 0.75929058 0.00221666 0.00000000
0.62940161 0.43273734 -0.00032477 0.00000000
0.78566834 1.00825156 0.00261803 0.00000000
2.53019393 0.94133790 0.00030474 0.00000000
1.70700324 1.66233014 -0.00093395 0.00000000
3.09329594 0.05567479 -0.00168323 0.00000000
4.37388794 1.01953236 -0.00421083 0.00000000
4.00065095 0.52231974 -0.00081544 0.00000000
3.24981242 1.29387480 -0.00397736 0.00000000
0.58417139 1.70588217 -0.00056329 0.00000000
0.52090004 1.44065887 0.00005659 0.00000000
0.52251190 0.72019024 0.00108097 0.00000000
1.20317656 0.57582141 0.00162456 0.00000000
1.32222244 1.64049751 0.00048356 0.00000000
2.83381489 0.47014359 0.00022792 0.00000000
1.04451246 1.27069864 -0.00003581 0.00000000
2.51372584 1.73281773 0.00032558 0.00000000
0.73617052 1.04082004 -0.00148478 0.00000000
4.14678242 1.66133155 0.00233783 0.00000000
2.57817805 0.04071270 0.00216954 0.00000000
0.50635348 0.38758240 0.00204292 0.00000000
1.48990952 0.05523848 0.00120386 0.00000000
4.19768524 1.44750744 -0.00242441 0.00000000
2.54721510 0.02503226 -0.00122226 0.00000000
3.29118223 0.73018128 0.00152200 0.00000000
1.95457096 0.73073629 -0.00023218 0.00000000
0.27882743 1.40542675 0.00053935 0.00000000
3.10802961 1.54595827 0.00176107 0.00000000
2.99015636 0.56183070 0.00253306 0.00000000
3.69486284 0.90631243 -0.00368333 0.00000000
2.62331899 1.22480033 0.00215460 0.00000000
3.11749676 0.47508426 0.00086544 0.00000000
0.30613720 1.25488957 -0.00064805 0.00000000
2.78941786 0.78905470 0.00129851 0.00000000
3.05427239 1.64524354 -0.00012359 0.00000000
0.14191499 1.29915152 0.00201109 0.00000000
3.13323145 0.31310253 0.00113916 0.00000000
4.18137050 0.78016499 0.00060829 0.00000000
0.48261361 1.33826973 0.00445714 0.00000000
0.93659821 0.25829151 -0.00356949 0.00000000
1.95473107 1.31277291 0.00650820 0.00000000
3.33369158 1.70228673 -0.00032353 0.00000000
1.06889903 0.91169133 -0.00298566 0.00000000
2.49252777 0.45705030 -0.00019606 0.00000000
4.04114818 0.34621192 -0.00232255 0.00000000
2.49887096 0.00948278 -0.00224900 0.00000000
3.95556903 0.21285145 -0.00358962 0.00000000
2.20768530 0.52697347 -0.00358904 0.00000000
4.51401146 0.50006145 0.00318860 0.00000000
3.29818042 0.48597125 -0.00103441 0.00000000
3.79141985 0.99912382 -0.00147691 0.00000000
0.09481584 0.86370342 -0.00050579 0.00000000
0.91015228 0.83247448 -0.00386943 0.00000000
1.39038332 0.02544763 -0.00054308 0.00000000
3.33513670 1.78908570 0.00094682 0.00000000
0.39337808 0.62546464 0.00162028 0.00000000
2.29548766 0.33971511 -0.00221980 0.00000000
1.48327502 0.11420354 -0.00340100 0.00000000
0.86659795 1.19068206 -0.00285305 0.00000000
3.72314339 1.61338724 -0.00094461 0.00000000
3.00157751 1.79796105 0.00368293 0.00000000
0.69319314 1.25153912 -0.00467747 0.00000000
2.38953560 0.10365158 -0.00260732 0.00000000
0.04061365 0.68905146 0.00190128 0.00000000
0.94901280 0.63316500 0.00106690 0.00000000
0.85627846 0.81040501 -0.00033927 0.00000000
1.54676580 0.90899515 -0.00207285 0.00000000
0.26165712 0.54655957 -0.00054546 0.00000000
0.42869650 1.56634194 0.00288355 0.00000000
3.15190903 0.07121525 -0.00035366 0.00000000
2.57970045 0.97991453 -0.00292002 0.00000000
2.78966690 1.36438653 0.00537690 0.00000000
0.57767389 1.41136446 0.00172919 0.00000000
4.09519144 1.12316500 0.00180054 0.00000000
2.94488323 1.42834864 0.00163770 0.00000000
1.51295686 1.67249944 -0.00234820 0.00000000
3.06379270 1.71645904 0.00194197 0.00000000
1.11855535 1.17849206 -0.00169740 0.00000000
3.00414119 0.15702004 -0.00191957 0.00000000
3.47144041 0.46063598 -0.00165526 0.00000000
3.81781704 1.17720276 0.00053097 0.00000000
3.78684392 0.61894024 0.00197666 0.00000000
0.74050754 0.84741517 -0.00116537 0.00000000
0.97168667 1.56764584 -0.00234565 0.00000000
3.14078738 1.74914888 -0.00016347 0.00000000
4.51905336 1.10624907 0.00025559 0.00000000
3.07575139 0.23332136 0.00022921 0.00000000
0.55646799 1.08696155 -0.00232861 0.00000000
0.83467147 0.92182739 -0.00094298 0.00000000
4.49768836 0.46615809 -0.00160371 0.00000000
1.09502576 1.34589984 0.00013402 0.00000000
4.61015894 1.42128605 0.00408649 0.00000000
2.74582032 0.36987788 -0.00132050 0.00000000
2.62977241 0.82710777 -0.00113699 0.00000000
1.17166933 1.80131527 0.00027384 0.00000000
1.57575250 0.06865104 -0.00418328 0.00000000
4.59065178 1.32204301 0.00082728 0.00000000
1.22856494 0.36942649 -0.00350067 0.00000000
4.55859635 0.67750327 -0.00208160 0.00000000
1.47255957 1.37524859 -0.00222454 0.00000000
0.90773136 0.20389386 -0.00516968 0.00000000
1.65110326 1.49089794 0.00328031 0.00000000
4.39984919 1.18486413 0.00054847 0.00000000
0.88862697 0.40673796 -0.00188239 0.00000000
3.27931803 1.63429094 0.00102904 0.00000000
0.30606535 0.41265621 -0.00136213 0.00000000
2.63018209 1.41371711 -0.00162505 0.00000000
2.94592096 0.21939802 -0.00137673 0.00000000
4.09620793 0.52944166 -0.00119402 0.00000000
1.81869177 1.52400379 -0.00525104 0.00000000
4.44078295 1.06605242 0.00298914 0.00000000
1.70358498 1.05539729 -0.00175299 0.00000000
1.59042873 1.60740825 -0.00105878 0.00000000
3.94267185 1.35733001 0.00073618 0.00000000
3.81229480 1.45631745 0.00403371 0.00000000
3.16417141 1.56751008 0.00006001 0.00000000
1.75057911 0.84352615 0.00151843 0.00000000
3.58828743 1.31458802 0.00134207 0.00000000
0.70185620 0.26282536 -0.00188738 0.00000000
0.40579389 1.67522885 -0.00262336 0.00000000
0.32999992 0.67339563 -0.00002345 0.00000000
3.77623176 0.70928392 -0.00075165 0.00000000
4.52678288 1.23317733 0.00341004 0.00000000
0.49314532 1.78492042 0.00355685 0.00000000
1.83439526 0.03160380 0.00022877 0.00000000
4.42864709 1.58089778 0.00233495 0.00000000
1.54505735 1.52712260 -0.00258414 0.00000000
1.32609991 1.44644738 0.00314399 0.00000000
4.01975357 0.34475542 0.00284500 0.00000000
3.25329756 0.63915439 -0.00046320 0.00000000
1.81410949 1.39928541 -0.00006970 0.00000000
1.65772442 0.30562609 0.00227342 0.00000000
4.61254142 0.52770998 0.00157202 0.00000000
3.70966573 1.73206784 -0.00462533 0.00000000
3.57636089 0.52674720 -0.00313123 0.00000000
3.35997245 1.34610521 0.00273723 0.00000000
3.62739821 1.74222696 -0.00065733 0.00000000
1.73839176 1.22871522 0.00538365 0.00000000
1.13695399 1.32701361 -0.00172958 0.00000000
3.81936083 1.10777999 0.00166944 0.00000000
3.62534599 1.19769488 -0.00413731 0.00000000
2.62138665 0.41276403 0.00226751 0.00000000
3.55793878 0.67882495 -0.00306962 0.00000000
4.44307000 0.81145265 0.00235910 0.00000000
1.74553768 0.32383976 0.00270383 0.00000000
2.78324628 0.86571133 0.00156931 0.00000000
0.13444614 1.29756826 0.00369209 0.00000000
3.99003801 0.29585656 0.00115372 0.00000000
1.83897225 1.45355066 0.00044210 0.00000000
2.83379667 0.31056885 -0.00061663 0.00000000
2.56381159 1.73007603 -0.00110030 0.00000000
4.08764480 0.89494273 -0.00056865 0.00000000
3.22506894 0.07167827 0.00252775 0.00000000
2.21651019 1.30862848 -0.00222391 0.00000000
3.34363268 1.70347945 0.00319055 0.00000000
1.43172061 1.79384988 0.00128546 0.00000000
4.21607123 1.08391895 0.00227933 0.00000000
2.65327346 1.72874332 -0.00117448 0.00000000
2.37802167 0.47818887 0.00180532 0.00000000
3.93633398 1.77389299 0.00180885 0.00000000
2.97378349 1.13993529 -0.00459503 0.00000000
1.14728946 0.28580194 0.00740986 0.00000000
2.33115304 0.09850192 0.00161673 0.00000000
2.41777118 1.06900454 0.00164168 0.00000000
0.83938253 1.44629038 -0.00090400 0.00000000
0.29573921 1.77778780 -0.00293566 0.00000000
0.43471393 0.57105428 0.00183805 0.00000000
0.65868914 1.56810292 0.00168731 0.00000000
4.16666643 0.83276034 0.00143129 0.00000000
2.42553394 1.15215959 -0.00249449 0.00000000
3.92776085 1.69790325 0.00189395 0.00000000
4.60627011 0.00968743 -0.00313169 0.00000000
0.74177001 0.55074969 -0.00023828 0.00000000
4.24168567 1.28802745 0.00032065 0.00000000
4.36481306 0.05965466 -0.00374135 0.00000000
2.44616520 0.20473989 0.00076414 0.00000000
4.44413143 0.98493790 -0.00291715 0.00000000
3.87988645 1.31980484 0.00290730 0.00000000
1.44748399 0.68385442 -0.00061924 0.00000000
1.13836999 1.36231499 0.00466691 0.00000000
4.21671564 0.58308469 -0.00294431 0.00000000
4.16908940 0.28223367 -0.00077805 0.00000000
0.68094975 0.41278133 0.00609949 0.00000000
3.99200155 0.77292530 0.00091770 0.00000000
4.45708676 1.29710928 0.00008467 0.00000000
3.93562051 0.57433227 -0.00127302 0.00000000
3.21495885 0.62604625 -0.00002074 0.00000000
1.89111004 0.02766038 -0.00253057 0.00000000
2.70463859 0.10543900 -0.00100910 0.00000000
1.81405172 1.73008518 -0.00157508 0.00000000
0.08969938 0.06685690 0.00228751 0.00000000
2.10233834 0.56699218 0.00034522 0.00000000
1.05667720 0.75248889 0.00097794 0.00000000
1.82452348 0.12329426 -0.00176849 0.00000000
0.04790604 1.68002333 -0.00064933 0.00000000
1.54754653 1.24348897 0.00043546 0.00000000
4.53783608 1.09415247 -0.00008551 0.00000000
0.78611824 0.40375514 0.00175183 0.00000000
2.29133093 1.47534863 -0.00157175 0.00000000
1.87320975 1.53350003 -0.00089948 0.00000000
4.02396448 0.65414563 -0.00033527 0.00000000
1.86422012 1.49912100 0.00276290 0.00000000
4.21754468 1.72676691 -0.00081146 0.00000000
3.81119835 0.84061837 -0.00132468 0.00000000
3.51741022 0.69470157 0.00017378 0.00000000
0.34766520 0.72918029 0.00198769 0.00000000
4.27138512 1.14210553 -0.00073544 0.00000000
3.24029327 1.08586782 -0.00199458 0.00000000
1.62605764 0.56612394 0.00001231 0.00000000
2.93725086 1.29244275 -0.00335463 0.00000000
3.31416180 1.14281809 -0.00082209 0.00000000
2.72734484 0.60229597 -0.00012278 0.00000000
0.36716853 1.69471265 0.00338959 0.00000000
0.92980462 1.04343022 0.00208322 0.00000000
3.37848587 0.21069750 0.00117999 0.00000000
3.22135024 0.64154926 0.00289019 0.00000000
3.55844671 0.09352058 0.00121229 0.00000000
0.35000701 1.73285939 0.00187146 0.00000000
3.05599427 1.54703267 0.00049708 0.00000000
3.74891192 1.43246435 -0.00389853 0.00000000
2.52291622 0.56969979 0.00040512 0.00000000
3.83581737 0.60304774 -0.00125237 0.00000000
4.05789635 0.45828130 0.00183781 0.00000000
3.03084284 0.58185716 0.00017763 0.00000000
1.45251568 0.12182966 0.00412276 0.00000000
0.42050090 1.55817916 0.00025100 0.00000000
3.25206681 1.42887770 0.00305012 0.00000000
4.07684402 0.30775345 0.00028703 0.00000000
1.27278314 1.38862109 0.00058829 0.00000000
3.32719714 0.67562632 0.00127151 0.00000000
2.95478669 1.27417523 0.00104934 0.00000000
1.90741032 1.18645459 0.00011587 0.00000000
3.20321723 0.94993110 -0.00478586 0.00000000
2.84652540 0.21177986 -0.00420883 0.00000000
3.36297895 0.79964280 0.00145159 0.00000000
3.49678142 0.26082760 -0.00147043 0.00000000
4.60356875 0.35155952 0.00084353 0.00000000
2.92382567 0.28384547 0.00276701 0.00000000
2.64834606 1.27141836 -0.00086035 0.00000000
0.62928065 0.53320887 -0.00325384 0.00000000
3.35299612 0.20819894 -0.00332671 0.00000000
4.56626410 1.31940219 0.00129309 0.00000000
0.01655670 0.01478446 -0.00285142 0.00000000
0.51355650 0.27958222 0.00627152 0.00000000
0.27347820 0.95399617 0.00214891 0.00000000
2.46368502 0.44825061 0.00300145 0.00000000
3.58459297 0.48734626 0.00121201 0.00000000
0.59880197 0.64804388 -0.00083036 0.00000000
0.30830320 1.44939616 0.00248668 0.00000000
1.87449251 1.40011086 -0.00106740 0.00000000
4.27840710 0.73563464 -0.00257434 0.00000000
1.28982816 0.07623580 0.00048918 0.00000000
0.49622746 1.44238036 0.00140149 0.00000000
1.92230054 1.06273242 0.00325807 0.00000000
1.42824739 0.92305292 0.00176699 0.00000000
3.19316989 0.40661405 0.00219739 0.00000000
1.33294793 1.31663383 0.00131752 0.00000000
0.16415103 1.18980984 0.00416010 0.00000000
2.07376843 0.02657740 -0.00337415 0.00000000
2.59984292 0.01984694 0.00316319 0.00000000
2.10575902 1.52081106 0.00152154 0.00000000
3.27616420 1.23964364 0.00139559 0.00000000
1.24622254 0.63670244 -0.00281168 0.00000000
4.50141814 0.37215741 0.00480727 0.00000000
3.81854586 0.01337083 -0.00120947 0.00000000
0.45113731 1.36540368 -0.00274425 0.00000000
3.39251934 1.57833059 0.00219488 0.00000000
3.67243737 0.18478383 -0.00187871 0.00000000
2.91700874 1.45646977 -0.00301721 0.00000000
3.17426423 1.70965585 -0.00239656 0.00000000
1.15015695 1.56089454 -0.00148721 0.00000000
2.22343710 1.74345640 -0.00362668 0.00000000
0.78104947 0.55578167 0.00194515 0.00000000
2.50519743 1.07267289 0.00648500 0.00000000
0.05729222 1.20848725 0.00099281 0.00000000
0.16100793 0.88278291 0.00041116 0.00000000
2.91795660 0.76858967 -0.00277072 0.00000000
0.36300925 1.67385477 0.00461535 0.00000000
1.15413876 1.67149784 -0.00109002 0.00000000
0.68213212 0.21318598 -0.00118387 0.00000000
3.11150332 0.68335788 -0.00341167 0.00000000
2.52935103 0.41593359 0.00154262 0.00000000
2.85590643 1.21200394 0.00000184 0.00000000
2.16512716 0.09566991 0.00409204 0.00000000
1.39024730 0.36469333 -0.00184798 0.00000000
0.55150360 0.53655131 0.00109415 0.00000000
0.34768222 0.41290147 -0.00054055 0.00000000
4.30961397 0.09537828 -0.00049328 0.00000000
2.84364021 0.45145021 0.00216921 0.00000000
3.51388095 0.35998440 -0.00236097 0.00000000
1.11775389 1.59380733 -0.00119276 0.00000000
2.21954116 1.36633962 0.00178999 0.00000000
3.22731138 1.28901124 0.00013574 0.00000000
0.91542212 0.86636944 0.00549852 0.00000000
1.27361703 1.06601693 -0.00144403 0.00000000
0.70907294 1.73348656 0.00112506 0.00000000
1.03701286 0.06078863 0.00137957 0.00000000
4.47285557 0.50847461 -0.00179957 0.00000000
1.60593870 1.28689001 0.00037473 0.00000000
1.66966525 0.69241770 -0.00098072 0.00000000
4.43474918 0.05593901 0.00026715 0.00000000
4.33697695 1.62930437 0.00082093 0.00000000
0.72779951 1.42285076 -0.00022652 0.00000000
0.86920153 1.43414984 0.00125297 0.00000000
1.55774637 0.20666960 -0.00369956 0.00000000
2.03005179 1.34495851 -0.00161322 0.00000000
2.25441931 1.46526838 0.00220902 0.00000000
1.74924572 1.03664310 0.00003777 0.00000000
0.51327649 1.60107353 0.00069205 0.00000000
2.49414625 1.34010939 0.00291046 0.00000000
2.28737265 1.44093414 0.00189182 0.00000000
3.77282912 0.86838742 0.00114794 0.00000000
3.74238173 0.39323204 0.00200423 0.00000000
1.75906732 0.37387700 0.00085145 0.00000000
4.45627088 1.75128253 0.00078375 0.00000000
2.88456059 0.83072103 -0.00278587 0.00000000
3.24466192 0.16343570 0.00176300 0.00000000
0.16248111 0.20832417 -0.00296124 0.00000000
0.21752222 0.30706363 0.00108289 0.00000000
3.65071594 1.15297228 -0.00122454 0.00000000
0.76638081 1.55187499 0.00001239 0.00000000
2.78006132 1.19775492 0.00260286 0.00000000
1.07678963 0.09465276 0.00358462 0.00000000
4.53965331 0.33319080 -0.00119703 0.00000000
2.67159051 0.22172722 -0.00153029 0.00000000
2.86294474 0.67349731 0.00024649 0.00000000
3.02408406 1.15724474 -0.00023060 0.00000000
3.49557470 0.11171513 -0.00736409 0.00000000
0.38938590 0.68624158 -0.00348106 0.00000000
3.61471267 0.83294873 0.00117236 0.00000000
2.69679779 1.41641957 0.00086258 0.00000000
1.05933851 0.53927226 -0.00111772 0.00000000
3.01973095 0.30944317 -0.00042966 0.00000000
0.57452949 0.12271413 -0.00258267 0.00000000
4.53512812 0.54187612 0.00010028 0.00000000
3.98306060 0.32615059 0.00110606 0.00000000
2.70890840 0.68876082 0.00371491 0.00000000
4.41209045 1.36074448 -0.00302827 0.00000000
0.86703395 0.43074007 -0.00250199 0.00000000
0.11875127 1.44522329 -0.00298449 0.00000000
1.61532452 0.42499638 -0.00072526 0.00000000
4.17584989 1.69393770 -0.00406790 0.00000000
1.51750399 1.74747903 0.00121170 0.00000000
1.98263063 0.46507658 -0.00347573 0.00000000
0.48503890 0.09531257 0.00018912 0.00000000
1.69864513 1.63593184 0.00398257 0.00000000
2.40348778 0.52315407 0.00079410 0.00000000
4.06753167 1.29551835 0.00192225 0.00000000
1.90240915 1.06390682 -0.00329526 0.00000000
1.85527609 0.52038867 -0.00285499 0.00000000
2.26018643 1.13673115 0.00134230 0.00000000
3.71873882 1.63007382 0.00278217 0.00000000
1.63098141 1.77688734 -0.00259324 0.00000000
0.31892902 1.62130290 0.00149109 0.00000000
3.92704074 0.64793920 -0.00000863 0.00000000
1.74001053 0.69262959 -0.00161386 0.00000000
3.89287894 1.63186637 -0.00382120 0.00000000
2.64601886 1.36877692 0.00059900 0.00000000
3.36277570 1.24235845 0.00057995 0.00000000
2.60303353 0.93321400 -0.00271086 0.00000000
3.73190941 0.96667399 0.00142741 0.00000000
2.58487945 0.34671902 -0.00563326 0.00000000
1.42477184 1.65125979 0.00007582 0.00000000
4.27026688 1.19343770 0.00141759 0.00000000
3.74467776 1.69654980 -0.00232149 0.00000000
4.16695323 1.25194689 -0.00005563 0.00000000
2.27116938 0.54807727 -0.00303227 0.00000000
0.98774253 0.45029107 0.00468562 0.00000000
3.39037606 0.62671141 0.00003988 0.00000000
1.61257174 1.63117679 -0.00050880 0.00000000
0.50632891 1.39778509 0.00200977 0.00000000
4.04609594 0.63155754 0.00059026 0.00000000
1.69360484 0.02798054 -0.00117980 0.00000000
0.71845854 1.70990090 -0.00487775 0.00000000
0.48406459 1.55262357 -0.00059705 0.00000000
4.07609913 0.72947312 0.00220114 0.00000000
3.97062689 1.21432009 0.00194428 0.00000000
4.29103441 0.60742124 -0.00046511 0.00000000
0.34595268 1.28549539 -0.00342130 0.00000000
1.63562800 0.42628568 0.00195384 0.00000000
3.97746830 0.03260691 -0.00133875 0.00000000
3.05030442 0.21254597 -0.00027821 0.00000000
0.92219189 0.23702555 -0.00129970 0.00000000
4.30749926 0.02947208 -0.00042106 0.00000000
1.91578948 1.04944122 0.00121531 0.00000000
3.08751136 1.08266795 -0.00216702 0.00000000
0.56464963 1.51032222 0.00432567 0.00000000
4.26161654 1.71499106 0.00393022 0.00000000
0.18758545 0.18700306 -0.00064077 0.00000000
3.95046312 1.61611035 -0.00321126 0.00000000
2.23190187 1.52949734 -0.00000582 0.00000000
3.05348690 1.58805807 0.00148848 0.00000000
0.26202994 1.24514567 -0.00267708 0.00000000
3.09076857 0.44333141 -0.00072364 0.00000000
4.51300127 1.60840933 -0.00199947 0.00000000
1.35514189 0.09359623 -0.00170980 0.00000000
2.65050773 0.44653404 -0.00280629 0.00000000
0.91228033 0.62120586 -0.00283639 0.00000000
1.68447531 0.25879545 0.00338042 0.00000000
4.51917711 1.45827684 -0.00157610 0.00000000
4.58018626 1.54504280 0.00019785 0.00000000
1.67265767 1.28714898 0.00204004 0.00000000
0.73437065 1.63823627 0.00206814 0.00000000
3.98923922 1.71055735 0.00283419 0.00000000
3.31882819 1.76595767 0.00025285 0.00000000
0.32048115 0.07632023 0.00015774 0.00000000
3.60618662 0.59548910 0.00025305 0.00000000
1.02707859 0.76079732 -0.00149859 0.00000000
2.81106898 1.46975407 0.00045931 0.00000000
3.78903552 0.18963089 0.00189315 0.00000000
0.36264515 0.87804269 0.00007097 0.00000000
2.12885739 1.36186197 0.00024552 0.00000000
2.72525818 0.21227043 -0.00021906 0.00000000
0.02325652 1.43892831 0.00237348 0.00000000
0.08265566 1.06560758 -0.00059954 0.00000000
3.95903306 0.52096500 -0.00300628 0.00000000
0.41085888 0.33604685 0.00277292 0.00000000
3.05146304 1.25824860 0.00280233 0.00000000
0.77327476 1.63963838 0.00258190 0.00000000
3.51035523 1.48582923 -0.00249369 0.00000000
4.28147235 0.01098118 -0.00307439 0.00000000
4.32689294 1.28090201 -0.00192758 0.00000000
0.81498173 0.55014123 -0.00021119 0.00000000
4.42547160 0.47629106 -0.00215196 0.00000000
2.72173549 1.66245583 -0.00170773 0.00000000
0.03829121 0.17603909 0.00109299 0.00000000
2.42645469 1.53286036 0.00258202 0.00000000
0.34386204 0.73414510 0.00072405 0.00000000
4.09670750 0.03704223 -0.00095563 0.00000000
2.59777188 0.25592909 0.00121342 0.00000000
2.85540460 1.29773091 -0.00306938 0.00000000
0.62684518 0.79002390 -0.00048117 0.00000000
0.91394334 0.39072249 -0.00298240 0.00000000
3.81318765 0.02497151 -0.00003304 0.00000000
2.31877938 0.29387385 0.00096954 0.00000000
3.67391159 1.17066409 0.00215785 0.00000000
0.81357495 1.52082578 -0.00617198 0.00000000
3.99646735 1.10800231 0.00042315 0.00000000
3.90823512 0.93271635 0.00249939 0.00000000
0.30685464 0.59760090 0.00405906 0.00000000
2.62712201 0.55217148 0.00071941 0.00000000
4.37781162 0.06461949 0.00411031 0.00000000
0.17532020 1.26808963 -0.00027094 0.00000000
3.45408453 0.33169691 0.00100675 0.00000000
0.17567224 0.63247957 0.00172676 0.00000000
2.29817857 0.06823797 -0.00229706 0.00000000
4.42273318 1.27822300 0.00228928 0.00000000
0.34459043 1.16303241 0.00056998 0.00000000
0.24267632 0.67108499 -0.00285640 0.00000000
1.06358911 0.36917110 -0.00101528 0.00000000
4.22342442 0.21589714 -0.00024102 0.00000000
2.86649934 0.83286000 -0.00092016 0.00000000
3.88948150 1.27944635 0.00030873 0.00000000
3.66466784 0.71746257 0.00093788 0.00000000
2.52383286 1.66272352 -0.00092441 0.00000000
1.68584319 0.16626308 -0.00080998 0.00000000
3.79175232 0.44021400 0.00260903 0.00000000
3.27162097 0.98814181 -0.00198853 0.00000000
0.15730285 1.80858392 0.00389964 0.00000000
2.59766671 1.33306497 -0.00122008 0.00000000
0.10230553 0.36279757 -0.00053709 0.00000000
3.90402747 1.43528270 -0.00082623 0.00000000
4.28721731 1.15759834 0.00277651 0.00000000
1.70310294 0.87926292 0.00286264 0.00000000
0.45790752 1.53591895 0.00189290 0.00000000
1.50993354 0.21671512 -0.00109643 0.00000000
3.00828565 1.59943479 0.00259675 0.00000000
1.69374001 0.63841317 0.00267513 0.00000000
3.33141166 0.50103029 -0.00082391 0.00000000
3.79924115 1.76722513 0.00154697 0.00000000
4.51039880 0.36700090 -0.00003537 0.00000000
1.59356153 0.57866996 -0.00198945 0.00000000
1.86745444 0.72841730 0.00030716 0.00000000
0.63580517 0.94657706 0.00236802 0.00000000
1.29474955 0.39027373 -0.00061930 0.00000000
1.51718867 0.67860065 -0.00139161 0.00000000
3.83642612 0.68498652 0.00074150 0.00000000
3.57609211 0.71010825 0.00036166 0.00000000
2.48835583 0.49660751 0.00200707 0.00000000
0.94414400 0.21013213 0.00021249 0.00000000
1.56107005 1.63064003 0.00251376 0.00000000
1.84815957 0.09839597 -0.00217849 0.00000000
4.50043072 1.43407725 -0.00052133 0.00000000
4.46350872 0.01371547 0.00224769 0.00000000
4.04546669 1.08953360 0.00132348 0.00000000
2.46761417 1.18766775 -0.00113933 0.00000000
1.50823507 0.82134332 0.00020291 0.00000000
0.17638453 1.80906097 -0.00389518 0.00000000
1.27976763 0.21489575 -0.00002945 0.00000000
2.77422175 1.37726684 0.00273207 0.00000000
3.72225471 1.44215046 -0.00184566 0.00000000
0.69406451 0.38881000 -0.00134875 0.00000000
2.89312988 1.28554850 -0.00170635 0.00000000
4.60326702 0.37100363 -0.00194574 0.00000000
3.84711329 0.57455493 -0.00067153 0.00000000
3.80158476 0.82820871 -0.00169015 0.00000000
0.75340425 0.07735355 -0.00579399 0.00000000
1.11140852 0.91937033 -0.00184450 0.00000000
1.83279976 1.24582331 -0.00248314 0.00000000
4.07743733 1.10954983 -0.00360998 0.00000000
1.18470971 1.77470240 0.00045880 0.00000000
3.05640632 1.61824802 0.00196120 0.00000000
2.70970058 0.46693329 -0.00096570 0.00000000
3.68632999 1.31765148 0.00071705 0.00000000
3.58750519 0.34531731 -0.00041950 0.00000000
2.93971459 0.96885455 -0.00400557 0.00000000
1.82021037 1.47686579 0.00061623 0.00000000
3.89491343 0.73360772 0.00271534 0.00000000
2.39670117 0.12472671 -0.00060616 0.00000000
1.66120122 1.05490579 -0.00210332 0.00000000
2.52865765 0.22269240 0.00625624 0.00000000
3.80563109 1.13041737 0.00294299 0.00000000
0.01691065 0.23731868 -0.00113912 0.00000000
0.07141673 0.55106108 -0.00037913 0.00000000
2.98573239 1.64825617 0.00130207 0.00000000
3.77759838 0.60059238 0.00231793 0.00000000
0.21701451 1.29164848 -0.00020143 0.00000000
2.70742778 0.18321303 -0.00161080 0.00000000
0.13725414 1.45168976 0.00280963 0.00000000
3.08320924 1.66265465 -0.00302222 0.00000000
2.66257108 1.21883327 -0.00084321 0.00000000
3.89037394 0.69012540 -0.00025375 0.00000000
2.97598933 0.64305172 0.00493926 0.00000000
0.69598949 1.17311296 0.00036236 0.00000000
0.42256841 1.53679097 0.00519431 0.00000000
2.56282249 1.30080008 0.00112451 0.00000000
2.29705027 1.31708759 0.00070364 0.00000000
1.43036909 1.06701784 0.00015070 0.00000000
4.06964676 1.05802539 0.00160474 0.00000000
1.48814118 0.44503731 -0.00029067 0.00000000
4.25005124 1.38760750 -0.00560894 0.00000000
0.92817639 1.24603604 -0.00091828 0.00000000
4.53285519 0.37430308 0.00149667 0.00000000
4.04615091 1.63388423 0.00174741 0.00000000
2.29791545 1.63049436 -0.00221332 0.00000000
2.24365578 0.33397844 0.00076733 0.00000000
1.81353940 1.33267786 -0.00466889 0.00000000
1.65828453 1.67445722 -0.00091790 0.00000000
4.05362622 1.75038963 -0.00191111 0.00000000
4.35854200 0.01692339 -0.00026452 0.00000000
2.81435830 1.66121560 0.00354718 0.00000000
4.26666668 0.56115115 0.00194579 0.00000000
2.89506506 1.72466251 0.00437972 0.00000000
2.19062650 0.19113514 -0.00211873 0.00000000
4.12937971 0.65882610 -0.00174488 0.00000000
3.59233883 0.58954212 0.00012120 0.00000000
3.16955363 0.27826121 -0.00126631 0.00000000
0.94774914 1.09974115 0.00061149 0.00000000
3.31086496 0.36890594 0.00009787 0.00000000
3.58252689 0.10530829 -0.00258301 0.00000000
1.28866912 1.15784970 0.00200994 0.00000000
2.24331011 1.58502226 0.00066716 0.00000000
2.37968388 0.36797946 0.00495453 0.00000000
2.95487083 1.59587566 -0.00344500 0.00000000
0.47780164 0.58058461 0.00593311 0.00000000
1.58483302 1.47014025 -0.00084957 0.00000000
2.81292938 0.64789543 -0.00098949 0.00000000
3.46987242 0.65591807 -0.00054880 0.00000000
1.57916965 0.65977882 -0.00025972 0.00000000
4.60222934 0.86339713 0.00074820 0.00000000
4.49255343 1.64321443 -0.00061820 0.00000000
3.91415456 0.88038673 0.00580383 0.00000000
2.37989374 0.90941745 -0.00339411 0.00000000
3.60842525 0.22523754 0.00217982 0.00000000
3.30221651 1.63983482 0.00143089 0.00000000
4.41668844 0.38518273 -0.00358838 0.00000000
2.94952039 0.29812676 0.00150007 0.00000000
1.20668635 0.87142685 -0.00117926 0.00000000
0.72409055 0.93100560 0.00289560 0.00000000
4.23352530 0.39223356 0.00203935 0.00000000
1.01974313 0.25134650 0.00166495 0.00000000
0.58734577 1.07145053 0.00195445 0.00000000
2.59459502 0.72188621 0.00222675 0.00000000
2.05878868 0.30000394 0.00064923 0.00000000
3.75431909 0.39869788 0.00433338 0.00000000
4.04824249 0.77690713 -0.00273006 0.00000000
4.36610378 1.00046795 0.00191126 0.00000000
1.51360866 0.51514341 -0.00365638 0.00000000
1.38379236 0.12956124 -0.00117614 0.00000000
3.95769156 1.37024006 -0.00007133 0.00000000
4.15951015 1.67098481 0.00311724 0.00000000
1.37729498 1.66397095 0.00026483 0.00000000
0.65114663 0.83029778 -0.00338264 0.00000000
1.39581151 0.39485806 0.00047854 0.00000000
4.20761220 1.66369344 -0.00196916 0.00000000
1.71068710 0.27889214 0.00455530 0.00000000
1.19087786 1.02741046 0.00291618 0.00000000
3.04138929 1.45484296 -0.00049599 0.00000000
4.11928754 0.61504105 -0.00019189 0.00000000
3.03486152 0.54341425 -0.00106437 0.00000000
1.38992542 1.60505012 0.00109501 0.00000000
4.16691478 0.08765145 0.00065417 0.00000000
3.79887454 1.56312079 -0.00068916 0.00000000
3.45454804 1.28650686 0.00321457 0.00000000
2.60483679 0.76722094 -0.00581541 0.00000000
1.68446522 0.70343688 0.00104498 0.00000000
4.16834568 1.02142801 0.00206936 0.00000000
2.06616349 0.82796513 0.00003393 0.00000000
0.62182496 0.46583062 -0.00012362 0.00000000
2.95462078 1.25834107 0.00497078 0.00000000
4.46963999 0.92869654 0.00125686 0.00000000
4.54858554 0.74865613 0.00281626 0.00000000
4.12842572 1.25904316 0.00390280 0.00000000
0.25303322 0.67496522 0.00092212 0.00000000
1.77111502 0.05234170 -0.00001825 0.00000000
2.66122805 0.61455663 -0.00008026 0.00000000
1.71564670 0.25469308 -0.00454497 0.00000000
2.76038677 1.06663127 -0.00055744 0.00000000
1.24362716 0.09449694 0.00077134 0.00000000
1.47943473 0.07868463 0.00140646 0.00000000
0.73472227 0.94257362 -0.00176796 0.00000000
2.48114776 0.23052086 0.00731790 0.00000000
2.15141248 1.75360849 -0.00500432 0.00000000
2.02777275 1.60265326 0.00240596 0.00000000
1.41092598 1.48700281 0.00033283 0.00000000
2.26603544 1.66618817 -0.00317124 0.00000000
0.06562321 0.88810082 -0.00319702 0.00000000
4.07229931 1.51342887 -0.00042976 0.00000000
1.35444647 1.68113529 0.00100115 0.00000000
1.43891984 1.73330383 -0.00437963 0.00000000
0.14797808 1.29238313 0.00642191 0.00000000
4.29509073 0.01823415 0.00084023 0.00000000
3.74855623 1.00435092 0.00357383 0.00000000
1.56917763 1.02029632 0.00041682 0.00000000
2.50835977 0.29869884 -0.00192725 0.00000000
2.36388445 0.06747506 0.00364045 0.00000000
4.57124952 0.63493898 0.00063458 0.00000000
0.77232406 1.54815385 -0.00054585 0.00000000
0.63412201 0.69947627 0.00181306 0.00000000
0.73573598 0.86705398 0.00250054 0.00000000
3.50047463 0.40644061 -0.00174466 0.00000000
2.52458864 0.70903962 0.00045774 0.00000000
1.32414871 1.05449392 -0.00199839 0.00000000
2.13983379 1.24207162 -0.00292028 0.00000000
3.42602473 1.22430578 0.00261117 0.00000000
4.12992794 0.11376140 0.00256312 0.00000000
2.27581618 1.30361741 -0.00070776 0.00000000
1.23887863 0.92697416 -0.00264119 0.00000000
1.37790537 0.44188127 0.00556713 0.00000000
0.64123704 0.08905168 -0.00083347 0.00000000
4.21043980 0.11638477 0.00472139 0.00000000
2.84813176 0.59434357 -0.00005004 0.00000000
4.43818429 0.55172321 -0.00041542 0.00000000
0.76696875 1.65583054 -0.00086572 0.00000000
3.97247174 0.63222365 0.00334595 0.00000000
2.76768018 0.61016779 0.00170485 0.00000000
3.32478415 0.88880715 -0.00021978 0.00000000
3.92392768 0.37737429 0.00009035 0.00000000
1.05218832 0.45935395 0.00326140 0.00000000
1.54084019 0.70854570 0.00079223 0.00000000
0.46097330 1.34455122 0.00514391 0.00000000
0.61454671 1.60829941 -0.00119458 0.00000000
2.34943950 1.63022157 -0.00048491 0.00000000
2.38305487 1.48951410 -0.00417606 0.00000000
0.53314321 1.05761727 0.00008901 0.00000000
3.51587657 1.63882553 0.00110081 0.00000000
3.91159769 1.12119283 -0.00041208 0.00000000
0.83338570 0.47258366 0.00136689 0.00000000
3.73620298 1.34079264 -0.00246081 0.00000000
0.52719821 1.19768580 0.00429074 0.00000000
1.96009775 1.49536419 -0.00495377 0.00000000
3.33349323 1.77761915 0.00188647 0.00000000
1.01089473 0.21797583 -0.00044714 0.00000000
2.54611893 1.48148862 0.00097850 0.00000000
4.31129611 0.54913737 0.00071043 0.00000000
1.21461252 1.42720470 -0.00244636 0.00000000
2.70815672 0.72226130 -0.00304693 0.00000000
2.01367607 1.32863048 -0.00078688 0.00000000
2.39820805 0.63652501 0.00128574 0.00000000
0.55015574 1.34903624 -0.00106517 0.00000000
0.34847010 0.83483560 -0.00101085 0.00000000
1.87323973 0.03480571 -0.00095079 0.00000000
4.48953819 0.23932788 0.00017225 0.00000000
3.61345226 0.44098090 -0.00076627 0.00000000
0.92928694 1.01436599 -0.00321070 0.00000000
3.15831788 1.60522441 0.00327309 0.00000000
1.68176132 0.70049431 -0.00253849 0.00000000
3.47111676 0.94781420 -0.00341531 0.00000000
4.35250995 1.30695567 0.00038810 0.00000000
0.15201228 0.12560152 -0.00400939 0.00000000
4.58556088 0.57512308 -0.00182194 0.00000000
1.87650998 1.75495995 -0.00354291 0.00000000
3.40997943 1.50656966 -0.00144549 0.00000000
0.46654095 0.96020367 0.00359786 0.00000000
1.60825249 0.66783703 0.00259554 0.00000000
4.10431220 0.52539591 0.00294158 0.00000000
2.64179427 0.23535833 -0.00102995 0.00000000
3.51165480 0.55956590 0.00113466 0.00000000
3.52469868 1.77626855 0.00009771 0.00000000
3.46112439 0.48040311 0.00187378 0.00000000
2.91545163 1.44922873 0.00258799 0.00000000
4.40634683 1.11492781 0.00279673 0.00000000
2.26530215 0.79691357 -0.00257886 0.00000000
3.45703059 0.00247393 -0.00419510 0.00000000
2.05396778 0.05110748 0.00130779 0.00000000
4.10480838 1.04169163 -0.00100999 0.00000000
0.70395242 0.38119696 -0.00234054 0.00000000
3.61610372 1.78063469 -0.00281553 0.00000000
1.76089397 0.95281915 -0.00029425 0.00000000
2.29162850 1.65280161 -0.00503861 0.00000000
1.45388348 0.49108734 0.00053462 0.00000000
1.20548490 1.53363243 -0.00253460 0.00000000
2.15192189 0.85873095 -0.00134907 0.00000000
3.73658269 0.10365659 -0.00101460 0.00000000
3.67004152 0.30217158 -0.00258574 0.00000000
3.36502151 0.12569527 -0.00637134 0.00000000
1.24364034 1.62123872 -0.00203143 0.00000000
4.48979144 0.01214132 0.00385121 0.00000000
1.45873991 0.96059977 -0.00143953 0.00000000
1.94856824 1.09168374 -0.00250963 0.00000000
3.02724811 1.47122564 0.00501722 0.00000000
2.06887275 1.39928153 0.00093475 0.00000000
0.83258824 0.53050865 0.00201249 0.00000000
3.71599392 0.69352637 -0.00025788 0.00000000
1.14117135 0.02038166 -0.00155284 0.00000000
3.47601508 1.54445620 0.00351578 0.00000000
0.99322299 0.83934833 -0.00006111 0.00000000
3.13683807 1.15752549 0.00482026 0.00000000
1.73698480 1.12018654 0.00007771 0.00000000
0.69573913 0.66800990 0.00125499 0.00000000
3.31264197 0.61359751 -0.00559866 0.00000000
3.23438748 1.06964294 0.00271885 0.00000000
3.08763662 1.13510583 -0.00346896 0.00000000
2.17657224 1.34666689 -0.00003778 0.00000000
3.15588082 1.24473619 -0.00158430 0.00000000
4.50558344 0.44260104 0.00036121 0.00000000
2.11195178 1.25879912 0.00241445 0.00000000
2.66470839 1.77444176 -0.00363918 0.00000000
1.61972585 0.48947396 0.00171050 0.00000000
2.42980353 1.60789433 0.00152955 0.00000000
2.87796709 0.13454849 0.00156202 0.00000000
2.61099825 0.05283428 0.00104645 0.00000000
3.78101802 0.47718414 -0.00143234 0.00000000
0.98792227 1.23011571 0.00010095 0.00000000
2.73455912 1.25982339 0.00437124 0.00000000
1.30495514 1.51361492 -0.00258867 0.00000000
4.56381715 0.05800531 -0.00078273 0.00000000
1.42493969 0.89668075 0.00404485 0.00000000
4.02402308 1.46020995 0.00085252 0.00000000
1.07250350 0.98963447 0.00186394 0.00000000
3.83269964 0.55981716 0.00594854 0.00000000
0.38686567 1.41952487 -0.00486311 0.00000000
4.07684952 1.10718480 -0.00242277 0.00000000
4.52234533 0.11325638 0.00154711 0.00000000
0.70028203 0.11931312 -0.00024744 0.00000000
3.11627330 1.28570908 0.00403057 0.00000000
2.22990185 0.99942297 0.00005779 0.00000000
3.76099355 1.62791038 0.00512386 0.00000000
3.46339093 0.32283957 0.00090984 0.00000000
2.43647841 1.76724399 0.00162517 0.00000000
0.01615716 0.56463829 -0.00116565 0.00000000
2.85898252 0.92251178 0.00007608 0.00000000
3.37421722 0.10266276 -0.00324859 0.00000000
3.71590730 1.09334735 -0.00148937 0.00000000
2.44509832 0.69447642 -0.00172579 0.00000000
1.51988679 0.81872328 -0.00071492 0.00000000
1.23704315 0.66476852 0.00126879 0.00000000
1.52401654 1.60271764 0.00128073 0.00000000
0.15435966 0.97449304 -0.00182768 0.00000000
1.45310866 1.65052002 -0.00284963 0.00000000
0.91137958 1.33425958 0.00058563 0.00000000
2.30132842 1.19556250 -0.00149874 0.00000000
1.87929363 0.36439978 0.00372693 0.00000000
4.34638302 1.29634171 0.00273383 0.00000000
2.51153473 0.86094754 -0.00089915 0.00000000
3.28632804 1.71116898 -0.00217366 0.00000000
2.63061883 1.49089064 -0.00110668 0.00000000
4.55406292 0.81395106 0.00020022 0.00000000
2.77721223 1.48995071 0.00556766 0.00000000
4.38270231 0.29895914 -0.00250254 0.00000000
2.03774412 0.29215731 0.00022802 0.00000000
1.59640518 1.66332201 -0.00264789 0.00000000
1.40540960 1.70713367 0.00049130 0.00000000
2.12852197 1.18169126 -0.00054329 0.00000000
1.61782659 0.83254306 0.00095136 0.00000000
2.83205915 0.99773805 0.00044017 0.00000000
4.31441552 1.71985533 0.00186834 0.00000000
3.86741368 1.78097435 0.00179792 0.00000000
1.05844073 1.32840616 -0.00067192 0.00000000
1.74487513 0.24955084 0.00121709 0.00000000
0.29844616 0.62565562 -0.00182311 0.00000000
2.25394018 0.08509068 -0.00123017 0.00000000
1.70828847 1.26324140 -0.00169696 0.00000000
2.60110482 0.16113294 -0.00015732 0.00000000
1.08656744 0.04422540 0.00393038 0.00000000
3.95546194 0.62481636 -0.00215014 0.00000000
2.42315865 0.40292272 0.00201994 0.00000000
0.82564314 0.36483400 -0.00059835 0.00000000
2.08863463 0.23799212 0.00236840 0.00000000
0.77089541 1.52588446 -0.00222168 0.00000000
0.92376317 0.26087070 0.00192746 0.00000000
2.41541559 0.14649032 -0.00258808 0.00000000
0.27160918 0.71614118 -0.00270297 0.00000000
1.00438892 1.14759371 0.00395637 0.00000000
0.85308663 0.45665238 0.00651949 0.00000000
4.30718564 0.20735591 -0.00341821 0.00000000
1.02154289 1.51308689 0.00210972 0.00000000
2.96049096 1.80198861 -0.00258727 0.00000000
3.31214493 1.48947650 0.00057102 0.00000000
3.64265091 1.49773176 0.00345986 0.00000000
1.08539701 0.78197127 -0.00057927 0.00000000
1.20443016 0.45262639 0.00250449 0.00000000
4.22822076 0.46903140 0.00346044 0.00000000
3.83670595 1.75327587 -0.00076757 0.00000000
1.88901149 1.64387864 0.00446270 0.00000000
3.99288943 0.01271772 0.00089861 0.00000000
2.28246197 1.49240759 -0.00446124 0.00000000
4.08163493 0.56626381 0.00219416 0.00000000
2.62651302 0.96591431 -0.00082462 0.00000000
0.36341478 0.81762944 -0.00295141 0.00000000
3.38307193 1.78817268 -0.00226658 0.00000000
4.11378879 0.12956709 0.00422551 0.00000000
3.66908313 1.44553334 0.00287325 0.00000000
3.32304094 0.22014516 -0.00151158 0.00000000
0.84993540 1.61183792 0.00353435 0.00000000
0.91941902 0.31719786 -0.00148654 0.00000000
1.23483967 1.28278361 0.00469690 0.00000000
3.59154397 1.17432881 0.00624554 0.00000000
2.86288825 1.17109508 -0.00471984 0.00000000
2.27706916 1.59362207 -0.00115039 0.00000000
1.48160608 1.03355347 -0.00306743 0.00000000
1.21974499 0.31679805 -0.00213254 0.00000000
1.80153697 0.47714156 0.00325914 0.00000000
4.52466567 1.14537127 0.00065176 0.00000000
0.42575493 0.76748172 -0.00139223 0.00000000
3.61727023 1.12963741 0.00611493 0.00000000
4.00741171 1.67107305 -0.00024331 0.00000000
2.84558038 0.58364377 0.00080294 0.00000000
1.70670106 1.41986133 0.00228716 0.00000000
4.35726198 0.09807145 -0.00175894 0.00000000
3.96793733 1.57466193 -0.00006691 0.00000000
1.13375641 0.04963375 -0.00378158 0.00000000
4.16997599 0.81910567 -0.00231747 0.00000000
0.55449558 1.11737222 0.00286374 0.00000000
1.76625227 1.35688410 -0.00238949 0.00000000
0.60657108 0.41540574 -0.00098963 0.00000000
3.49858832 1.75546795 -0.00122619 0.00000000
3.52925132 0.07724695 0.00322444 0.00000000
1.46594351 1.04780886 0.00494172 0.00000000
2.80065411 0.66307166 -0.00145565 0.00000000
1.60163350 0.23927010 -0.00091218 0.00000000
4.59971113 1.55051499 0.00209842 0.00000000
4.30663729 0.72911511 -0.00486744 0.00000000
2.59099998 0.76620239 0.00050543 0.00000000
0.20472578 0.79673076 0.00578267 0.00000000
4.07914442 1.17168501 0.00161631 0.00000000
3.75624635 1.55600426 0.00258506 0.00000000
3.73308351 0.19065496 -0.00136926 0.00000000
3.80198920 0.42798858 -0.00453045 0.00000000
4.48623486 1.54230512 0.00058416 0.00000000
1.51892451 0.70596466 0.00363740 0.00000000
1.51182996 0.19779195 -0.00088499 0.00000000
1.87709413 1.76062613 -0.00183989 0.00000000
1.88695156 1.20531948 -0.00015160 0.00000000
0.42057948 0.09487308 0.00174950 0.00000000
2.06804507 0.43883711 0.00480662 0.00000000
2.19839861 1.24199709 -0.00287668 0.00000000
1.51737971 1.74979012 0.00050583 0.00000000
3.53866814 1.70717475 -0.00262299 0.00000000
1.40898202 1.33187724 -0.00370186 0.00000000
0.51223146 0.81156387 0.00074481 0.00000000
3.50822547 0.76093278 0.00317647 0.00000000
3.00069194 0.31486006 0.00023628 0.00000000
1.05633937 0.59879937 -0.00089399 0.00000000
2.51622548 1.63331253 -0.00174061 0.00000000
2.84035361 0.15819929 0.00201237 0.00000000
1.54715975 0.57496817 0.00239113 0.00000000
0.91374746 0.15549301 -0.00378017 0.00000000
1.65392773 1.49004473 0.00080929 0.00000000
1.64486233 1.53808014 0.00589526 0.00000000
1.42263753 0.15393669 -0.00102153 0.00000000
0.88736136 1.36276888 0.00420263 0.00000000
2.38196524 1.42089402 0.00010860 0.00000000
0.37209210 0.53045384 -0.00365116 0.00000000
0.89592552 1.44604138 0.00128819 0.00000000
2.81752641 1.41782617 -0.00345720 0.00000000
4.02234241 0.32974487 0.00130290 0.00000000
2.17238635 1.05747714 -0.00277357 0.00000000
2.54499926 0.22588972 0.00025506 0.00000000
3.67373841 0.85097279 -0.00051285 0.00000000
4.51091563 1.29701307 0.00044741 0.00000000
3.93143983 0.35753672 -0.00258292 0.00000000
1.55955483 1.65584943 -0.00350167 0.00000000
1.22335605 1.64292488 0.00091985 0.00000000
0.79445265 1.24156248 0.00012759 0.00000000
2.76310963 1.24864845 -0.00325208 0.00000000
0.32465773 1.23448910 -0.00286474 0.00000000
1.83663326 0.27461569 -0.00361518 0.00000000
3.27169543 0.46044379 0.00069413 0.00000000
2.73649445 0.24306288 -0.00028384 0.00000000
2.53626394 0.20847080 0.00402335 0.00000000
0.83152830 0.72378271 0.00137743 0.00000000
2.57194835 0.26933666 -0.00321901 0.00000000
2.89649366 1.02697745 0.00289567 0.00000000
0.09506560 0.81324462 0.00299667 0.00000000
3.35977777 1.21982053 -0.00074451 0.00000000
3.96827041 0.52329845 0.00307066 0.00000000
0.62862418 0.94492343 0.00075382 0.00000000
3.38205977 1.10661116 -0.00210739 0.00000000
2.68801664 0.81853281 0.00386316 0.00000000
3.98559553 0.99630657 -0.00332443 0.00000000
3.74222804 0.44736318 0.00029433 0.00000000
1.58088943 1.37548402 0.00155594 0.00000000
1.23103471 0.14178509 0.00086949 0.00000000
2.54181779 1.21372972 -0.00032927 0.00000000
2.92365439 0.11382755 0.00092524 0.00000000
3.71697523 1.76930802 0.00098601 0.00000000
0.58418676 1.04114172 -0.00142072 0.00000000
1.30404906 0.05802989 0.00247399 0.00000000
0.46214392 0.86571342 0.00075794 0.00000000
0.95016922 1.32614217 -0.00290050 0.00000000
