1.33266091 0.07541173 0.00016767 0.00000000
4.08952726 0.49058205 0.00292186 0.00000000
3.28030059 0.78358848 0.00029757 0.00000000
0.51690164 0.04948693 0.00189424 0.00000000
2.45192475 1.19289018 0.00298880 0.00000000
1.56459118 1.36877431 0.00274436 0.00000000
0.43261672 1.01152813 -0.00334028 0.00000000
3.70434925 0.69231831 -0.00010944 0.00000000
1.68336134 0.03352181 0.00297000 0.00000000
2.89316760 0.30552678 0.00072819 0.00000000
4.17091235 1.39139393 -0.00047573 0.00000000
3.72000192 0.58014562 0.00063254 0.00000000
2.48403746 0.26236242 -0.00200280 0.00000000
0.93092139 0.58174097 -0.00116907 0.00000000
0.23268804 1.00957110 -0.00119317 0.00000000
1.99694086 1.08057878 0.00185032 0.00000000
2.56037073 1.10455947 0.00103208 0.00000000
1.68356972 1.26631093 -0.00093416 0.00000000
2.12761079 0.19054483 0.00120231 0.00000000
3.20098071 0.58859683 0.00445947 0.00000000
0.31022281 1.13023824 0.00020025 0.00000000
2.98441350 1.31479215 0.00069048 0.00000000
3.23914946 0.03350791 -0.00172497 0.00000000
3.09462441 0.59373314 -0.00018154 0.00000000
2.87398347 1.01607031 0.00152873 0.00000000
2.16645960 0.05341693 -0.00071123 0.00000000
1.24670200 0.73642130 -0.00051556 0.00000000
1.79015078 0.85129186 0.00497783 0.00000000
2.31499454 1.11526956 0.00219079 0.00000000
2.07852459 0.93077865 0.00002372 0.00000000
3.11254327 1.24543940 0.00045830 0.00000000
3.59948794 0.15780178 0.00195904 0.00000000
0.99972722 1.38389028 0.00013119 0.00000000
2.18346946 0.07352643 0.00328139 0.00000000
2.56083574 1.04332397 -0.00244262 0.00000000
3.37515114 0.53452411 -0.00065443 0.00000000
3.65665424 1.03313226 0.00001424 0.00000000
0.42390929 1.38276499 0.00486001 0.00000000
2.28880009 0.16402707 0.00093948 0.00000000
4.26604319 0.29215624 0.00255554 0.00000000
1.13772785 1.33780361 -0.00081049 0.00000000
3.47710540 0.10962273 0.00011601 0.00000000
0.40039820 0.96398992 0.00156389 0.00000000
2.53669118 1.35285752 -0.00266925 0.00000000
0.75749059 1.45555533 0.00036372 0.00000000
4.04632507 0.42709185 0.00103841 0.00000000
1.91243282 1.11769466 -0.00134113 0.00000000
3.76427667 1.24597719 -0.00033426 0.00000000
4.34573297 0.33612187 0.00252595 0.00000000
2.13237730 0.37889665 0.00180523 0.00000000
1.37942749 0.42400760 0.00349716 0.00000000
0.56192742 1.43134977 -0.00027712 0.00000000
1.68196667 0.80422410 -0.00061506 0.00000000
2.11976811 1.00662809 -0.00101449 0.00000000
0.35881111 0.66424328 0.00138417 0.00000000
3.46077639 0.71160050 -0.00061272 0.00000000
2.30120069 0.44948593 -0.00455637 0.00000000
2.18675830 0.60553123 0.00181818 0.00000000
4.03702618 1.45999265 0.00234664 0.00000000
0.64129948 0.60868537 -0.00261966 0.00000000
3.33298122 1.43697331 0.00037553 0.00000000
0.80673339 1.34660980 -0.00344519 0.00000000
0.65275680 0.11105726 0.00205765 0.00000000
0.88915048 0.93665704 -0.00264576 0.00000000
2.53052038 0.18514881 0.00426801 0.00000000
0.20802069 0.40778933 -0.00072016 0.00000000
2.71423662 0.65158883 -0.00258954 0.00000000
3.80467802 0.62954589 0.00059095 0.00000000
1.60124676 1.20479175 -0.00062224 0.00000000
4.03776882 0.98792076 0.00299797 0.00000000
2.73187084 0.23347064 0.00092725 0.00000000
3.02211146 0.31121895 -0.00248604 0.00000000
4.29997761 0.04304513 -0.00096052 0.00000000
4.07099415 1.50211199 -0.00296527 0.00000000
2.35335199 0.72551304 0.00394830 0.00000000
1.97031520 0.22792744 0.00048735 0.00000000
2.61152478 0.14745151 0.00063768 0.00000000
2.85163746 0.71437910 -0.00090036 0.00000000
0.29371272 1.47680595 0.00036007 0.00000000
0.73880460 0.93376577 0.00362215 0.00000000
0.24627926 1.46995984 0.00127077 0.00000000
2.18684217 0.01758522 0.00515134 0.00000000
0.45295841 0.76068409 0.00542526 0.00000000
3.04626999 1.24491095 0.00036479 0.00000000
3.77799368 1.03897521 -0.00127154 0.00000000
1.87257556 1.04065480 0.00118030 0.00000000
3.58985670 0.97256781 0.00056851 0.00000000
2.18955131 0.58053282 0.00001867 0.00000000
0.97154860 0.42518485 -0.00076499 0.00000000
2.36134441 0.71009378 -0.00273265 0.00000000
0.38062953 1.31171749 0.00580127 0.00000000
3.73963260 1.13000042 0.00294796 0.00000000
2.82950462 0.44320356 0.00086910 0.00000000
2.91079100 0.81390432 -0.00276030 0.00000000
0.11232430 0.75644554 -0.00083000 0.00000000
1.35718409 0.16049544 -0.00024300 0.00000000
1.49035393 0.76762544 0.00089884 0.00000000
2.17271087 0.82740825 0.00107256 0.00000000
0.71917522 1.13980434 0.00426342 0.00000000
0.53375291 1.49339882 0.00535503 0.00000000
2.93437199 1.22773057 0.00138427 0.00000000
0.95758519 0.67448068 -0.00044351 0.00000000
4.06117345 1.22138959 0.00142740 0.00000000
3.58699538 0.20005725 0.00024470 0.00000000
2.30815992 1.49183495 -0.00124315 0.00000000
0.45461916 1.15214713 0.00080210 0.00000000
4.25916272 1.35450912 -0.00469236 0.00000000
1.67286841 0.39212704 0.00243198 0.00000000
3.40627408 0.58349702 0.00057218 0.00000000
4.00619719 0.08451425 0.00013835 0.00000000
4.05133868 1.51238360 -0.00246274 0.00000000
4.17343011 1.33118472 -0.00047501 0.00000000
3.25581410 1.47604952 -0.00135303 0.00000000
3.32451755 0.81293302 -0.00125999 0.00000000
3.87354712 1.18077108 -0.00281431 0.00000000
2.03230745 0.41578249 -0.00183639 0.00000000
2.99543817 0.96405882 0.00063021 0.00000000
2.33856783 0.91818790 -0.00061151 0.00000000
4.06378984 0.00679469 0.00076096 0.00000000
1.55317339 0.46248413 0.00127828 0.00000000
3.83188730 1.46299490 0.00162643 0.00000000
2.61224391 0.74765531 -0.00256638 0.00000000
0.34583733 0.54208830 0.00132158 0.00000000
2.25580163 0.15707420 -0.00063833 0.00000000
1.05028532 0.21674918 -0.00193431 0.00000000
3.14964171 0.01578496 -0.00185120 0.00000000
0.97883537 0.51613921 0.00402894 0.00000000
4.05746692 0.18641126 0.00096112 0.00000000
2.08589190 0.80316615 -0.00241125 0.00000000
1.04569985 0.27084155 0.00390344 0.00000000
1.29735422 0.24201430 -0.00281383 0.00000000
3.75539947 1.28919991 -0.00133662 0.00000000
0.70666867 0.45906037 -0.00064447 0.00000000
4.10167654 0.11372361 -0.00193362 0.00000000
1.99199042 0.39071823 -0.00249174 0.00000000
3.71390756 0.82347584 -0.00261696 0.00000000
2.75446221 1.13099054 0.00207178 0.00000000
0.92285981 1.47176150 0.00066951 0.00000000
0.40710500 1.32937916 -0.00307211 0.00000000
3.28715966 1.26007643 -0.00028982 0.00000000
3.09457743 0.17205836 -0.00168722 0.00000000
3.58495125 0.77955950 -0.00079164 0.00000000
3.70602001 0.36178534 -0.00353774 0.00000000
3.64363072 0.61633783 0.00200730 0.00000000
3.68805650 0.78268143 0.00121369 0.00000000
1.04075205 0.01771883 0.00160958 0.00000000
2.00235940 0.05770262 0.00282099 0.00000000
0.96753402 0.98821794 0.00196486 0.00000000
3.86447431 1.18018223 0.00219350 0.00000000
0.00805876 0.40158945 0.00221833 0.00000000
1.68259431 1.44090974 -0.00026714 0.00000000
1.40158580 1.06883641 -0.00553377 0.00000000
4.22612231 0.25353958 0.00325241 0.00000000
3.31608806 0.32298112 0.00070625 0.00000000
1.66876003 1.09350955 0.00475588 0.00000000
3.86866371 0.34427423 -0.00062077 0.00000000
2.27953469 0.12668999 -0.00323065 0.00000000
2.83596952 0.63346037 0.00241694 0.00000000
1.72263067 1.23037247 0.00286069 0.00000000
2.13162475 0.79128213 -0.00080476 0.00000000
2.53567778 0.21893067 -0.00271226 0.00000000
1.51787143 0.35399150 0.00052884 0.00000000
0.89485079 0.69442962 0.00127342 0.00000000
1.47437459 1.13672166 -0.00029209 0.00000000
1.10108382 0.32093103 -0.00257472 0.00000000
2.65243039 1.01117157 -0.00054787 0.00000000
1.74166995 0.36174002 -0.00231095 0.00000000
2.56498549 0.17042651 0.00287430 0.00000000
1.26508563 1.02024498 0.00045525 0.00000000
4.30050294 0.24344873 -0.00735315 0.00000000
0.28492689 0.63274488 0.00397049 0.00000000
1.75460545 1.10644361 -0.00161730 0.00000000
1.00179882 0.93896664 -0.00056476 0.00000000
2.94769879 1.41027949 -0.00156620 0.00000000
0.55930801 1.03092324 -0.00191987 0.00000000
0.78102058 1.13017487 -0.00482060 0.00000000
3.05801341 0.71135105 0.00121423 0.00000000
1.77521741 1.53672759 -0.00198825 0.00000000
2.57300781 0.88963992 0.00219543 0.00000000
2.16644184 0.64569366 0.00553227 0.00000000
4.01203689 0.92646227 0.00032865 0.00000000
3.79416934 0.58460726 -0.00131323 0.00000000
1.17644778 1.09276455 0.00010528 0.00000000
2.78152208 0.90578511 -0.00117664 0.00000000
1.48176676 0.28675758 -0.00059984 0.00000000
0.83504821 0.96374691 -0.00068535 0.00000000
0.20650479 1.42982529 -0.00026125 0.00000000
1.70512946 0.68278578 -0.00094529 0.00000000
1.32622271 1.38282035 -0.00037525 0.00000000
3.47836267 0.73506264 -0.00163817 0.00000000
2.10955252 0.51109958 -0.00219165 0.00000000
0.07018949 1.32657898 -0.00034627 0.00000000
1.24351763 1.51688145 -0.00135919 0.00000000
4.15133407 0.82068408 0.00147174 0.00000000
2.77288084 0.67062609 0.00498125 0.00000000
2.33209915 0.55436091 0.00296057 0.00000000
3.00144475 0.50438073 -0.00201260 0.00000000
1.49824940 1.01084019 -0.00100267 0.00000000
1.08199576 1.21491097 -0.00034224 0.00000000
0.70315278 0.56138838 0.00184435 0.00000000
1.42620022 1.35612850 -0.00266510 0.00000000
2.86886289 0.96561148 0.00158132 0.00000000
1.32739906 1.47338137 0.00061657 0.00000000
2.38448760 0.70942951 0.00033979 0.00000000
0.07420288 1.16050931 0.00605246 0.00000000
0.06622102 0.33537369 -0.00323534 0.00000000
0.15931442 0.68972737 -0.00306874 0.00000000
1.12459858 0.22345492 0.00067184 0.00000000
1.40508772 1.20485344 0.00046249 0.00000000
2.60821030 1.30420971 0.00085722 0.00000000
1.58207675 1.33601422 0.00396403 0.00000000
1.76062022 0.77195126 -0.00095043 0.00000000
1.10141371 1.42193984 -0.00421661 0.00000000
3.94726433 1.01183683 -0.00391554 0.00000000
2.51044882 0.91214696 0.00409871 0.00000000
1.94368069 0.88687798 0.00166311 0.00000000
1.47569306 1.21359063 -0.00004801 0.00000000
4.02163504 0.03592208 -0.00169199 0.00000000
1.50484103 0.68782901 0.00008544 0.00000000
3.71022561 1.23443104 -0.00161265 0.00000000
1.29593894 0.19195064 -0.00286480 0.00000000
3.05748211 1.10955543 -0.00204470 0.00000000
3.39312345 0.59190505 0.00076540 0.00000000
2.53543297 1.35341771 0.00068197 0.00000000
3.57214530 0.36673512 -0.00237105 0.00000000
3.11540632 1.30724956 -0.00048062 0.00000000
1.94939564 1.29730767 -0.00234211 0.00000000
3.59621151 1.34524017 0.00023251 0.00000000
3.33546967 1.30915953 -0.00015267 0.00000000
3.81543344 0.36454283 0.00218591 0.00000000
3.39483031 0.12760620 -0.00082755 0.00000000
3.18482362 0.09349779 -0.00041983 0.00000000
3.99847986 0.13092739 0.00304583 0.00000000
1.10776774 1.06968376 0.00249699 0.00000000
1.05017070 0.87871121 0.00020137 0.00000000
4.02149600 1.21054646 -0.00127594 0.00000000
3.20585924 0.01357556 -0.00096101 0.00000000
0.83297597 1.32845561 0.00093994 0.00000000
0.84716648 1.00751890 0.00110273 0.00000000
0.49835634 0.49110905 -0.00735143 0.00000000
3.03233275 0.85029113 0.00452056 0.00000000
1.00244226 1.06654318 -0.00193748 0.00000000
1.55498093 0.92675270 -0.00193450 0.00000000
1.40633489 0.09290247 -0.00057690 0.00000000
0.50027203 0.78916633 0.00014671 0.00000000
0.02721148 0.61686134 0.00028876 0.00000000
3.47912537 1.34362910 0.00142249 0.00000000
0.04222619 1.08138456 0.00345357 0.00000000
3.78384869 1.19913217 0.00208775 0.00000000
0.77505367 0.69625300 0.00281125 0.00000000
1.46179714 0.83197310 -0.00320639 0.00000000
1.26272922 1.39515662 -0.00064869 0.00000000
2.55520993 0.99407479 -0.00155657 0.00000000
0.98282943 0.14463952 0.00062016 0.00000000
0.12903851 0.60994861 -0.00360289 0.00000000
4.08110358 1.39457969 -0.00020992 0.00000000
0.28728726 1.46616193 0.00239218 0.00000000
2.39458493 0.06363472 -0.00095182 0.00000000
2.17143190 1.02593793 0.00107012 0.00000000
0.47033039 0.07112774 -0.00206902 0.00000000
3.77429258 0.89872032 -0.00214052 0.00000000
2.02478292 1.36577440 -0.00021238 0.00000000
1.56998850 0.00244599 -0.00185430 0.00000000
3.11535677 1.23433224 -0.00022888 0.00000000
1.85736488 0.44610572 0.00216124 0.00000000
0.62744441 0.67571420 0.00180702 0.00000000
2.28919713 0.08001458 -0.00070291 0.00000000
0.56367397 1.02739636 0.00393557 0.00000000
0.41638372 0.25829019 -0.00137973 0.00000000
0.75668989 0.15139929 -0.00183601 0.00000000
0.77448622 0.05560087 -0.00025093 0.00000000
2.22453074 1.23700498 -0.00113276 0.00000000
1.08968051 1.06019314 -0.00452289 0.00000000
1.45998829 1.38380074 -0.00156883 0.00000000
3.46926880 0.79183809 0.00133215 0.00000000
0.68042852 0.00913624 -0.00088042 0.00000000
0.77462084 0.30565814 0.00264913 0.00000000
4.38575118 0.68961036 -0.00064817 0.00000000
0.47396626 0.72496230 -0.00167305 0.00000000
3.37761554 0.92405653 -0.00220501 0.00000000
0.19599469 0.23265485 -0.00267152 0.00000000
1.65165250 0.21283693 -0.00030986 0.00000000
2.63734650 0.64950793 0.00024938 0.00000000
4.00577133 0.29033802 0.00113471 0.00000000
0.68084865 0.68409812 -0.00529575 0.00000000
3.67409490 0.56296491 0.00128606 0.00000000
4.40250939 0.35050403 -0.00481420 0.00000000
0.61215102 0.30409000 -0.00252118 0.00000000
0.82036149 1.08669632 -0.00623911 0.00000000
1.79691346 0.13035185 0.00263227 0.00000000
3.09806444 1.05627369 0.00068446 0.00000000
2.46592455 0.68665544 0.00088740 0.00000000
4.19116851 0.28337234 -0.00456342 0.00000000
1.80584411 0.37551108 0.00149224 0.00000000
3.48384484 0.65882315 -0.00233952 0.00000000
4.17505049 0.38613833 0.00131438 0.00000000
0.14851655 1.38536111 0.00115978 0.00000000
3.69489024 0.33027974 -0.00107049 0.00000000
0.77010586 0.92994939 -0.00132588 0.00000000
3.17459632 0.22535840 0.00185796 0.00000000
0.86653450 0.44634636 -0.00102618 0.00000000
0.91278695 0.45745914 -0.00248455 0.00000000
3.08457973 0.66882328 0.00107330 0.00000000
0.93941040 0.19724016 0.00556886 0.00000000
3.73066993 0.57249628 -0.00096237 0.00000000
0.77918176 1.15233665 -0.00136984 0.00000000
2.52130011 0.89825922 0.00324042 0.00000000
2.68039636 1.31097493 0.00060306 0.00000000
0.25757523 1.13495860 -0.00654969 0.00000000
2.00811779 1.46123393 -0.00280841 0.00000000
1.80263445 1.34103497 0.00109631 0.00000000
2.88968676 1.19112926 0.00234067 0.00000000
4.33631969 0.16172055 -0.00182247 0.00000000
1.74642741 0.72896144 0.00154294 0.00000000
3.81223286 0.11970287 0.00171575 0.00000000
2.06674477 1.13771869 0.00308664 0.00000000
3.31829709 0.87039232 -0.00087202 0.00000000
3.04254603 0.62524157 -0.00223497 0.00000000
0.06027581 0.67456826 0.00147951 0.00000000
2.52785224 0.07072634 0.00121262 0.00000000
2.70729397 0.08465300 0.00242703 0.00000000
1.86528346 1.35593353 -0.00433504 0.00000000
3.25401493 0.40924264 0.00079806 0.00000000
2.36574844 0.17317952 -0.00094720 0.00000000
1.49719913 1.49864221 0.00435516 0.00000000
0.80607881 1.43279197 0.00112894 0.00000000
4.19107229 1.25929513 -0.00162700 0.00000000
0.70928137 1.04132396 0.00103473 0.00000000
3.75002929 0.67833287 -0.00098797 0.00000000
2.40195883 1.03667419 0.00049882 0.00000000
4.17293183 1.23956073 0.00015259 0.00000000
3.88033055 0.81503984 0.00369043 0.00000000
3.10028626 0.84318233 0.00258500 0.00000000
2.04858692 1.19079202 0.00370342 0.00000000
1.05023319 1.44645621 0.00485700 0.00000000
1.83264578 0.71991633 0.00139416 0.00000000
3.46146928 0.50178342 0.00015768 0.00000000
2.00545200 0.31593486 -0.00003000 0.00000000
1.26218281 0.44509896 0.00405161 0.00000000
0.79499237 0.80227420 0.00267427 0.00000000
3.42179369 0.99462960 -0.00161161 0.00000000
0.67943791 0.23349666 -0.00256435 0.00000000
3.68714311 0.35307791 0.00174321 0.00000000
1.18851108 0.61718372 -0.00383349 0.00000000
1.84950079 0.59284641 -0.00164260 0.00000000
0.51562270 0.58282692 0.00179812 0.00000000
2.57785726 0.18504742 -0.00173828 0.00000000
2.10902961 0.03002933 0.00243224 0.00000000
1.99365552 1.18452120 -0.00003067 0.00000000
3.36982892 0.63616084 -0.00148200 0.00000000
3.69831309 0.78704183 -0.00236182 0.00000000
0.00894798 0.67957092 0.00126820 0.00000000
2.96595514 0.17566235 -0.00090076 0.00000000
0.84274221 0.97012250 -0.00053661 0.00000000
0.72249191 0.84299538 0.00026165 0.00000000
0.68230425 0.68272074 -0.00038659 0.00000000
3.85509353 0.77387285 -0.00172895 0.00000000
4.01362972 0.83125163 0.00079747 0.00000000
2.76877744 1.39111402 -0.00103999 0.00000000
2.57811939 0.54518109 -0.00499586 0.00000000
1.53727611 1.22279704 -0.00120937 0.00000000
1.19310471 1.02589443 -0.00231098 0.00000000
1.09049054 0.58072933 0.00188988 0.00000000
0.38868235 0.45269439 -0.00204681 0.00000000
3.12526686 0.01180553 0.00088903 0.00000000
1.67710810 0.45042226 -0.00301199 0.00000000
3.59566849 0.61821526 -0.00021154 0.00000000
2.49951751 0.18628347 -0.00149791 0.00000000
3.43260348 0.04313073 -0.00084028 0.00000000
1.28868706 0.59793787 -0.00347980 0.00000000
4.27082543 0.84204545 0.00484894 0.00000000
0.26134078 1.52900132 -0.00035179 0.00000000
2.40466215 0.87141674 0.00209126 0.00000000
1.75485171 0.13332163 0.00303698 0.00000000
1.82155985 0.16179600 -0.00212370 0.00000000
1.90622093 0.47427148 -0.00071042 0.00000000
0.20399573 1.08907782 -0.00098410 0.00000000
0.07200573 0.32633169 0.00470894 0.00000000
0.16810703 0.11544362 -0.00213166 0.00000000
2.45273780 0.82400793 0.00205253 0.00000000
4.28396527 1.26949026 -0.00207921 0.00000000
2.86039097 0.61359033 -0.00106998 0.00000000
1.16506715 0.97527871 0.00298069 0.00000000
2.16081195 1.13608428 0.00233224 0.00000000
1.05341617 0.06972440 -0.00097077 0.00000000
0.15036675 1.35997651 -0.00098664 0.00000000
3.88129253 1.13502559 0.00443330 0.00000000
1.31274767 0.94022327 -0.00066086 0.00000000
1.38225546 0.54007929 -0.00004044 0.00000000
1.74641014 0.41163775 -0.00191143 0.00000000
2.17097983 0.49976955 -0.00058799 0.00000000
0.12296593 0.12512214 0.00265098 0.00000000
4.30403288 0.06550108 -0.00128317 0.00000000
1.27579125 1.03339081 0.00117506 0.00000000
1.99083885 0.39410392 0.00124631 0.00000000
0.49476959 0.11295572 -0.00442029 0.00000000
1.34096370 0.96898656 0.00038729 0.00000000
1.39984337 0.72119379 -0.00317879 0.00000000
1.09398563 0.39331555 0.00235593 0.00000000
1.00584903 1.07489010 0.00313323 0.00000000
2.32412947 0.61535397 0.00122709 0.00000000
3.67890120 1.08629387 -0.00102534 0.00000000
0.64351911 1.05662232 -0.00039652 0.00000000
0.66662835 1.38678118 -0.00244461 0.00000000
4.15943866 0.02115505 0.00125191 0.00000000
2.09790087 0.45153668 -0.00194419 0.00000000
3.42569913 1.12447917 -0.00115547 0.00000000
2.14448169 1.28534909 0.00388228 0.00000000
0.13559434 0.12779999 -0.00024709 0.00000000
2.64889846 0.90556493 0.00282163 0.00000000
1.93717740 0.61202995 -0.00454431 0.00000000
1.64500780 0.50125219 0.00280821 0.00000000
2.32155385 1.23641903 0.00216322 0.00000000
3.68905344 0.16691176 0.00346577 0.00000000
2.04671884 0.30273582 -0.00000413 0.00000000
2.84564406 0.00817046 0.00102426 0.00000000
2.15976833 1.33613015 -0.00376308 0.00000000
4.12207875 1.11621407 0.00014765 0.00000000
3.34717350 1.05431670 0.00122196 0.00000000
3.74822237 0.17363087 0.00201713 0.00000000
2.42180669 0.15829966 -0.00384203 0.00000000
3.07730532 0.70811427 -0.00500860 0.00000000
2.50846305 0.09323380 -0.00438823 0.00000000
1.23443670 1.39590380 0.00201656 0.00000000
3.35980191 0.67501521 -0.00399930 0.00000000
2.70780396 0.99907638 0.00045120 0.00000000
0.78998882 0.51992232 -0.00072768 0.00000000
0.60292984 0.78943098 0.00389197 0.00000000
0.86336933 0.99869190 0.00174969 0.00000000
2.97279414 1.04883968 0.00207316 0.00000000
3.03534412 0.05290852 0.00044656 0.00000000
4.23455878 1.11778443 -0.00069666 0.00000000
1.32174802 0.78915788 0.00295256 0.00000000
2.78569721 0.70128326 0.00319085 0.00000000
0.41873098 0.25868216 0.00154440 0.00000000
3.78202250 1.21152476 -0.00351204 0.00000000
2.31337592 0.80946850 -0.00042801 0.00000000
4.08157867 0.51294998 -0.00572570 0.00000000
3.43858429 1.41768086 -0.00260290 0.00000000
0.11192063 0.47131003 -0.00223637 0.00000000
2.25708429 0.04507672 -0.00005433 0.00000000
2.73637874 0.61022709 -0.00346027 0.00000000
1.10898243 1.24137584 -0.00569398 0.00000000
3.19392063 0.38277802 -0.00172973 0.00000000
1.27500705 1.48388267 -0.00238164 0.00000000
0.61628641 1.53376055 -0.00361568 0.00000000
0.41387681 0.73163681 -0.00191408 0.00000000
1.94980375 0.05936127 0.00273307 0.00000000
2.90906118 0.24531487 0.00218752 0.00000000
1.66925972 0.29535111 0.00040365 0.00000000
0.37127820 1.22755040 0.00261656 0.00000000
4.28354211 0.13990563 0.00110778 0.00000000
2.03434876 0.18201639 -0.00039660 0.00000000
3.45700951 1.10984440 0.00153047 0.00000000
2.79395701 0.25264646 -0.00350242 0.00000000
0.73273751 0.87997887 -0.00426097 0.00000000
0.91513015 1.31863050 0.00156010 0.00000000
3.40215675 0.01176759 0.00082883 0.00000000
0.89178671 0.23068675 0.00368100 0.00000000
1.01385513 0.56429959 0.00114470 0.00000000
1.58678073 1.21410396 -0.00357410 0.00000000
2.24066514 0.92650888 0.00072643 0.00000000
1.05673450 0.47388359 -0.00394679 0.00000000
3.13935379 0.26438078 0.00061621 0.00000000
3.39128251 0.79714043 -0.00237596 0.00000000
0.06504954 0.01745340 -0.00057007 0.00000000
4.10062103 0.90861822 0.00316256 0.00000000
1.59915167 1.49350436 0.00266704 0.00000000
0.60502004 1.48377782 -0.00125589 0.00000000
1.93629145 1.05552585 -0.00474587 0.00000000
1.20151695 1.19464229 -0.00049884 0.00000000
2.40393698 0.33569991 0.00102016 0.00000000
0.79079239 0.84362151 0.00278876 0.00000000
2.50077230 1.51681948 -0.00089820 0.00000000
4.27771723 0.45497981 -0.00413358 0.00000000
2.92436761 1.43332396 -0.00057558 0.00000000
2.30522187 1.12156380 0.00287007 0.00000000
4.17900690 0.19772836 0.00404945 0.00000000
3.89657195 1.21828324 -0.00010899 0.00000000
3.57565284 0.71386049 0.00007591 0.00000000
3.70122098 1.38372557 0.00106900 0.00000000
0.13096216 0.73801181 -0.00550435 0.00000000
0.42261890 0.61763861 -0.00007299 0.00000000
3.73812266 0.76920306 -0.00110110 0.00000000
1.38432943 1.08032050 0.00359432 0.00000000
1.55418162 1.49741464 -0.00289255 0.00000000
2.84612808 1.39798770 -0.00306411 0.00000000
0.18699264 0.63118422 0.00172967 0.00000000
2.28829591 1.23052984 0.00041479 0.00000000
4.24025235 0.53786176 0.00341882 0.00000000
1.33074122 0.00563299 -0.00196636 0.00000000
1.63415747 0.25075394 -0.00013144 0.00000000
0.17954468 0.01701008 0.00064473 0.00000000
2.36312116 0.39591016 -0.00004057 0.00000000
4.21604811 0.86889918 -0.00352773 0.00000000
1.64102276 0.97610660 -0.00037830 0.00000000
2.50361180 1.41379573 -0.00189720 0.00000000
2.93845203 1.48862736 0.00044655 0.00000000
3.42013371 0.88614127 0.00175065 0.00000000
3.32577634 1.04493478 0.00063581 0.00000000
3.80510734 0.90638180 0.00225320 0.00000000
1.99495562 0.82707787 -0.00081750 0.00000000
1.01829309 1.46107234 -0.00101725 0.00000000
1.22164800 1.03970986 -0.00533910 0.00000000
3.38644148 0.38121525 -0.00223219 0.00000000
2.97994294 0.25492585 0.00259206 0.00000000
1.64712358 0.58746520 0.00133763 0.00000000
3.91607105 0.56172283 -0.00160548 0.00000000
4.35264742 0.68202749 -0.00132376 0.00000000
3.02108711 0.24758708 -0.00423188 0.00000000
0.50560972 1.49433604 0.00058604 0.00000000
4.11612659 1.35084251 -0.00112430 0.00000000
2.78556924 0.38942125 -0.00105309 0.00000000
2.82840678 0.39946950 -0.00358724 0.00000000
4.00598964 0.28320352 0.00208415 0.00000000
4.31889436 1.31086207 -0.00291694 0.00000000
2.90079514 0.42461546 0.00328244 0.00000000
1.11801663 0.48554105 0.00568774 0.00000000
2.03779607 0.11005708 0.00252796 0.00000000
1.87097823 1.28767534 0.00176113 0.00000000
3.60227962 0.25965104 0.00251845 0.00000000
0.88613713 0.72032035 -0.00344712 0.00000000
0.34956674 0.21581471 -0.00133573 0.00000000
3.17694121 0.53646054 0.00183662 0.00000000
3.03187178 1.08007798 0.00134356 0.00000000
1.57550805 0.31922386 0.00712895 0.00000000
1.53555932 0.02177928 0.00016088 0.00000000
1.31373761 0.31374278 -0.00098680 0.00000000
4.25256026 0.50916543 0.00044419 0.00000000
3.96412563 0.84973769 -0.00108710 0.00000000
1.26516111 0.88368573 -0.00048342 0.00000000
0.97771698 0.01585483 0.00416400 0.00000000
2.57668258 1.30902167 -0.00314482 0.00000000
3.00214436 0.94051335 -0.00036517 0.00000000
2.32287191 0.31884270 -0.00405383 0.00000000
0.73607761 0.17324173 -0.00023424 0.00000000
1.47644043 0.95978862 -0.00130447 0.00000000
0.50148914 0.94039696 -0.00248146 0.00000000
0.21172015 0.48653586 0.00115267 0.00000000
3.51329461 1.43149037 0.00483311 0.00000000
0.54453835 0.29300060 -0.00056529 0.00000000
0.44859422 0.07104995 0.00155018 0.00000000
0.18817865 1.47142970 0.00523267 0.00000000
3.65029772 0.76658480 0.00001599 0.00000000
0.74499941 0.50669802 -0.00048949 0.00000000
1.72516143 0.16424797 0.00474140 0.00000000
0.16043954 0.77323336 -0.00499372 0.00000000
4.35206452 0.36258498 -0.00115428 0.00000000
0.46645034 0.56273293 -0.00044395 0.00000000
3.82409194 0.19839598 0.00058993 0.00000000
3.58880676 0.29236259 -0.00520548 0.00000000
2.00862111 0.81796888 0.00123217 0.00000000
3.41093662 1.24430187 -0.00044315 0.00000000
1.22243096 1.49472261 -0.00212541 0.00000000
2.84784216 0.16861343 -0.00034974 0.00000000
1.51933134 0.30865735 -0.00158784 0.00000000
2.90650224 0.06879638 0.00120883 0.00000000
1.26470825 0.87458992 -0.00005097 0.00000000
2.84382945 1.35429575 0.00362775 0.00000000
4.26975180 1.02718027 0.00256394 0.00000000
0.63469675 0.21394689 0.00577592 0.00000000
2.41690407 0.94027294 -0.00062982 0.00000000
2.90494910 1.20735030 -0.00339941 0.00000000
2.94480600 0.71473803 -0.00178198 0.00000000
2.63058804 1.51258983 0.00277614 0.00000000
0.21256573 0.27558375 0.00349383 0.00000000
0.56274842 0.06221921 -0.00314460 0.00000000
2.00357869 0.31263457 0.00069555 0.00000000
3.76994469 0.72188927 0.00126873 0.00000000
0.32737476 0.52517479 -0.00397348 0.00000000
2.71920746 0.68685253 0.00124116 0.00000000
2.64868771 0.11496880 0.00365821 0.00000000
2.34530073 0.38612481 -0.00131010 0.00000000
3.64166542 0.30678703 -0.00407581 0.00000000
3.41384183 1.28541702 -0.00289020 0.00000000
2.63186289 0.43542365 0.00060024 0.00000000
2.04748252 1.49827661 -0.00070646 0.00000000
2.09304592 0.75215372 0.00162356 0.00000000
4.14055183 0.27331564 -0.00415460 0.00000000
0.88271173 1.49182360 0.00216079 0.00000000
1.33744435 0.30303646 -0.00050493 0.00000000
3.88825018 0.39481687 0.00570220 0.00000000
1.29832606 0.41398433 0.00160003 0.00000000
4.34227173 0.47702938 0.00185685 0.00000000
1.26792929 0.95491269 -0.00146493 0.00000000
1.66638496 0.61997986 0.00056746 0.00000000
0.44874929 1.11253914 0.00045957 0.00000000
2.99513326 0.39049885 -0.00281590 0.00000000
4.05683793 0.40670259 -0.00252597 0.00000000
0.21814732 0.83846517 -0.00078913 0.00000000
2.45515103 0.81081750 0.00071581 0.00000000
2.58475797 0.53648344 -0.00140273 0.00000000
0.69869243 0.63925926 -0.00113297 0.00000000
0.91963123 0.65333164 -0.00179986 0.00000000
0.42974240 1.18108523 -0.00020773 0.00000000
1.79898579 0.80709657 -0.00207604 0.00000000
2.34583492 1.12960423 0.00224539 0.00000000
2.52354796 0.76859972 0.00093826 0.00000000
2.30099444 0.30569833 0.00370688 0.00000000
1.29435664 0.14986663 -0.00093091 0.00000000
3.08544462 1.34355275 0.00066740 0.00000000
1.70282689 0.65079343 0.00138599 0.00000000
1.81690020 1.36455390 0.00102357 0.00000000
4.28819867 0.24857043 0.00469236 0.00000000
0.70506912 1.14893830 -0.00076857 0.00000000
3.49595431 0.84835273 -0.00098032 0.00000000
1.85618172 0.81723359 0.00140493 0.00000000
0.94807112 1.42463898 0.00161301 0.00000000
3.48540488 0.68903901 -0.00200955 0.00000000
1.04900764 0.95843144 -0.00169795 0.00000000
0.04889225 0.20425125 0.00425296 0.00000000
0.34194935 0.04524209 -0.00166835 0.00000000
4.11114467 1.04759443 0.00153292 0.00000000
3.55405704 0.46594735 0.00051640 0.00000000
0.19646137 1.22964948 -0.00106949 0.00000000
2.24353198 1.44266334 -0.00304241 0.00000000
2.03475431 1.38669801 0.00027618 0.00000000
2.14860745 0.24678180 0.00064679 0.00000000
1.09620165 0.10338574 -0.00297065 0.00000000
0.24295693 0.69822789 -0.00773992 0.00000000
0.23272193 0.17010591 0.00041424 0.00000000
0.75009218 0.37497184 -0.00342512 0.00000000
1.93489085 0.61983477 -0.00004277 0.00000000
3.89501750 1.36533947 -0.00032253 0.00000000
1.58618571 0.40601402 0.00264665 0.00000000
4.38118513 1.07879447 -0.00792786 0.00000000
3.24268318 0.61896506 -0.00107133 0.00000000
1.78946373 0.77759009 0.00162187 0.00000000
1.38010363 0.23913778 -0.00095203 0.00000000
1.63853448 0.55203236 0.00486135 0.00000000
1.19664460 1.03759278 -0.00120600 0.00000000
0.04633548 0.86121805 -0.00479402 0.00000000
2.72939145 1.49557789 0.00014697 0.00000000
0.69337280 0.33367745 -0.00448666 0.00000000
4.04378782 0.95144887 -0.00127916 0.00000000
2.22853900 0.19029704 -0.00141209 0.00000000
1.70029839 1.36004991 -0.00078438 0.00000000
2.16576597 1.00572556 0.00241636 0.00000000
1.99044510 0.35242167 0.00152455 0.00000000
2.27287181 0.84987577 0.00015156 0.00000000
1.54323875 0.72697089 0.00153900 0.00000000
2.19037901 0.85673651 0.00208310 0.00000000
0.64265209 0.41544477 0.00300175 0.00000000
3.12213144 1.03244969 0.00081452 0.00000000
3.72336278 0.23576283 -0.00521076 0.00000000
0.23386053 0.96960724 0.00412179 0.00000000
2.42513974 0.79384334 -0.00050351 0.00000000
3.44607448 0.05709643 -0.00467415 0.00000000
1.30182768 1.32774362 -0.00339630 0.00000000
3.61185922 1.17768052 -0.00151919 0.00000000
0.64668865 0.18230593 -0.00019422 0.00000000
0.06022495 1.46250102 0.00133295 0.00000000
2.26752387 0.96151397 -0.00412530 0.00000000
3.70812182 1.17547971 -0.00225520 0.00000000
1.71275234 0.11195735 -0.00254163 0.00000000
0.88145545 0.44527330 -0.00089121 0.00000000
0.49013816 0.22322496 0.00284155 0.00000000
1.06738516 0.67368869 0.00168984 0.00000000
3.62656096 0.01920517 -0.00124983 0.00000000
4.16835951 0.81056238 0.00126610 0.00000000
4.11788154 0.14614387 -0.00089129 0.00000000
3.24016329 1.17503702 0.00010891 0.00000000
0.59313214 1.29576442 0.00440031 0.00000000
0.82946197 1.48449111 -0.00162642 0.00000000
1.16119830 0.81217772 -0.00215926 0.00000000
1.52671211 0.20927685 -0.00031301 0.00000000
2.51242833 1.33320280 -0.00134211 0.00000000
4.09113304 1.53297340 -0.00001000 0.00000000
3.78469227 1.11166555 -0.00559230 0.00000000
0.38360260 1.35649160 -0.00171068 0.00000000
1.77596623 0.08469471 0.00284647 0.00000000
3.16496656 0.93781788 -0.00240200 0.00000000
2.87973767 0.28458802 0.00165029 0.00000000
1.18615290 0.69447594 0.00218533 0.00000000
3.78628144 0.37529127 0.00257490 0.00000000
1.26024129 0.19336629 -0.00286728 0.00000000
2.54765067 1.24145851 0.00190684 0.00000000
3.57632143 0.33541901 0.00065532 0.00000000
4.35439041 0.38105023 -0.00063472 0.00000000
3.03889206 0.71463930 -0.00132415 0.00000000
1.98887426 0.18413377 -0.00378902 0.00000000
1.63493973 0.62121747 0.00039322 0.00000000
0.09234549 0.78777642 0.00026473 0.00000000
1.19696898 0.01415372 -0.00165507 0.00000000
4.30342555 0.99763039 -0.00157036 0.00000000
1.29233890 0.04228003 -0.00349561 0.00000000
0.42555512 0.55369812 0.00126521 0.00000000
3.93149994 1.38956188 0.00316727 0.00000000
1.24515973 1.09830215 -0.00049958 0.00000000
2.06732405 0.71573528 0.00027977 0.00000000
1.51865984 1.53639463 0.00354144 0.00000000
0.62166980 0.84332874 0.00209400 0.00000000
2.83817539 1.00775824 -0.00400480 0.00000000
3.68816988 0.35802059 0.00627996 0.00000000
0.66556573 0.54323776 0.00253349 0.00000000
2.94647180 0.07149364 0.00167846 0.00000000
3.70229263 0.18736740 0.00295020 0.00000000
3.24752523 1.06489373 -0.00293967 0.00000000
1.09511971 0.12976820 -0.00346122 0.00000000
3.73888791 0.50679336 -0.00167639 0.00000000
4.23040853 0.05124563 -0.00271747 0.00000000
4.05885412 1.22731362 -0.00209050 0.00000000
3.61837061 1.02106533 0.00170412 0.00000000
0.92722447 0.87901440 -0.00424154 0.00000000
4.11598968 0.69487024 0.00314456 0.00000000
4.08269495 0.89691330 0.00161394 0.00000000
2.69952192 0.52331883 -0.00030678 0.00000000
3.80537987 0.79255788 0.00249514 0.00000000
3.34855170 0.90335720 -0.00109262 0.00000000
0.17123185 1.27628953 0.00031865 0.00000000
3.41585999 0.54460680 -0.00420127 0.00000000
1.70805339 0.21093551 0.00078626 0.00000000
3.79961881 0.63406650 -0.00097488 0.00000000
4.32529646 1.24257478 -0.00228484 0.00000000
3.91892936 1.17106636 0.00106057 0.00000000
1.60635077 0.37392687 0.00324143 0.00000000
3.14235881 0.20170602 0.00040248 0.00000000
3.17588614 1.09741621 -0.00064368 0.00000000
0.18865539 0.11511276 0.00096476 0.00000000
1.57438641 1.51081803 -0.00146943 0.00000000
3.86370733 0.73586441 0.00054884 0.00000000
1.31570018 0.30406904 -0.00192382 0.00000000
1.12831494 1.20967244 -0.00102273 0.00000000
1.32512416 0.07574822 -0.00014479 0.00000000
0.74584563 0.33404013 0.00133558 0.00000000
2.02678705 0.02465569 0.00057316 0.00000000
2.07575644 0.26927528 -0.00251466 0.00000000
0.26927069 1.07851842 -0.00350981 0.00000000
4.19872769 0.62123661 -0.00270215 0.00000000
2.49658061 0.13990835 0.00027441 0.00000000
0.84677563 1.47163631 0.00056501 0.00000000
4.14587109 1.19970218 -0.00171599 0.00000000
0.19794554 0.76458622 0.00310776 0.00000000
4.33776653 0.22431429 -0.00425727 0.00000000
4.27125898 0.75468208 -0.00013797 0.00000000
2.94144712 0.41133321 0.00286417 0.00000000
3.03067560 1.10660517 -0.00166899 0.00000000
4.37149670 0.31493012 -0.00423896 0.00000000
3.49837279 0.51205199 0.00343397 0.00000000
0.67489852 0.25679456 0.00003485 0.00000000
3.48298183 0.44087674 -0.00526277 0.00000000
2.68608764 0.75185680 -0.00033728 0.00000000
1.38399796 1.30278141 -0.00250239 0.00000000
3.09270471 0.09730341 -0.00205055 0.00000000
1.17587950 1.22223345 0.00315027 0.00000000
2.55821568 0.67098444 -0.00231077 0.00000000
2.68195982 1.30013057 0.00379030 0.00000000
1.29542540 1.16079995 -0.00104336 0.00000000
0.51836084 1.38965658 -0.00021002 0.00000000
4.03803501 1.24262953 0.00028387 0.00000000
2.57198840 0.78619159 0.00244864 0.00000000
2.77646248 1.19507402 -0.00132909 0.00000000
2.66889102 0.51855942 0.00194575 0.00000000
2.38282647 0.48932547 0.00013290 0.00000000
3.21034687 0.61251403 -0.00141710 0.00000000
1.03984388 0.06574452 -0.00206478 0.00000000
2.77111240 1.21641071 0.00360931 0.00000000
4.12777129 0.15035847 0.00042870 0.00000000
4.02720649 0.92964230 0.00500405 0.00000000
0.92850126 0.96535328 0.00175284 0.00000000
0.02184367 1.23282000 0.00091694 0.00000000
3.17820852 0.89630110 -0.00126861 0.00000000
1.05554753 0.10389571 -0.00523478 0.00000000
4.10929576 0.07226685 0.00414164 0.00000000
2.14439581 0.82630367 0.00085375 0.00000000
3.26247307 1.44220732 0.00234989 0.00000000
0.17338984 1.10094360 -0.00239940 0.00000000
1.17749766 0.31561451 0.00081810 0.00000000
3.88688079 1.39823618 -0.00186379 0.00000000
0.57320393 0.75154091 -0.00248119 0.00000000
1.93324917 0.22418435 -0.00608035 0.00000000
3.07384109 0.66555637 0.00019442 0.00000000
2.12138113 0.57508017 0.00263167 0.00000000
3.70468860 0.69631841 -0.00032439 0.00000000
3.83627413 0.25013325 -0.00798424 0.00000000
0.72548744 0.81281270 0.00353326 0.00000000
0.40361554 0.84272955 -0.00178529 0.00000000
3.12715179 1.05942752 -0.00034199 0.00000000
3.53177136 0.88842244 -0.00321727 0.00000000
1.28932500 1.07788380 -0.00443113 0.00000000
2.83968843 0.58222399 0.00367340 0.00000000
0.60624203 1.04005747 0.00052096 0.00000000
3.00457652 1.05651621 0.00487838 0.00000000
1.21977958 1.38832551 -0.00222025 0.00000000
0.19571795 1.05342998 -0.00634949 0.00000000
1.69809625 0.56636642 0.00301175 0.00000000
0.32778016 1.29306538 0.00510649 0.00000000
0.48150179 0.82062179 0.00362870 0.00000000
2.13101326 0.97588710 0.00391341 0.00000000
0.78735350 0.04825647 -0.00450605 0.00000000
1.84952036 0.00363190 0.00048981 0.00000000
4.29047667 1.20731819 0.00081233 0.00000000
3.33044307 0.45844914 -0.00294441 0.00000000
1.89087195 0.98814691 -0.00144951 0.00000000
1.58616614 0.18339271 -0.00022871 0.00000000
0.56192546 0.82926363 0.00088228 0.00000000
1.31891610 1.31080153 -0.00203802 0.00000000
1.05231047 0.08916620 0.00237021 0.00000000
1.02812273 0.04804247 -0.00119294 0.00000000
2.83608873 0.67941292 0.00364518 0.00000000
3.55464433 0.93034398 0.00652553 0.00000000
2.11697461 0.05261370 0.00209704 0.00000000
0.50838473 0.09891861 0.00303821 0.00000000
2.26810567 0.50982564 0.00173471 0.00000000
4.39983964 0.48429893 0.00301713 0.00000000
3.80321131 0.74458113 -0.00488826 0.00000000
0.41247343 0.72966930 -0.00239899 0.00000000
3.22035794 1.10405513 0.00279269 0.00000000
2.33047137 0.67279363 0.00131349 0.00000000
2.88021412 0.00581146 -0.00103081 0.00000000
1.25542882 0.71124684 0.00317504 0.00000000
2.53813851 0.97612449 -0.00315786 0.00000000
3.98031404 0.90278627 0.00168241 0.00000000
0.56483136 0.40226207 0.00290146 0.00000000
4.32367930 0.59174296 0.00088785 0.00000000
2.34294014 0.90505379 -0.00182416 0.00000000
0.93410033 0.20614412 0.00251353 0.00000000
2.77559785 1.20743849 -0.00006166 0.00000000
0.46283572 0.90394641 0.00031304 0.00000000
4.11009150 1.41816963 -0.00233958 0.00000000
2.06656127 0.23558364 -0.00036109 0.00000000
3.88335258 1.52159252 0.00105026 0.00000000
1.18167464 0.29431635 0.00080232 0.00000000
3.25073204 1.22239647 -0.00129188 0.00000000
0.53658825 1.32083729 -0.00503078 0.00000000
3.35725951 0.65194314 0.00087046 0.00000000
3.75831360 1.28777520 0.00080634 0.00000000
1.63664433 1.23699706 -0.00347866 0.00000000
1.82187016 1.39200834 0.00414667 0.00000000
4.39886731 0.96478484 0.00323433 0.00000000
2.67789482 0.73327630 -0.00131566 0.00000000
1.96855955 1.09727737 0.00330436 0.00000000
0.99286523 0.98185427 0.00282184 0.00000000
2.38149750 1.48317381 -0.00338249 0.00000000
4.03579909 0.44491914 -0.00093557 0.00000000
1.09024347 0.01831020 0.00308909 0.00000000
1.35329078 0.38697583 0.00366265 0.00000000
2.10617447 0.97893627 0.00289747 0.00000000
2.17473226 0.10139921 0.00015226 0.00000000
0.61807566 0.96599788 -0.00059279 0.00000000
1.20788809 0.38403045 -0.00480671 0.00000000
0.72687775 0.01539363 0.00193075 0.00000000
3.01178729 0.94754810 0.00132206 0.00000000
1.37616780 1.10570165 -0.00113700 0.00000000
1.56065651 0.85093512 0.00370500 0.00000000
2.48902462 0.19315017 0.00218354 0.00000000
1.19879531 1.11036820 0.00176157 0.00000000
4.09492294 1.21884739 -0.00213688 0.00000000
0.74915815 1.46727475 0.00118627 0.00000000
4.34117979 1.46771736 0.00497139 0.00000000
0.06768441 0.16863753 0.00279090 0.00000000
2.86447026 0.01248152 -0.00279441 0.00000000
2.40948527 0.47139942 -0.00317978 0.00000000
4.19385236 1.08014955 -0.00567095 0.00000000
2.15615764 0.98009015 0.00181468 0.00000000
4.14689092 0.08153542 0.00441453 0.00000000
0.74517629 0.22921950 0.00098074 0.00000000
3.68259877 0.47589793 0.00204575 0.00000000
1.79069921 0.10820529 0.00172675 0.00000000
1.42442480 1.02622397 0.00209066 0.00000000
4.37143036 0.56532023 -0.00558802 0.00000000
1.76336826 1.35081233 0.00087918 0.00000000
0.47233194 0.76695751 0.00298606 0.00000000
0.98863910 0.39068000 -0.00003880 0.00000000
2.52026658 0.36873853 -0.00601901 0.00000000
0.44569851 0.84353210 -0.00102759 0.00000000
3.55475529 0.21036660 -0.00091776 0.00000000
4.22146197 0.17756491 0.00123931 0.00000000
3.51762684 0.89110012 0.00160762 0.00000000
1.18188457 0.10224285 -0.00211104 0.00000000
4.24386115 0.96772603 0.00054705 0.00000000
3.38683987 1.06384165 0.00173343 0.00000000
2.63296858 0.52037345 0.00200986 0.00000000
0.98683991 0.42679474 0.00216085 0.00000000
3.20342171 1.24034448 -0.00396728 0.00000000
0.15278453 1.52186012 -0.00024357 0.00000000
2.55076809 0.05312927 -0.00002081 0.00000000
2.13830388 1.05004397 -0.00220488 0.00000000
4.22121235 1.43372176 0.00054019 0.00000000
0.19734255 0.71681667 0.00389697 0.00000000
0.91830413 0.79249501 0.00156657 0.00000000
4.37819539 1.43063603 0.00123487 0.00000000
1.38824635 0.83349253 0.00014590 0.00000000
3.67989937 0.62270273 -0.00320867 0.00000000
3.56030930 1.51124754 -0.00466356 0.00000000
2.91088611 1.06324638 0.00007152 0.00000000
2.27691307 1.14436678 -0.00268467 0.00000000
0.25887979 1.42356236 0.00297270 0.00000000
2.23809562 0.70144659 0.00094383 0.00000000
1.24945155 0.60917879 0.00135544 0.00000000
0.32988207 1.44640067 -0.00102853 0.00000000
3.49061387 0.49935094 -0.00106712 0.00000000
1.31918384 1.18555626 -0.00162075 0.00000000
2.12973342 0.12082883 -0.00218879 0.00000000
3.34922634 1.48611237 0.00170632 0.00000000
1.87067939 1.32528551 0.00105192 0.00000000
1.32392969 1.16141234 -0.00312925 0.00000000
3.17245448 0.20160627 0.00066080 0.00000000
1.28783730 0.07429242 0.00143835 0.00000000
0.77936704 0.51719361 0.00272669 0.00000000
4.35605846 0.29472716 -0.00093580 0.00000000
0.46596822 1.30976269 -0.00451328 0.00000000
2.92962791 0.58520053 0.00735199 0.00000000
2.19616940 0.26407085 -0.00680211 0.00000000
1.17490035 0.94008041 -0.00324684 0.00000000
0.96149133 0.04677186 0.00030419 0.00000000
1.75814736 0.80602405 0.00347791 0.00000000
1.19185478 0.12478269 0.00357769 0.00000000
1.52463012 0.60258178 0.00068375 0.00000000
1.20052597 0.86875355 0.00176118 0.00000000
0.87761809 0.79910526 -0.00003662 0.00000000
4.24159355 0.09484795 0.00127288 0.00000000
3.50620107 0.34971500 0.00152190 0.00000000
3.29039096 0.64478798 0.00200145 0.00000000
2.23470801 0.83437999 0.00008452 0.00000000
2.83041121 0.34717345 -0.00060797 0.00000000
2.52730567 0.68992185 0.00100640 0.00000000
3.61250646 1.17746145 -0.00113566 0.00000000
3.55251448 0.17707683 -0.00273262 0.00000000
3.11108659 1.14874724 -0.00622232 0.00000000
3.11210815 0.58330998 0.00173721 0.00000000
2.65350129 1.07227577 -0.00498295 0.00000000
3.97449245 0.06137519 0.00058481 0.00000000
3.51101796 0.01103945 -0.00057980 0.00000000
2.60927700 0.33787303 -0.00226506 0.00000000
3.63053053 1.36549614 -0.00032343 0.00000000
0.67939191 0.03554756 0.00178035 0.00000000
3.83843301 0.95558151 0.00002708 0.00000000
0.42779493 0.18371268 -0.00178360 0.00000000
1.24356923 0.33362324 0.00109297 0.00000000
2.16705732 0.54290207 0.00135737 0.00000000
0.81327022 0.59144389 0.00155181 0.00000000
2.85558859 0.87835872 0.00439365 0.00000000
3.44911870 0.56938601 -0.00210250 0.00000000
3.06986626 0.26884118 -0.00019852 0.00000000
3.48403479 0.88898239 0.00221866 0.00000000
0.50406435 1.16713725 0.00177619 0.00000000
3.99909069 0.22223466 -0.00148543 0.00000000
2.11615851 1.32466812 -0.00443160 0.00000000
2.60696677 0.09491230 0.00101514 0.00000000
1.48626743 0.63163940 0.00122050 0.00000000
1.62990777 0.79594271 -0.00131772 0.00000000
4.30970206 0.19394261 0.00367986 0.00000000
3.51065879 1.51939677 0.00161706 0.00000000
3.69211202 0.57889558 0.00489946 0.00000000
0.00182579 1.41461021 0.00137530 0.00000000
2.26396760 0.69276488 -0.00033046 0.00000000
0.30930001 0.31834730 0.00378434 0.00000000
0.43697943 1.22151409 0.00174674 0.00000000
4.18980744 0.29370127 -0.00013369 0.00000000
2.00067229 0.73686959 -0.00600985 0.00000000
2.68958820 0.51993111 -0.00062853 0.00000000
3.13239388 0.91613895 0.00492607 0.00000000
1.09212045 0.69256226 -0.00095331 0.00000000
0.11259396 0.13390566 0.00234939 0.00000000
2.34717200 0.00836271 0.00116705 0.00000000
2.66125732 1.46770441 -0.00343714 0.00000000
0.13604968 0.08021561 -0.00272762 0.00000000
0.66321179 0.50624910 0.00008113 0.00000000
1.46193998 1.52850566 -0.00224323 0.00000000
3.91214519 0.27382676 -0.00331767 0.00000000
1.94581302 1.25966415 0.00076520 0.00000000
4.26925915 0.85317384 -0.00189050 0.00000000
1.10192895 0.12205550 -0.00147714 0.00000000
0.73187386 0.63638651 0.00275424 0.00000000
2.83930750 1.37530211 0.00198602 0.00000000
1.85457032 1.02363416 -0.00049352 0.00000000
2.34045508 0.11360574 0.00250476 0.00000000
0.04688040 1.48776875 0.00471026 0.00000000
3.59250557 0.49573717 0.00347181 0.00000000
3.78098612 1.40214892 0.00262583 0.00000000
1.48426529 1.18991440 -0.00491841 0.00000000
0.08337490 0.28082017 -0.00435136 0.00000000
1.49795082 0.49485378 -0.00109975 0.00000000
1.04115179 1.51168825 0.00066702 0.00000000
2.60656607 0.51753641 0.00389541 0.00000000
2.28732051 1.13864212 0.00097985 0.00000000
3.84161038 0.73179070 -0.00071785 0.00000000
3.18916610 0.75561383 0.00435411 0.00000000
3.79738632 0.45393187 -0.00279521 0.00000000
3.76068621 1.33313975 0.00147454 0.00000000
4.22761502 1.10258083 -0.00231873 0.00000000
0.71337012 0.13068280 0.00257248 0.00000000
4.07605797 1.08912929 -0.00371623 0.00000000
1.58397302 0.78653360 0.00072528 0.00000000
0.97049800 0.72951259 0.00056336 0.00000000
3.29099129 0.17848063 0.00001541 0.00000000
1.50435350 0.62545921 -0.00507145 0.00000000
1.72617586 0.42622805 0.00050955 0.00000000
1.99144700 1.30548050 0.00028556 0.00000000
2.39489786 0.74737455 0.00028444 0.00000000
0.87678491 0.01486181 -0.00039498 0.00000000
0.57102181 0.63842185 0.00509825 0.00000000
2.82030931 0.13547692 -0.00075582 0.00000000
2.08853840 0.68603644 0.00067414 0.00000000
3.87620247 0.98317328 0.00463125 0.00000000
2.15188355 0.88418785 0.00493419 0.00000000
0.54070668 0.10405857 0.00102421 0.00000000
2.77143446 0.05875564 -0.00293411 0.00000000
2.81346958 1.08429915 0.00283447 0.00000000
2.77537376 0.42469864 -0.00105895 0.00000000
3.40864533 0.53771072 -0.00228012 0.00000000
2.12105560 0.24855481 -0.00108743 0.00000000
4.21314672 0.65207704 -0.00439502 0.00000000
0.81079434 0.49075660 -0.00243293 0.00000000
0.65796210 0.47785536 -0.00401272 0.00000000
1.99300762 1.27872180 0.00481971 0.00000000
3.92107325 1.13968822 -0.00240835 0.00000000
0.97256896 0.34496586 0.00074801 0.00000000
2.14791312 0.86875831 0.00454271 0.00000000
4.28567099 1.29608541 0.00013894 0.00000000
0.19813744 0.82572610 -0.00456495 0.00000000
1.12317261 0.97000827 0.00578262 0.00000000
0.03801416 0.33977693 0.00345096 0.00000000
4.12407487 1.07726080 -0.00508682 0.00000000
2.76885153 0.89613204 -0.00197813 0.00000000
2.98287176 0.56450122 -0.00139123 0.00000000
0.32940419 0.18203187 0.00405897 0.00000000
4.09711767 0.84625924 -0.00113648 0.00000000
1.13871005 0.22486894 -0.00327256 0.00000000
3.02152810 0.63299145 -0.00013254 0.00000000
3.64478398 1.27862732 0.00268222 0.00000000
0.09591667 0.76037825 0.00234575 0.00000000
1.61281477 0.57833619 -0.00245264 0.00000000
2.22951536 0.91226220 -0.00416898 0.00000000
3.67770437 1.43800179 -0.00172320 0.00000000
2.02190756 0.02485338 0.00145237 0.00000000
0.03448783 0.90528616 0.00136430 0.00000000
2.37747420 1.23489782 -0.00003720 0.00000000
4.12299377 0.17539533 -0.00401078 0.00000000
2.67701426 1.36197103 0.00289294 0.00000000
1.39116936 1.41873672 -0.00043420 0.00000000
3.89715601 0.61243258 0.00775848 0.00000000
1.57163670 0.69893250 0.00153100 0.00000000
2.83000774 0.18756399 0.00018307 0.00000000
2.50947953 0.77759351 0.00262963 0.00000000
3.65804860 0.55074709 -0.00132689 0.00000000
0.38846827 0.15506830 -0.00068175 0.00000000
1.71797669 0.36142859 -0.00121198 0.00000000
4.38439057 0.83874182 0.00174433 0.00000000
3.35306710 0.50105551 0.00221155 0.00000000
3.42001047 1.52271187 0.00350684 0.00000000
1.93556920 0.26184920 -0.00451344 0.00000000
0.86971512 0.34630132 -0.00115343 0.00000000
0.87182234 1.28087934 0.00105357 0.00000000
0.85751487 1.16971208 -0.00413793 0.00000000
0.18806552 1.21780746 0.00292585 0.00000000
1.06021154 1.24054886 0.00027787 0.00000000
3.99027431 0.24754828 0.00096216 0.00000000
0.15477315 0.44392181 0.00675786 0.00000000
1.10656165 1.03615713 -0.00176272 0.00000000
1.46652115 1.02452477 -0.00139051 0.00000000
2.46057937 0.00243560 0.00210179 0.00000000
3.73795399 0.96492224 -0.00084308 0.00000000
0.58709155 1.06881409 -0.00011724 0.00000000
4.09019712 0.00885439 0.00381115 0.00000000
2.47849974 0.06499035 0.00088432 0.00000000
1.56428728 0.22768045 -0.00105639 0.00000000
0.80331485 0.85064320 -0.00067776 0.00000000
2.67695994 0.93783223 -0.00397657 0.00000000
3.77773856 1.19896963 -0.00044861 0.00000000
0.40271349 0.26508589 0.00228069 0.00000000
3.06709830 1.33437604 0.00366606 0.00000000
1.89069563 0.19400034 0.00132640 0.00000000
1.80637937 1.31390774 -0.00444396 0.00000000
2.75884924 1.41630236 -0.00155190 0.00000000
0.91997380 0.88589829 -0.00254933 0.00000000
0.39093702 1.34575912 -0.00346552 0.00000000
3.18225381 0.07822278 -0.00082740 0.00000000
0.96960175 0.54603501 -0.00324411 0.00000000
3.96276488 1.30906462 0.00056088 0.00000000
4.33973526 1.32836298 -0.00228732 0.00000000
2.34476500 0.15642186 -0.00232641 0.00000000
1.59920137 0.63826450 -0.00016029 0.00000000
2.69385290 0.01023447 -0.00185599 0.00000000
1.07430214 1.50072078 0.00113267 0.00000000
4.13312060 0.55504559 0.00522631 0.00000000
2.72971194 0.83091483 0.00217441 0.00000000
