3.212688 0.913153 0.000586 0.0
1.776299 1.053470 -0.000942 0.0
0.707131 0.955767 -0.002295 0.0
3.791828 0.208640 0.000685 0.0
4.060570 1.056844 0.000516 0.0
4.312182 0.980410 0.002045 0.0
4.003877 0.972717 0.002106 0.0
1.799632 0.614953 0.000787 0.0
2.498047 1.725211 -0.000165 0.0
3.511556 0.480971 0.001367 0.0
3.767510 1.260115 -0.000801 0.0
0.034689 1.736590 0.000978 0.0
3.611180 0.943342 0.005038 0.0
2.642994 1.481577 -0.001694 0.0
1.654539 0.328701 0.001858 0.0
2.405006 0.583151 0.000103 0.0
0.338184 1.835434 -0.000023 0.0
1.048715 1.462452 0.000237 0.0
3.117416 1.482682 0.001969 0.0
4.228556 0.587111 -0.003615 0.0
1.051868 0.134689 -0.001030 0.0
0.983839 1.653919 0.002940 0.0
0.944866 0.682698 0.000885 0.0
1.987899 0.995319 0.000900 0.0
1.053756 1.575647 0.003232 0.0
2.458259 1.094708 -0.003208 0.0
4.096994 1.510181 -0.002310 0.0
0.861990 1.430755 0.003208 0.0
1.722607 0.622832 0.002476 0.0
4.328643 1.310673 -0.000204 0.0
4.638944 1.818789 -0.000440 0.0
0.407553 1.061925 0.000795 0.0
3.129445 0.366522 0.002150 0.0
0.849269 1.309402 -0.001775 0.0
2.443767 1.577875 -0.001218 0.0
1.164635 0.358948 -0.004113 0.0
1.309814 1.328085 0.004136 0.0
4.052921 1.349735 -0.002340 0.0
4.466404 0.080893 -0.001313 0.0
4.587236 0.782627 0.001916 0.0
1.958967 0.014562 -0.004108 0.0
0.098551 0.396351 0.002090 0.0
0.187912 1.558822 0.002541 0.0
1.623296 1.718198 0.002534 0.0
2.721418 0.593265 -0.002730 0.0
1.693326 1.108875 0.000167 0.0
4.668708 1.300929 0.001453 0.0
0.489989 1.712285 -0.000882 0.0
1.789967 0.292045 -0.002600 0.0
2.552676 0.370008 0.003051 0.0
3.185203 1.580447 0.000218 0.0
3.388966 1.702048 -0.003732 0.0
1.601802 0.053747 -0.000913 0.0
3.577706 1.610860 -0.001840 0.0
0.001858 1.503279 -0.000520 0.0
1.363695 0.379789 -0.000268 0.0
3.083438 1.325620 0.003171 0.0
0.706449 0.383360 0.002085 0.0
2.173284 1.596231 -0.002074 0.0
2.113709 1.590565 -0.005871 0.0
0.577419 0.793788 -0.000363 0.0
0.510829 1.420006 0.000035 0.0
0.703059 1.152466 0.000157 0.0
1.787446 1.514881 -0.001763 0.0
3.014522 1.264188 0.003266 0.0
1.089973 0.457970 -0.003165 0.0
3.851355 1.350942 -0.002868 0.0
2.761058 0.184927 -0.002575 0.0
0.509823 1.282576 -0.000580 0.0
3.846911 0.279240 -0.001962 0.0
2.851634 0.797770 0.002469 0.0
3.775659 1.335132 0.000252 0.0
3.856872 0.862326 -0.001648 0.0
4.157536 0.782826 -0.002093 0.0
2.847494 0.836217 -0.004792 0.0
4.301802 1.112732 -0.002178 0.0
1.628431 1.781276 0.001100 0.0
3.518962 1.240332 -0.001735 0.0
3.057309 1.680932 0.005011 0.0
0.854116 1.606157 -0.002795 0.0
4.042109 1.296058 0.002523 0.0
3.185293 1.582528 0.000361 0.0
1.084950 1.837433 0.001487 0.0
1.773358 0.766870 0.001444 0.0
2.978533 0.051470 -0.000495 0.0
1.420132 1.310025 0.000877 0.0
3.815776 1.196559 0.001111 0.0
4.092113 0.869555 0.000164 0.0
1.572097 0.356728 0.004028 0.0
0.745609 0.294284 -0.003129 0.0
0.264973 1.840331 -0.004785 0.0
4.420071 0.748249 -0.002307 0.0
3.183312 0.385593 0.000429 0.0
4.035945 0.057102 0.002894 0.0
4.297822 0.409967 -0.001272 0.0
2.830565 1.772620 -0.000592 0.0
2.408612 0.727025 0.002163 0.0
3.396764 0.490842 -0.002961 0.0
1.472318 1.154819 -0.001679 0.0
1.203586 1.085810 0.002414 0.0
2.333910 0.595337 0.005246 0.0
2.148111 1.238571 -0.002688 0.0
1.996094 0.113751 -0.003267 0.0
4.286733 1.624443 -0.002550 0.0
2.394482 0.284495 0.000106 0.0
1.260026 1.248192 0.001338 0.0
1.113502 1.788873 -0.002450 0.0
0.237439 0.695862 0.002655 0.0
0.215619 0.518259 -0.000355 0.0
1.301247 1.421362 0.000626 0.0
4.654674 0.453447 -0.002714 0.0
0.094426 1.389731 -0.004680 0.0
2.352736 0.249677 0.002770 0.0
0.404273 1.312486 -0.001400 0.0
2.948767 0.923642 -0.005362 0.0
4.281080 0.389851 0.000215 0.0
2.269463 0.748747 -0.000340 0.0
1.836054 0.734050 -0.000367 0.0
0.927586 1.201498 -0.002086 0.0
2.843847 0.667380 -0.002923 0.0
3.706527 1.847265 -0.003278 0.0
0.980110 0.154665 -0.000212 0.0
2.205450 1.044438 -0.002294 0.0
3.489125 1.366378 -0.000834 0.0
2.038185 0.417541 0.002943 0.0
1.740100 1.835601 0.003359 0.0
4.438060 0.431888 0.003263 0.0
1.965023 1.577759 0.001298 0.0
3.576452 1.803648 0.000181 0.0
1.879224 1.183303 -0.002659 0.0
0.379028 0.931813 -0.000410 0.0
1.625493 0.994240 -0.001841 0.0
3.787466 1.120243 0.003299 0.0
3.738897 0.900994 -0.003022 0.0
1.004666 0.751691 0.006038 0.0
4.265103 1.464680 0.002853 0.0
0.087685 1.021961 -0.001264 0.0
4.059466 0.497577 -0.000730 0.0
2.777158 1.542373 0.001999 0.0
2.658133 1.330245 -0.001649 0.0
2.513786 0.713085 0.001321 0.0
0.346857 1.622140 0.001041 0.0
4.641745 1.133297 0.006866 0.0
4.254631 0.016528 -0.000019 0.0
4.155501 1.560690 -0.000761 0.0
2.821518 0.527272 -0.001468 0.0
4.457134 1.085342 -0.000483 0.0
3.092261 0.573366 0.004497 0.0
4.235470 1.301460 -0.001858 0.0
1.959367 1.548542 -0.004375 0.0
3.295885 1.809286 0.000837 0.0
4.645607 0.885450 0.001880 0.0
2.992222 1.671220 -0.000506 0.0
1.655655 0.119426 -0.003017 0.0
0.720709 0.314634 -0.005636 0.0
1.357584 1.332735 0.002305 0.0
4.458270 0.841762 -0.004968 0.0
2.950302 1.444665 -0.000767 0.0
2.192843 0.521187 0.000525 0.0
0.880891 1.359203 -0.001962 0.0
3.098020 1.016317 0.001927 0.0
2.016771 1.026958 -0.003827 0.0
2.058043 1.474121 -0.004099 0.0
3.925280 1.345447 0.001088 0.0
3.914830 1.339642 0.002764 0.0
2.010664 0.691403 0.002324 0.0
0.758616 1.827638 0.001503 0.0
1.067599 0.455749 -0.004095 0.0
1.084308 1.332982 -0.001190 0.0
1.274678 0.597664 -0.001933 0.0
0.377542 0.820144 0.003544 0.0
0.393451 0.058458 -0.001235 0.0
2.648965 1.038572 0.002906 0.0
2.689979 0.101888 0.000732 0.0
2.988388 1.552405 0.001985 0.0
2.136669 0.040992 0.002079 0.0
1.532015 0.138393 -0.005368 0.0
3.260146 0.333548 0.003736 0.0
0.298194 0.324409 0.000435 0.0
1.198036 0.002658 0.000005 0.0
2.339152 1.834468 -0.000061 0.0
1.365393 0.267817 0.001298 0.0
0.090791 1.838189 0.000039 0.0
2.740710 0.649404 -0.000136 0.0
0.462744 0.500727 0.001467 0.0
2.865673 0.460002 0.000620 0.0
0.611566 1.304799 0.000710 0.0
3.984328 1.243105 -0.004849 0.0
1.131769 1.421562 0.001625 0.0
4.032318 0.713435 -0.001839 0.0
4.156798 0.143629 -0.000111 0.0
3.170125 0.019625 -0.000814 0.0
3.590017 1.198799 -0.000829 0.0
3.465122 1.153708 0.001929 0.0
4.249872 0.118586 0.000786 0.0
1.649072 0.425836 0.000043 0.0
1.577072 0.233448 0.000548 0.0
4.446061 0.030962 -0.001045 0.0
3.408229 0.110473 -0.001144 0.0
2.762447 0.843184 0.000677 0.0
4.060384 1.140468 -0.000380 0.0
3.139188 1.078096 -0.006535 0.0
4.620853 0.283518 -0.000799 0.0
0.674143 0.771423 -0.000014 0.0
1.834224 1.847519 -0.002338 0.0
2.021631 1.120890 -0.002264 0.0
1.288845 0.314427 0.001518 0.0
3.698438 1.528269 -0.000082 0.0
1.864727 0.491188 0.002689 0.0
0.877304 0.225036 -0.000884 0.0
1.164535 1.104784 -0.002479 0.0
0.135788 0.924301 -0.000589 0.0
1.080015 0.615710 -0.000917 0.0
3.444048 0.772849 0.003282 0.0
0.364594 0.648473 0.001777 0.0
2.594372 0.646031 -0.000682 0.0
3.174471 0.149590 0.000506 0.0
3.588397 0.932616 -0.001070 0.0
2.668506 1.595625 -0.003481 0.0
2.473806 0.838393 -0.003024 0.0
1.314675 1.776424 0.004754 0.0
3.122989 1.377112 -0.003881 0.0
4.378117 0.715537 -0.003359 0.0
2.566431 0.955108 -0.002506 0.0
1.118491 1.567442 -0.000844 0.0
0.627903 0.195771 0.000803 0.0
0.908256 1.721786 0.001062 0.0
0.606123 1.328666 -0.000077 0.0
1.821133 0.411150 -0.003495 0.0
1.062424 1.450712 0.002796 0.0
0.674535 1.844329 0.002727 0.0
1.861305 0.898973 0.001816 0.0
1.190480 0.275867 -0.000820 0.0
4.351253 1.383502 0.002488 0.0
1.160922 0.507827 0.001912 0.0
1.785795 0.006053 -0.001977 0.0
1.232398 1.784139 0.002518 0.0
3.730092 0.752767 -0.005430 0.0
3.102733 1.242362 -0.003761 0.0
2.858583 1.745488 0.003871 0.0
3.241672 1.100127 -0.001730 0.0
4.007203 1.301832 -0.001458 0.0
2.874033 1.827091 -0.001170 0.0
4.288452 1.173602 -0.000491 0.0
0.011590 1.317690 0.002269 0.0
2.623930 0.024546 0.005570 0.0
3.160974 1.364068 -0.000359 0.0
0.511581 1.314826 -0.001665 0.0
3.510082 1.769689 0.002182 0.0
3.839782 0.916979 0.006507 0.0
0.537698 0.737835 -0.000939 0.0
1.189539 1.533941 -0.002305 0.0
2.623662 1.209892 0.000248 0.0
3.768937 1.007555 0.002675 0.0
3.284549 0.218123 -0.001038 0.0
3.022969 0.949290 0.001877 0.0
1.763425 1.096789 0.004421 0.0
2.353793 0.890525 -0.005628 0.0
2.466205 1.656594 0.000150 0.0
0.085035 1.643393 0.000989 0.0
4.508991 1.568735 -0.005872 0.0
1.239227 0.867142 -0.001354 0.0
1.728300 1.173056 0.002752 0.0
2.908278 0.886159 -0.004045 0.0
3.042070 0.648221 -0.003056 0.0
4.393406 1.115263 -0.001524 0.0
3.686086 0.782418 0.004209 0.0
0.609142 0.389854 -0.005393 0.0
4.651124 0.710963 -0.000642 0.0
3.819053 1.268992 -0.003877 0.0
3.344729 1.763633 0.002703 0.0
1.837421 0.906509 -0.001760 0.0
1.083155 0.026670 0.000478 0.0
0.999925 1.347581 -0.000281 0.0
4.035013 1.394203 0.002794 0.0
4.191944 1.369958 0.002541 0.0
1.496463 0.178752 -0.000604 0.0
3.539833 1.808815 0.000239 0.0
4.156463 1.250317 0.004024 0.0
3.657190 1.699842 0.004160 0.0
3.874847 1.704102 0.001659 0.0
0.819634 0.854048 0.003255 0.0
0.238079 0.214698 0.004604 0.0
1.735668 1.334734 -0.002021 0.0
3.087655 0.690238 0.004888 0.0
2.901605 0.779590 -0.000214 0.0
3.542231 0.121464 -0.001800 0.0
1.677698 1.201577 0.001434 0.0
3.019288 0.597430 -0.001884 0.0
0.034106 0.178122 -0.001891 0.0
4.575822 0.102343 0.005363 0.0
1.905281 0.597593 0.002538 0.0
4.138665 0.678395 -0.001239 0.0
1.700038 0.554099 -0.000782 0.0
0.953899 0.543799 0.003013 0.0
0.481994 0.649422 0.002952 0.0
3.785462 0.984801 0.001237 0.0
3.598161 0.385946 -0.000071 0.0
3.000890 0.204094 -0.000181 0.0
1.252535 0.636773 -0.005323 0.0
1.617550 0.632842 0.003032 0.0
2.983468 0.060847 0.001983 0.0
0.829142 1.651316 0.001207 0.0
1.950697 1.617760 -0.003151 0.0
3.561428 0.430879 0.004343 0.0
4.103464 1.831354 -0.000925 0.0
3.141091 0.303408 -0.001669 0.0
1.532476 0.200923 0.002585 0.0
0.116841 1.618423 0.002141 0.0
1.172396 0.820383 -0.005749 0.0
1.891420 1.799724 -0.000839 0.0
4.445999 1.655423 0.002845 0.0
1.114800 0.448593 -0.000928 0.0
2.226161 0.162531 -0.001521 0.0
1.204596 0.818783 0.000875 0.0
1.766228 1.272097 -0.000379 0.0
4.077087 0.545013 -0.000533 0.0
0.191323 0.467820 0.003598 0.0
3.641819 0.114278 -0.002720 0.0
1.566948 1.527051 -0.001554 0.0
2.660976 0.984633 0.001773 0.0
4.413902 0.124099 -0.001737 0.0
2.872161 1.103429 0.001520 0.0
4.530268 1.135386 -0.004040 0.0
2.360906 1.449331 -0.001484 0.0
0.322059 0.173383 0.000752 0.0
3.306270 0.493439 0.006097 0.0
4.212775 0.941902 0.002068 0.0
2.827347 0.478129 0.000266 0.0
1.769450 1.393696 0.001190 0.0
2.301409 1.011589 -0.001421 0.0
0.372630 1.380674 -0.003147 0.0
3.262674 1.527115 0.002068 0.0
1.909415 0.027350 -0.002216 0.0
3.456617 0.203136 -0.000661 0.0
0.114638 1.273829 -0.002685 0.0
0.612214 1.179634 -0.002640 0.0
4.673992 0.544591 0.002449 0.0
0.161818 0.031851 -0.000649 0.0
2.502125 1.178803 0.001257 0.0
2.491033 0.650558 0.001802 0.0
4.090736 1.495861 -0.000726 0.0
2.764158 0.195208 0.002066 0.0
1.265910 1.426898 -0.000067 0.0
3.223310 0.082268 0.001280 0.0
0.306422 0.823151 0.000885 0.0
4.393052 0.851965 -0.000770 0.0
2.429571 0.580761 -0.000191 0.0
1.280251 0.121407 -0.001088 0.0
3.223093 1.219213 -0.002700 0.0
1.075167 1.511490 -0.000931 0.0
1.209399 0.163652 -0.001119 0.0
0.995342 1.468696 0.004240 0.0
4.340300 1.800677 0.001190 0.0
3.158220 0.618563 0.003966 0.0
4.208770 0.861729 -0.001401 0.0
1.452283 1.775170 -0.002084 0.0
3.648130 1.264219 0.001844 0.0
2.668200 0.688447 0.001710 0.0
3.501084 1.673515 0.001011 0.0
3.101688 1.678010 0.002621 0.0
3.343847 0.348251 0.001104 0.0
4.376745 0.876082 0.000949 0.0
3.872761 0.455145 0.001881 0.0
1.547782 1.298752 0.003765 0.0
1.596814 0.190009 -0.003371 0.0
3.399152 0.270244 -0.000753 0.0
0.608045 1.421236 -0.000878 0.0
1.754474 1.660816 0.004249 0.0
4.325253 1.552365 -0.000442 0.0
3.323861 1.451416 -0.004781 0.0
0.630012 0.481943 0.002775 0.0
4.611375 0.128916 0.000437 0.0
1.774786 0.273019 0.004869 0.0
0.886948 0.649402 -0.003618 0.0
0.228227 1.062463 0.000051 0.0
3.491315 0.968473 0.003232 0.0
4.408754 1.778188 0.000863 0.0
0.827034 1.645998 0.000169 0.0
4.262612 1.718279 0.000108 0.0
3.900345 1.282787 -0.001585 0.0
2.165250 0.692172 0.000404 0.0
1.920351 1.713895 -0.000472 0.0
0.314107 0.692177 0.002349 0.0
4.014625 1.155859 -0.002007 0.0
0.904848 0.781176 0.001916 0.0
2.164541 1.007987 0.003542 0.0
1.416426 0.048078 -0.000199 0.0
0.196594 1.794115 0.004192 0.0
3.278418 1.217005 -0.001916 0.0
4.480528 0.273510 0.003791 0.0
3.389549 1.667343 0.000435 0.0
2.967860 0.469746 0.001729 0.0
0.265995 0.316174 -0.004267 0.0
2.211333 1.690533 0.002319 0.0
2.343166 1.552571 -0.001028 0.0
4.284796 1.700225 -0.005923 0.0
3.205100 0.656401 0.000050 0.0
3.839974 0.876096 0.000117 0.0
0.507295 0.549986 0.003829 0.0
0.853964 1.697115 0.003060 0.0
0.841582 1.433324 -0.002187 0.0
0.636545 1.155978 0.004580 0.0
0.688030 1.786939 -0.001143 0.0
2.247703 0.649602 0.001133 0.0
1.957433 1.527135 -0.000242 0.0
2.626074 0.388565 -0.002496 0.0
0.816882 0.729722 0.002085 0.0
2.016469 0.634542 -0.000340 0.0
3.301970 1.303762 0.000990 0.0
3.342839 0.729540 -0.003300 0.0
2.109731 0.708790 -0.004443 0.0
0.118871 0.852843 0.002174 0.0
1.917645 1.572658 -0.001069 0.0
0.098307 1.407830 -0.001516 0.0
4.369201 1.800078 0.006150 0.0
3.824771 1.765978 0.004985 0.0
1.396820 0.800599 -0.001114 0.0
4.317918 0.702148 0.004616 0.0
0.508428 0.024060 0.002115 0.0
2.935712 0.108876 -0.003785 0.0
1.363921 1.600419 -0.000530 0.0
3.802689 1.173826 0.001235 0.0
0.600932 0.811982 0.000933 0.0
1.738267 0.667799 0.002655 0.0
3.654436 0.300189 -0.002364 0.0
2.445804 0.010761 0.002127 0.0
0.678620 0.747652 0.001565 0.0
2.404826 0.775491 0.003265 0.0
0.396062 0.938690 0.001698 0.0
4.345494 0.108410 0.001057 0.0
2.977346 1.002932 -0.004843 0.0
2.690141 1.512073 -0.004068 0.0
4.238192 1.658321 -0.001759 0.0
2.242325 0.709596 0.003535 0.0
0.753357 1.791882 -0.001727 0.0
3.156785 1.622780 -0.001408 0.0
0.183367 1.671221 -0.002192 0.0
3.641206 1.755353 0.003132 0.0
0.497426 1.312492 -0.006530 0.0
2.587363 1.092410 -0.003352 0.0
4.532544 1.663517 0.000149 0.0
4.506734 1.382878 0.001844 0.0
1.196794 0.944374 0.001876 0.0
0.612968 0.013266 0.002549 0.0
1.597092 0.684112 -0.003698 0.0
3.811199 0.179568 0.001901 0.0
4.677839 0.371438 -0.003278 0.0
0.319985 0.761532 0.000549 0.0
4.307052 1.156253 0.000293 0.0
1.072574 0.924377 0.000103 0.0
4.361679 0.324641 0.001286 0.0
4.255293 0.736986 0.001461 0.0
1.449360 0.455917 -0.002771 0.0
3.788639 0.391313 -0.000195 0.0
3.283617 0.959555 0.000198 0.0
3.795408 0.908596 0.006053 0.0
4.351782 0.064175 0.000912 0.0
2.249518 0.007730 0.001642 0.0
0.008062 1.609567 -0.000409 0.0
4.336350 0.469378 0.002983 0.0
1.721567 0.835099 -0.002360 0.0
0.604976 0.290123 -0.002579 0.0
1.988312 0.264216 -0.005041 0.0
0.294701 1.409634 0.000950 0.0
3.549073 0.806242 -0.001780 0.0
2.118601 1.001367 -0.000766 0.0
3.299566 1.462357 0.002279 0.0
0.278913 1.599944 -0.004795 0.0
1.924586 0.434916 0.000298 0.0
3.934828 1.266383 -0.001468 0.0
1.514701 1.022394 0.001963 0.0
2.505809 1.023970 0.003554 0.0
0.362392 1.649671 0.002722 0.0
1.720851 0.860899 -0.000039 0.0
4.446973 1.081232 0.000033 0.0
4.592208 0.808731 0.000592 0.0
1.366022 0.742772 -0.001973 0.0
2.024608 1.043382 0.000112 0.0
4.389206 0.582392 -0.002557 0.0
4.579825 1.098491 -0.002011 0.0
2.541734 1.550160 0.001190 0.0
2.413460 0.747284 -0.001679 0.0
3.627670 0.281106 0.002675 0.0
0.076409 0.913784 -0.001539 0.0
1.527654 1.522075 -0.000085 0.0
0.491496 0.628910 0.003329 0.0
4.584021 1.003648 0.003563 0.0
3.466119 1.814141 -0.004279 0.0
1.046608 1.548278 0.000821 0.0
1.870030 1.522777 0.000928 0.0
2.876482 1.460660 0.003631 0.0
3.655139 0.455983 0.000131 0.0
1.052022 1.539316 0.001446 0.0
0.131242 1.468970 -0.001417 0.0
4.609361 1.823558 -0.000323 0.0
0.167435 0.875924 -0.002892 0.0
1.663369 0.121505 -0.002671 0.0
4.134462 1.257907 -0.000807 0.0
2.211800 1.534263 0.001147 0.0
3.442804 1.109734 0.000060 0.0
1.644081 1.837890 -0.004057 0.0
0.676409 0.298772 -0.002506 0.0
1.894989 1.813137 -0.003881 0.0
2.982298 0.506641 0.002837 0.0
3.666781 0.822707 -0.001228 0.0
3.864598 0.375816 -0.001073 0.0
3.051639 0.878600 -0.003484 0.0
0.422407 0.557336 0.000740 0.0
1.200374 1.811380 -0.000642 0.0
3.885441 1.338915 0.000858 0.0
3.960349 1.053725 0.000568 0.0
3.352049 0.479850 0.001223 0.0
1.543138 1.507528 0.002808 0.0
1.231614 1.474318 0.001318 0.0
1.740814 1.335289 -0.002661 0.0
2.203288 1.579865 0.000483 0.0
1.257513 0.229564 -0.000044 0.0
0.501068 0.545243 -0.001664 0.0
3.742531 0.066347 -0.004205 0.0
0.323896 1.188865 0.000344 0.0
1.420822 1.619581 0.006488 0.0
1.646087 0.282222 0.000644 0.0
0.177476 0.449625 -0.004545 0.0
0.215965 1.478954 -0.002453 0.0
0.900929 1.184885 -0.002087 0.0
2.901679 1.556942 0.002637 0.0
2.799651 1.178127 -0.002692 0.0
0.282148 0.328944 0.002140 0.0
2.779123 0.237546 0.002619 0.0
1.015067 1.748142 0.003309 0.0
2.578151 0.748175 -0.001460 0.0
0.789486 1.148744 -0.003153 0.0
4.646080 0.960822 -0.001665 0.0
2.570550 1.497080 0.001427 0.0
2.514927 1.080287 0.000885 0.0
4.000873 1.436254 -0.001146 0.0
1.230569 0.214608 0.001713 0.0
1.914009 1.067885 0.002087 0.0
0.978123 0.891630 -0.000163 0.0
1.100939 1.830738 -0.000495 0.0
2.741543 0.352023 0.003103 0.0
3.699060 1.583771 -0.001019 0.0
2.313155 1.033178 0.002855 0.0
1.070313 1.043525 0.000073 0.0
2.889231 0.027440 0.001662 0.0
1.580851 1.146319 -0.000043 0.0
2.884828 1.474985 -0.001831 0.0
4.223990 0.858113 0.000450 0.0
2.923672 1.212773 -0.004858 0.0
0.212137 1.705560 0.004997 0.0
2.344879 1.123558 -0.000126 0.0
2.694072 1.632975 -0.002910 0.0
2.173869 1.153213 -0.000548 0.0
3.616329 1.409098 0.000292 0.0
0.213205 0.817220 -0.001008 0.0
3.132075 1.097696 -0.000796 0.0
3.642825 1.098665 0.000179 0.0
3.962321 1.511124 0.002876 0.0
2.079042 0.550018 -0.000214 0.0
3.787299 1.244935 -0.001207 0.0
0.084660 1.153083 0.000023 0.0
1.869458 0.407079 0.002582 0.0
1.617952 0.611711 -0.000811 0.0
1.456474 0.413210 0.000444 0.0
0.667210 1.661647 0.002339 0.0
4.297975 0.428897 0.000881 0.0
0.281687 0.453212 0.001739 0.0
2.896509 0.048726 0.002126 0.0
3.999558 0.607955 -0.001087 0.0
0.036767 0.800973 -0.000396 0.0
2.068578 1.225626 0.002204 0.0
3.440762 1.778327 -0.001837 0.0
3.192775 0.563793 0.004359 0.0
2.454962 1.509004 -0.002816 0.0
3.218964 1.491034 -0.003431 0.0
1.511626 0.936303 -0.002966 0.0
3.685895 1.033469 -0.000301 0.0
1.847298 0.824160 0.002290 0.0
2.497365 0.664940 0.002112 0.0
4.485386 0.248134 0.003640 0.0
3.233831 1.768210 -0.001072 0.0
1.929933 0.063030 -0.003859 0.0
0.255533 1.545006 0.000001 0.0
0.435789 1.491686 -0.004034 0.0
2.646226 1.799244 -0.000829 0.0
4.476031 0.787275 0.001773 0.0
3.964705 1.709929 -0.001696 0.0
2.483737 0.774837 -0.004388 0.0
2.236020 0.955144 0.003329 0.0
2.955731 1.551800 0.000257 0.0
1.247031 1.483758 -0.001461 0.0
4.589355 1.498209 0.004946 0.0
1.772882 0.528307 -0.000619 0.0
0.824375 1.165725 -0.000711 0.0
0.180153 0.204535 -0.001985 0.0
4.137384 1.348939 0.001941 0.0
0.466241 0.191734 0.003635 0.0
3.911827 1.336712 0.002900 0.0
2.429499 0.146786 -0.005784 0.0
0.780600 1.140464 -0.002133 0.0
1.380751 0.353590 -0.002231 0.0
0.933124 1.553017 -0.000018 0.0
0.775657 1.132653 0.003610 0.0
1.379516 0.503480 -0.002367 0.0
1.952808 0.201213 0.000790 0.0
1.644877 0.783643 0.001423 0.0
1.154953 1.063722 0.003536 0.0
0.429570 1.329363 -0.001393 0.0
2.545217 1.664801 0.000554 0.0
2.270675 1.310489 -0.000217 0.0
1.548638 1.706262 0.002355 0.0
1.859513 0.936654 -0.002495 0.0
1.865528 0.389578 -0.002367 0.0
3.793005 0.932727 0.000402 0.0
1.631163 0.373996 -0.000147 0.0
1.424695 0.287994 0.000149 0.0
4.558487 0.990460 -0.001070 0.0
2.243949 0.758309 -0.004356 0.0
1.227273 1.111805 0.001092 0.0
2.623485 1.155494 0.000920 0.0
2.888000 0.867451 0.001737 0.0
3.863609 0.314460 0.001683 0.0
1.711416 1.037057 -0.002163 0.0
2.377045 1.465967 0.003633 0.0
4.437596 0.579135 0.002204 0.0
3.224702 1.570112 -0.000926 0.0
4.626155 0.922616 0.004488 0.0
2.855526 0.840709 0.006402 0.0
2.196972 1.732418 -0.000806 0.0
0.402833 1.775341 -0.000621 0.0
0.266386 1.304020 0.001513 0.0
1.378775 1.603279 -0.003549 0.0
2.979224 1.767502 0.001308 0.0
4.330077 0.821972 -0.004031 0.0
0.890665 1.614023 -0.002643 0.0
3.072945 0.649729 0.003945 0.0
3.253963 1.183260 -0.002068 0.0
2.778705 0.457915 -0.000409 0.0
0.449421 0.022237 -0.000084 0.0
1.630253 1.192748 -0.002364 0.0
3.441514 0.134839 0.001881 0.0
0.710436 0.490721 0.000833 0.0
3.678583 1.611971 -0.001509 0.0
3.261815 0.991711 -0.001209 0.0
3.894067 0.244209 -0.000243 0.0
2.984580 1.759523 0.001789 0.0
2.469078 0.019923 0.001316 0.0
2.859514 1.561774 0.001679 0.0
3.847344 0.089855 -0.002300 0.0
3.746750 1.063516 0.001101 0.0
2.405488 1.654795 0.001246 0.0
4.228078 1.042847 0.000656 0.0
1.757991 0.610520 0.000220 0.0
0.962779 1.561798 0.001028 0.0
3.674661 0.728031 0.001514 0.0
1.732265 0.758182 -0.000965 0.0
2.819840 0.625523 0.004222 0.0
2.177517 1.294376 -0.004472 0.0
1.895204 1.733754 0.000719 0.0
3.166744 1.720890 -0.001013 0.0
2.812883 1.236160 0.000558 0.0
0.378944 1.669403 -0.001064 0.0
2.382820 0.735339 0.003520 0.0
1.907324 0.312595 0.001796 0.0
3.938132 0.165727 0.002088 0.0
0.913503 1.830479 -0.000081 0.0
3.459734 0.987552 0.003037 0.0
4.459682 1.179741 0.002242 0.0
3.649570 1.770482 0.000965 0.0
4.198484 1.063078 -0.001660 0.0
1.774249 1.274234 0.002271 0.0
1.558814 1.286606 -0.001241 0.0
1.316338 0.245143 0.002257 0.0
1.677390 0.285871 -0.000052 0.0
3.830202 0.812520 0.000282 0.0
0.217484 0.354335 0.004107 0.0
1.388553 0.424850 -0.000902 0.0
2.430357 0.780899 -0.006292 0.0
1.877026 0.590602 0.005449 0.0
2.137803 0.962116 -0.002185 0.0
0.458281 0.556093 -0.000618 0.0
1.882473 0.941601 0.000908 0.0
3.144867 0.705927 0.002885 0.0
3.752857 0.449293 0.002601 0.0
2.716036 1.527719 -0.001101 0.0
2.693291 0.861153 0.002709 0.0
3.746093 1.522089 -0.001684 0.0
2.917952 0.273731 0.000639 0.0
3.296444 0.701680 0.001931 0.0
0.420796 1.565000 0.002223 0.0
3.305346 1.050320 -0.001355 0.0
0.251902 1.475278 0.001400 0.0
0.869009 0.355715 0.001857 0.0
1.867122 0.520844 -0.003653 0.0
3.706020 1.800319 -0.000393 0.0
2.292807 0.289247 0.000056 0.0
4.441108 -0.000791 -0.000590 0.0
2.187159 0.468733 0.000984 0.0
1.413257 1.642956 0.000670 0.0
0.006012 0.870120 -0.001887 0.0
0.700942 1.658993 0.003537 0.0
0.914435 1.134074 0.001615 0.0
0.754112 0.057157 0.000493 0.0
4.543204 0.129984 0.002143 0.0
3.440847 0.588731 0.000422 0.0
3.044526 0.765866 0.004217 0.0
3.398335 0.266785 0.002674 0.0
2.412950 0.294406 -0.000362 0.0
3.379678 0.329568 -0.001056 0.0
1.123326 0.129052 -0.000046 0.0
2.638198 0.876153 -0.000855 0.0
3.430587 0.200789 -0.000079 0.0
3.483299 0.923369 -0.001842 0.0
3.380288 1.201150 0.001358 0.0
2.415305 0.460879 -0.001029 0.0
3.630865 1.425509 0.000314 0.0
1.429514 1.565056 0.000938 0.0
2.735870 0.649266 -0.002972 0.0
4.084740 0.190624 -0.003015 0.0
1.127594 1.220780 -0.002225 0.0
0.846199 0.242629 -0.005523 0.0
0.656692 1.761926 -0.000334 0.0
0.521703 1.158796 0.003054 0.0
2.284981 0.356247 0.001559 0.0
2.868650 1.115806 -0.000750 0.0
1.591885 1.029956 0.000758 0.0
4.144714 0.864577 -0.001799 0.0
1.644669 0.681889 -0.000466 0.0
0.613420 0.153170 0.003229 0.0
0.969356 0.136410 0.000804 0.0
2.400773 0.059583 0.001034 0.0
1.416012 0.753327 0.001715 0.0
1.502470 0.699837 0.001750 0.0
0.965135 1.495243 0.000633 0.0
0.947923 0.441066 0.001327 0.0
1.745073 0.324802 -0.001063 0.0
1.540948 1.627168 0.004087 0.0
3.024486 1.288995 -0.003439 0.0
1.527792 0.365474 -0.003743 0.0
2.030354 1.197620 -0.000203 0.0
4.432236 1.307078 -0.001455 0.0
2.830212 1.648756 0.001885 0.0
4.579460 0.113164 -0.004315 0.0
0.846638 1.007296 0.002582 0.0
0.960521 0.503439 0.001140 0.0
2.263848 1.814613 0.000099 0.0
3.110488 0.427692 0.000147 0.0
3.552690 0.943818 0.001404 0.0
1.558753 0.838979 0.003383 0.0
2.843307 0.609403 0.001231 0.0
0.500779 0.460285 -0.001890 0.0
1.723669 0.583376 -0.006420 0.0
3.416808 1.286312 0.004689 0.0
2.415328 0.814443 0.002487 0.0
4.404655 1.414370 -0.001643 0.0
0.227157 1.254027 -0.001917 0.0
4.636284 0.445932 0.001142 0.0
0.572161 0.237240 -0.001637 0.0
1.889947 1.412919 0.000498 0.0
1.874027 0.339782 0.002370 0.0
0.538733 1.825651 -0.003199 0.0
0.298669 0.689204 -0.000692 0.0
3.446258 0.668619 0.008865 0.0
3.702885 1.117156 0.000909 0.0
0.563297 1.430019 0.001347 0.0
0.699416 1.439109 -0.001268 0.0
0.717812 1.320185 0.001585 0.0
4.642826 0.074296 -0.007461 0.0
1.099004 0.116395 0.001640 0.0
2.120706 1.314431 -0.003546 0.0
1.047736 0.032578 -0.001592 0.0
0.118710 1.390211 0.003103 0.0
0.973628 0.938326 -0.000390 0.0
4.224255 0.817947 -0.001801 0.0
1.672705 0.621501 0.001555 0.0
2.396832 0.133314 -0.000427 0.0
4.158370 0.485689 0.002335 0.0
4.594557 1.288986 0.000936 0.0
1.217981 1.829172 -0.000659 0.0
0.070292 0.365449 0.000702 0.0
4.211637 0.957811 0.003813 0.0
1.496487 0.831512 -0.004325 0.0
1.500706 0.664484 0.000316 0.0
0.541613 0.192586 0.005865 0.0
0.476153 0.644350 0.002335 0.0
1.918268 0.770354 0.000942 0.0
1.422932 1.602311 -0.002970 0.0
2.695269 0.499130 -0.001887 0.0
2.443582 0.428402 -0.002777 0.0
2.260805 0.632335 -0.000533 0.0
4.153831 1.103345 0.003902 0.0
0.335844 1.207094 -0.004229 0.0
3.883862 0.650473 0.004393 0.0
4.233685 0.868327 -0.001991 0.0
0.567740 1.390056 -0.002487 0.0
3.704138 0.436922 0.000417 0.0
1.587239 1.363872 -0.002050 0.0
1.879592 1.678885 -0.001221 0.0
0.873780 0.288795 -0.002229 0.0
4.333023 0.629014 -0.001735 0.0
2.119212 1.348305 -0.003425 0.0
1.134320 0.334475 -0.001459 0.0
4.619956 0.448388 0.001185 0.0
4.480897 1.081861 0.002005 0.0
3.098472 0.356669 0.000533 0.0
0.137541 1.825857 -0.002397 0.0
4.059594 1.457143 0.005429 0.0
0.453357 1.561003 -0.002846 0.0
1.244025 1.731606 -0.003771 0.0
2.227583 1.353831 0.000023 0.0
3.406547 0.506681 0.000300 0.0
0.485910 0.993436 -0.004138 0.0
3.998687 0.069407 0.003533 0.0
4.631595 0.151600 -0.001696 0.0
3.374329 0.583595 -0.002106 0.0
3.714202 1.261007 0.001049 0.0
0.083558 0.519994 0.003676 0.0
4.045771 0.084077 -0.002508 0.0
0.484774 1.062026 -0.002165 0.0
2.016235 0.908755 0.000984 0.0
2.436962 0.915515 -0.002800 0.0
1.827585 1.437166 -0.002427 0.0
0.316547 1.165806 0.000364 0.0
1.365435 1.682863 0.000453 0.0
2.565432 0.542876 -0.004910 0.0
1.357742 0.574518 -0.002174 0.0
0.745281 1.166388 -0.000304 0.0
2.147189 0.801603 -0.000630 0.0
1.839941 1.477015 -0.001296 0.0
2.315053 1.729955 0.000117 0.0
0.431233 1.325890 -0.003587 0.0
4.631358 1.566487 -0.003900 0.0
3.284292 0.280016 -0.000846 0.0
2.121399 0.110564 0.002205 0.0
0.037590 0.232672 0.001262 0.0
2.575371 1.808296 -0.000006 0.0
3.670106 0.706341 0.003154 0.0
0.891149 0.562859 -0.000427 0.0
2.433570 1.312282 -0.000098 0.0
0.821787 1.048889 -0.000938 0.0
0.719526 0.666103 0.003582 0.0
2.826796 1.590778 -0.000189 0.0
2.904310 0.285491 -0.001444 0.0
4.060008 1.400517 0.005367 0.0
3.168610 0.068473 0.001225 0.0
2.750463 1.112704 -0.000868 0.0
4.429650 1.659819 -0.002733 0.0
0.376580 1.245988 0.001061 0.0
0.750156 0.379872 -0.000422 0.0
1.643574 0.044878 -0.002270 0.0
2.674165 1.529588 -0.001908 0.0
1.348690 1.738077 -0.002126 0.0
2.825652 1.049417 0.002150 0.0
3.421643 0.656665 -0.003726 0.0
2.538123 0.225953 0.005905 0.0
2.088149 1.152107 -0.002747 0.0
2.026204 0.343786 0.001484 0.0
0.430424 0.225086 -0.004754 0.0
3.268656 1.057121 -0.001962 0.0
2.105562 0.597151 0.000721 0.0
0.431894 0.993379 0.005070 0.0
2.199332 0.151821 -0.000304 0.0
1.902650 1.379015 -0.005117 0.0
3.079163 0.290068 -0.001301 0.0
0.105119 0.145113 0.002061 0.0
1.625649 1.737266 -0.001586 0.0
0.507770 0.903378 -0.002116 0.0
2.573018 1.225069 -0.006152 0.0
0.338742 1.592186 0.000872 0.0
0.952996 1.469809 -0.001253 0.0
2.926780 1.607103 -0.001821 0.0
0.065532 0.487939 -0.000463 0.0
3.489323 1.221129 -0.002777 0.0
1.474764 0.451763 -0.001927 0.0
1.439557 1.326983 0.001955 0.0
1.911756 1.383311 0.001890 0.0
2.871775 1.124960 0.001880 0.0
0.943653 1.200903 0.000615 0.0
2.740039 0.838146 -0.003234 0.0
2.459391 0.232197 -0.003343 0.0
1.286092 0.692304 0.000331 0.0
0.164588 0.345280 -0.001728 0.0
2.970591 0.040970 0.000957 0.0
3.644841 0.570260 0.002515 0.0
3.946224 0.716146 -0.001235 0.0
2.056503 0.829843 -0.001902 0.0
4.586608 1.804556 -0.003797 0.0
2.020622 0.539391 -0.002281 0.0
0.728018 1.355340 -0.000663 0.0
1.321357 0.003468 -0.005711 0.0
0.456824 0.500281 0.005762 0.0
0.423816 0.157416 -0.000978 0.0
0.004628 1.098967 0.003070 0.0
4.362431 0.199625 -0.001552 0.0
3.893581 0.589101 -0.003823 0.0
0.734214 0.549221 0.001686 0.0
4.548692 1.463697 -0.001149 0.0
0.288689 1.054150 -0.002732 0.0
3.838841 1.167080 0.003387 0.0
2.217131 0.159105 0.002918 0.0
0.205318 1.393412 0.002906 0.0
1.321256 0.870833 0.002018 0.0
0.960614 0.248712 0.004116 0.0
1.756214 1.825640 0.000363 0.0
2.799725 0.279314 -0.000502 0.0
0.480238 1.377347 0.004725 0.0
2.754234 1.061464 -0.001462 0.0
1.367157 1.823309 0.000621 0.0
0.010784 0.777440 -0.000312 0.0
1.269505 1.519183 0.000681 0.0
2.820790 0.857995 -0.000960 0.0
1.962228 1.254695 0.000244 0.0
0.876574 0.264042 -0.001317 0.0
2.828265 1.627685 0.004001 0.0
1.448584 0.864130 0.002340 0.0
2.297439 0.930321 0.001444 0.0
4.201436 1.021485 0.000747 0.0
3.756605 0.466144 0.000122 0.0
3.584296 0.534008 0.004776 0.0
0.795122 1.109846 -0.000532 0.0
4.220175 0.142529 0.000848 0.0
1.447858 1.018555 -0.001160 0.0
2.244502 0.801414 0.005316 0.0
1.309283 1.077529 0.000783 0.0
3.268425 1.668641 0.002835 0.0
0.790916 1.671389 -0.001210 0.0
1.350241 0.761032 0.000324 0.0
1.947067 0.856328 0.000776 0.0
0.702294 0.137632 -0.003515 0.0
4.077374 0.405885 0.000683 0.0
1.484038 0.783723 -0.000412 0.0
4.262330 0.972666 0.002314 0.0
3.979337 1.671820 -0.000562 0.0
3.945070 1.744315 0.004245 0.0
0.423619 1.134497 0.001258 0.0
1.777241 1.295740 -0.001350 0.0
2.505088 0.373916 0.000343 0.0
3.673015 1.248644 -0.002192 0.0
4.338982 1.002663 -0.001067 0.0
0.188241 0.672388 0.000467 0.0
3.370639 1.746761 -0.001689 0.0
3.053048 0.306867 -0.003996 0.0
0.249494 1.675171 0.003372 0.0
0.379585 0.215951 -0.001777 0.0
0.571365 1.480059 -0.001966 0.0
2.701961 0.308682 0.000556 0.0
2.624795 0.989699 -0.000745 0.0
4.122609 1.225195 -0.001926 0.0
4.588881 0.313122 -0.000015 0.0
2.782621 0.665805 -0.001324 0.0
2.142705 0.800547 0.003309 0.0
4.066099 1.822561 0.000638 0.0
1.623586 0.373730 -0.001638 0.0
2.018765 1.642765 -0.001577 0.0
1.566495 0.278924 0.002920 0.0
2.094888 1.715213 -0.000676 0.0
2.211976 0.405909 -0.003464 0.0
3.020356 0.403090 -0.000246 0.0
2.702603 0.043112 -0.000362 0.0
3.862852 0.647032 -0.001098 0.0
0.044882 0.814694 -0.000589 0.0
3.497472 0.499515 0.001213 0.0
2.317828 0.914850 -0.000073 0.0
3.479371 0.595708 0.000720 0.0
0.493908 0.947598 0.003159 0.0
0.932887 0.067301 0.001916 0.0
1.971905 1.564634 0.000852 0.0
1.366323 1.651141 -0.001029 0.0
0.508045 0.742325 -0.001615 0.0
3.570173 1.180501 -0.006367 0.0
2.331548 0.153428 0.003844 0.0
3.831577 0.722048 0.002543 0.0
3.839504 0.440792 -0.000690 0.0
0.187566 1.672600 0.000406 0.0
1.095793 0.398260 -0.003466 0.0
2.308980 0.455727 -0.004008 0.0
1.065470 0.995694 -0.000563 0.0
3.388797 1.214192 -0.001366 0.0
2.910462 1.524994 -0.003791 0.0
3.800820 0.646219 -0.000024 0.0
2.961576 0.192713 0.001649 0.0
3.806604 1.334100 -0.003828 0.0
2.338998 0.212337 0.000983 0.0
1.928414 0.616081 -0.000340 0.0
1.526641 0.201411 -0.001025 0.0
3.611671 0.363788 -0.000770 0.0
0.295581 0.974772 -0.002210 0.0
0.253486 1.244800 0.002261 0.0
0.897349 1.586343 0.002015 0.0
2.280577 1.444193 0.004005 0.0
2.196800 1.800785 0.000301 0.0
2.899477 0.127276 0.000885 0.0
3.009085 1.026733 0.000541 0.0
1.320846 0.797473 -0.003463 0.0
0.483810 1.274450 0.001008 0.0
3.172982 1.034166 -0.000756 0.0
1.141374 0.317768 -0.004534 0.0
2.077658 0.501047 0.000580 0.0
4.331517 0.340717 -0.002912 0.0
2.136033 1.103815 -0.002764 0.0
0.192854 0.366445 0.001066 0.0
2.708503 1.072444 -0.000205 0.0
3.448428 0.621500 -0.001879 0.0
1.462285 0.178011 0.001693 0.0
1.987624 0.037593 -0.000822 0.0
0.980445 1.156868 0.001150 0.0
4.082658 1.545475 0.004543 0.0
2.930869 1.433843 0.003779 0.0
3.854707 1.699091 0.001474 0.0
2.290860 0.945558 -0.003747 0.0
3.347114 1.003018 -0.003550 0.0
2.822418 0.905991 -0.003746 0.0
3.439894 1.183217 0.001515 0.0
3.410053 1.708843 0.001667 0.0
3.336992 1.737419 -0.001548 0.0
0.758619 1.110453 -0.001834 0.0
2.010391 1.280530 -0.005128 0.0
1.847341 0.570188 -0.000671 0.0
3.433152 0.834909 0.001275 0.0
1.781713 0.845282 0.004660 0.0
2.080113 0.731204 0.005316 0.0
3.485677 0.650236 -0.002341 0.0
0.576275 1.186603 0.002793 0.0
0.540449 0.484855 -0.001049 0.0
2.035898 0.578176 -0.000641 0.0
2.861250 0.055568 0.001818 0.0
0.615111 1.771267 -0.002045 0.0
2.074898 1.418173 -0.001593 0.0
3.248016 1.115489 -0.003359 0.0
1.974789 0.752895 0.002588 0.0
3.055700 1.255992 0.001545 0.0
3.496475 0.091874 0.002316 0.0
2.593492 0.185410 -0.003109 0.0
0.480990 0.877802 0.000405 0.0
2.506643 0.326503 0.000160 0.0
2.962094 0.093875 0.000246 0.0
0.996703 1.624172 0.000937 0.0
1.854776 1.135939 0.003905 0.0
4.107007 1.149990 -0.000860 0.0
3.038943 1.340034 0.001310 0.0
1.794618 1.306489 0.000013 0.0
0.456620 1.533404 0.001686 0.0
4.588638 1.208547 0.008197 0.0
3.071146 1.668220 0.001478 0.0
3.377355 0.452828 -0.001676 0.0
3.839811 1.247903 0.000835 0.0
0.387941 1.269786 -0.003461 0.0
3.800592 0.452807 -0.001481 0.0
3.641323 1.135628 -0.003348 0.0
3.552170 0.641256 0.000438 0.0
2.407546 0.571370 0.000706 0.0
4.502811 1.790790 0.000107 0.0
3.547099 1.632260 -0.004892 0.0
3.734017 0.938816 -0.001378 0.0
3.834038 0.185645 0.004018 0.0
1.149383 0.358029 0.000650 0.0
4.472634 1.091880 0.002506 0.0
2.283499 0.118539 -0.001185 0.0
0.849606 0.271255 0.001468 0.0
1.548300 0.248034 0.002953 0.0
1.547575 1.276067 -0.001173 0.0
2.086671 0.953241 -0.004380 0.0
0.856095 1.793163 0.001117 0.0
3.967586 1.202698 0.000719 0.0
2.852702 1.101678 -0.000464 0.0
4.046277 1.619325 0.001842 0.0
2.717160 0.269299 -0.001818 0.0
1.901160 1.664282 0.000223 0.0
0.951522 1.788667 -0.001106 0.0
1.332071 1.195003 -0.000952 0.0
3.559741 1.205350 0.001056 0.0
1.059189 0.803198 -0.000080 0.0
1.301805 1.338152 -0.007072 0.0
4.464712 1.719951 -0.000164 0.0
4.124539 0.375233 -0.002208 0.0
1.070322 0.754311 0.001991 0.0
3.030699 1.162446 0.000877 0.0
0.600137 0.123759 -0.002636 0.0
3.655729 0.983260 -0.000114 0.0
1.820529 0.783227 0.001117 0.0
4.170962 0.719834 0.001174 0.0
3.230142 0.812262 -0.000967 0.0
4.494208 1.155118 -0.004344 0.0
3.887026 1.041001 -0.000075 0.0
3.738185 0.706718 -0.001932 0.0
3.293596 0.609517 0.000582 0.0
1.493813 1.346195 -0.004149 0.0
1.009658 0.972581 -0.001307 0.0
3.494298 1.760190 0.001154 0.0
3.010508 1.623139 0.004615 0.0
2.914361 0.907734 -0.000281 0.0
3.382052 0.809245 -0.000450 0.0
1.167802 0.636286 -0.000488 0.0
2.410963 0.465623 0.003807 0.0
3.764738 0.701819 -0.002722 0.0
2.891640 0.286402 0.005088 0.0
0.894434 1.299806 0.001176 0.0
1.510222 0.280173 -0.003552 0.0
1.633935 0.972753 0.000193 0.0
2.858820 0.648663 0.001241 0.0
0.812838 1.202649 -0.000550 0.0
0.719428 1.703638 -0.001805 0.0
4.209317 0.587632 -0.000410 0.0
2.257906 1.016662 -0.002011 0.0
3.180548 1.706534 -0.001993 0.0
0.371768 1.435303 0.001138 0.0
3.729778 0.934544 0.000035 0.0
0.666647 1.323815 0.003830 0.0
2.582117 1.003597 0.000483 0.0
2.676532 0.052053 0.001268 0.0
0.254440 0.032334 0.000274 0.0
4.634854 0.407155 -0.003785 0.0
3.433944 0.224491 0.000885 0.0
2.291556 0.831319 0.003300 0.0
1.491475 1.179089 0.002200 0.0
2.070346 0.016214 -0.002070 0.0
3.942230 1.670356 -0.000546 0.0
3.421891 1.693786 0.003455 0.0
2.165647 0.124850 0.000535 0.0
3.801210 1.841807 0.002282 0.0
3.595546 1.322709 -0.000490 0.0
3.853272 0.089327 -0.000032 0.0
2.606548 1.419938 0.000960 0.0
1.411394 0.212274 0.002691 0.0
1.545103 0.045806 0.000910 0.0
3.358888 0.254863 -0.000983 0.0
1.533528 0.876681 -0.002664 0.0
3.371595 1.801549 0.003939 0.0
2.051922 0.267297 0.001378 0.0
4.274142 0.960503 -0.001825 0.0
2.823122 1.659589 -0.006970 0.0
3.018756 1.009092 0.003930 0.0
4.337666 0.221457 -0.002752 0.0
0.756937 1.002718 -0.000515 0.0
1.348932 1.464871 -0.001299 0.0
2.263696 1.344471 0.000445 0.0
2.741543 0.694666 0.001450 0.0
2.706051 1.068146 -0.000740 0.0
0.327257 0.493723 -0.001269 0.0
1.371552 1.047941 0.002367 0.0
2.514093 1.669640 0.002937 0.0
0.289618 1.639358 -0.003116 0.0
2.712971 1.632960 -0.002824 0.0
1.261005 1.068743 0.001282 0.0
0.570121 1.419035 0.000480 0.0
0.215497 1.500620 -0.005392 0.0
1.824440 1.358717 0.002652 0.0
2.576376 0.735123 0.004010 0.0
1.415181 0.024838 0.000581 0.0
1.375539 0.571405 -0.001974 0.0
2.034974 1.809305 0.001892 0.0
3.283249 1.838092 0.000381 0.0
2.607134 0.508581 0.000380 0.0
3.995819 0.825612 0.000703 0.0
0.140637 0.148596 -0.002226 0.0
0.963973 1.010613 -0.005589 0.0
3.967000 1.467729 0.001837 0.0
3.661472 1.424990 -0.000614 0.0
0.132101 0.618452 0.000288 0.0
2.968395 0.725762 -0.000798 0.0
2.368898 1.181571 -0.005305 0.0
4.465622 0.448574 -0.000498 0.0
2.113886 0.277026 0.001425 0.0
2.006731 1.300338 -0.001424 0.0
3.767825 1.277137 0.004121 0.0
4.245820 1.126779 0.002991 0.0
3.975328 1.583712 0.002614 0.0
2.456097 1.326721 0.001117 0.0
3.620522 0.705797 0.001182 0.0
2.440908 1.341253 -0.000021 0.0
3.632426 0.530847 0.002005 0.0
3.424867 1.626789 -0.003624 0.0
1.936151 0.051590 -0.002320 0.0
2.431698 0.441913 0.002364 0.0
0.697384 1.447030 -0.001858 0.0
3.926955 0.751453 -0.003005 0.0
1.729252 1.137738 0.003520 0.0
1.616598 1.835258 0.003046 0.0
1.807241 0.781932 -0.002664 0.0
3.483234 1.043748 0.002153 0.0
1.463225 1.109271 -0.003129 0.0
4.216480 0.628667 -0.000055 0.0
3.672246 0.865878 -0.002213 0.0
0.940479 1.690492 0.001483 0.0
3.795833 0.252499 0.000326 0.0
1.194351 0.640172 -0.000004 0.0
2.497656 0.951837 -0.001998 0.0
4.418088 0.091427 -0.002213 0.0
0.598609 1.014601 -0.000334 0.0
2.481551 1.036627 0.004654 0.0
3.270185 0.516184 0.002275 0.0
4.471328 1.474819 -0.000531 0.0
3.791402 1.242998 -0.002824 0.0
3.768345 1.479427 -0.006742 0.0
1.857742 1.456475 0.000187 0.0
1.094838 0.374425 -0.000876 0.0
3.276628 0.378220 -0.001524 0.0
3.821626 0.436958 -0.001139 0.0
1.312100 0.040934 -0.003157 0.0
2.109466 0.781462 -0.000427 0.0
3.433930 1.803867 0.005327 0.0
4.399985 1.484533 0.000499 0.0
0.063445 1.779571 0.001776 0.0
4.493765 1.597453 -0.001462 0.0
1.331563 1.389761 -0.002515 0.0
3.577564 0.641492 -0.004224 0.0
3.774097 0.145355 -0.003833 0.0
2.079413 0.296234 0.000188 0.0
1.681418 0.714926 -0.001121 0.0
3.093838 1.170650 -0.001499 0.0
4.427633 0.885650 -0.000993 0.0
3.836248 1.061557 0.001186 0.0
2.274191 0.557673 -0.003505 0.0
2.977911 1.693367 0.000332 0.0
1.187785 0.214771 -0.002251 0.0
4.413252 1.456327 -0.001583 0.0
2.053940 0.979828 -0.000006 0.0
2.738126 1.833652 0.006114 0.0
4.283124 0.322536 0.003823 0.0
1.993994 0.238639 -0.000570 0.0
2.885378 0.874311 0.001663 0.0
1.974840 1.315322 -0.005362 0.0
0.720170 1.361021 0.002792 0.0
2.421939 0.483982 -0.002235 0.0
2.860200 0.572898 0.004153 0.0
3.722576 1.818073 0.002258 0.0
4.519582 1.616764 -0.000939 0.0
0.426233 1.703606 0.002282 0.0
0.781055 0.293826 0.003676 0.0
1.033224 0.684869 0.001168 0.0
1.456058 1.660060 0.000316 0.0
4.256129 1.629509 -0.001274 0.0
2.313411 0.183603 -0.001384 0.0
1.719839 1.511597 0.003615 0.0
2.698750 0.087103 0.006393 0.0
3.898789 1.560744 -0.002060 0.0
3.926191 1.497681 -0.002310 0.0
2.684792 1.779097 -0.000320 0.0
2.310197 0.637391 0.003537 0.0
1.765622 0.840937 0.007121 0.0
1.742010 0.762352 0.000009 0.0
3.465870 1.667411 -0.000643 0.0
1.487893 0.918506 -0.001528 0.0
0.392465 0.501615 0.000960 0.0
2.312288 0.776033 -0.000351 0.0
1.834904 1.645860 0.004060 0.0
2.110961 1.146931 0.002342 0.0
3.490648 1.626407 -0.006088 0.0
3.697091 0.407406 0.002036 0.0
0.597389 1.844325 -0.003466 0.0
3.378172 0.046318 -0.002077 0.0
2.502529 0.752049 -0.000895 0.0
4.367861 0.456494 -0.001750 0.0
1.025176 1.634774 0.000224 0.0
2.069884 0.576671 -0.004114 0.0
3.329528 1.593678 -0.000142 0.0
0.783445 0.413505 -0.000972 0.0
0.652368 1.474634 -0.001289 0.0
3.222607 1.264030 0.005009 0.0
3.266218 0.743657 -0.001053 0.0
2.803465 1.728241 -0.000209 0.0
1.737114 1.515074 0.003737 0.0
2.386894 0.776352 0.003051 0.0
3.542863 1.032732 0.004162 0.0
3.984221 1.519298 -0.003169 0.0
4.512111 1.827097 0.000158 0.0
1.604814 1.652837 -0.002436 0.0
3.149501 0.552158 -0.002496 0.0
3.335688 0.443169 -0.003711 0.0
3.298000 0.228991 -0.000113 0.0
0.585197 0.278841 -0.002279 0.0
3.912149 0.736788 -0.003505 0.0
1.190119 1.465609 -0.000919 0.0
4.419030 1.093225 0.000675 0.0
3.621037 1.717436 0.001957 0.0
4.003719 0.293760 -0.002164 0.0
4.433773 0.315922 0.002829 0.0
1.914308 1.573638 -0.002776 0.0
3.976671 1.829221 -0.003243 0.0
2.991341 0.437549 0.000759 0.0
3.388577 0.491249 0.000151 0.0
4.000022 0.383611 0.001033 0.0
4.565320 1.499827 -0.000050 0.0
4.160064 1.128913 -0.000979 0.0
1.044760 1.529879 -0.001108 0.0
0.133979 1.748180 -0.000948 0.0
4.460786 0.764766 -0.002402 0.0
3.506543 0.631593 -0.001267 0.0
3.943086 0.929824 -0.003038 0.0
1.603146 0.456782 0.001973 0.0
4.351583 0.593894 0.002340 0.0
1.137188 0.458979 -0.000488 0.0
1.596634 0.311285 0.002026 0.0
4.666512 0.928834 0.001931 0.0
2.138454 1.756735 -0.002789 0.0
4.428889 0.630916 0.000839 0.0
3.075703 1.500082 0.005872 0.0
3.989135 1.142159 0.002140 0.0
0.651704 1.143357 -0.000455 0.0
4.442731 0.840522 -0.000266 0.0
2.821637 0.575915 -0.000281 0.0
4.548378 0.220078 -0.002813 0.0
0.458666 1.447184 0.001836 0.0
1.257993 0.243373 0.000267 0.0
1.637521 0.844290 -0.001360 0.0
3.831217 0.849676 0.001063 0.0
3.407424 1.035792 -0.001542 0.0
4.408018 0.710831 0.001334 0.0
0.420511 1.240729 0.000519 0.0
0.314253 0.438149 -0.000220 0.0
2.811241 0.309034 0.000403 0.0
1.511038 1.205808 0.000498 0.0
2.861443 0.994105 -0.000263 0.0
4.197094 0.598671 0.001482 0.0
3.277448 0.449843 0.000089 0.0
0.615575 1.017942 -0.001594 0.0
0.876092 1.284784 0.000245 0.0
0.371300 1.203605 0.002782 0.0
1.395166 0.842371 -0.000405 0.0
1.872317 1.248919 0.000646 0.0
0.543234 0.819399 0.002311 0.0
1.316992 0.132383 -0.000823 0.0
3.480297 1.288132 0.001618 0.0
1.973805 1.300978 -0.001993 0.0
3.973161 0.515398 0.002141 0.0
3.723708 0.370735 -0.001569 0.0
4.071249 0.798116 -0.003314 0.0
3.148703 0.604176 0.001140 0.0
1.263849 1.694766 0.000990 0.0
2.532462 1.456682 -0.000651 0.0
0.663527 0.521308 0.001723 0.0
2.255401 0.248343 0.000442 0.0
0.978033 0.722323 0.002336 0.0
2.084026 1.601507 0.000204 0.0
3.294688 1.803775 0.001643 0.0
0.949038 1.665569 0.000601 0.0
1.189681 0.774681 -0.000000 0.0
2.799699 1.364046 -0.000845 0.0
2.831880 1.669508 -0.002576 0.0
3.893580 1.820901 -0.003813 0.0
1.682501 0.320885 -0.001466 0.0
1.144412 1.184384 0.000597 0.0
0.144277 0.362265 -0.004921 0.0
1.405099 1.449732 -0.002336 0.0
2.973534 0.165245 0.001738 0.0
0.482377 0.940099 0.000363 0.0
4.300895 1.645385 -0.001371 0.0
2.915086 1.065773 0.000054 0.0
1.429353 0.062179 0.000870 0.0
2.558912 0.814812 0.003783 0.0
4.195325 0.854157 0.001073 0.0
1.040994 0.442424 0.000897 0.0
3.685394 1.552259 -0.000815 0.0
3.796968 0.653723 -0.000345 0.0
4.338963 0.083874 0.001506 0.0
0.587078 0.099823 0.001934 0.0
1.757429 1.260129 -0.001642 0.0
2.490019 1.040878 0.000356 0.0
2.017646 1.414508 0.002139 0.0
2.585328 0.175287 -0.001902 0.0
4.120394 0.730347 -0.000387 0.0
4.103324 1.696568 0.002492 0.0
0.568370 1.202058 -0.000744 0.0
3.741356 0.992731 0.000018 0.0
4.336933 1.222455 -0.001793 0.0
1.648927 0.880186 0.000795 0.0
4.503942 1.064564 0.000173 0.0
4.601325 0.527172 -0.001831 0.0
4.202861 0.498303 -0.000978 0.0
0.264730 1.411127 -0.004159 0.0
2.895630 1.301784 -0.004819 0.0
1.597690 1.494083 0.001038 0.0
1.664532 1.402681 0.003793 0.0
2.738301 0.848969 0.000423 0.0
1.463149 0.692602 0.000522 0.0
4.529914 0.133671 0.004031 0.0
1.775370 0.260042 0.003035 0.0
2.066978 0.353718 -0.002799 0.0
2.205478 0.242377 -0.000409 0.0
1.599096 1.543007 -0.001731 0.0
2.980198 1.813500 0.002841 0.0
2.584460 0.753064 -0.000134 0.0
4.035018 0.793944 0.002136 0.0
4.134596 1.251890 -0.000657 0.0
3.108202 0.469084 0.000967 0.0
2.339887 0.160216 0.002862 0.0
2.116057 0.874715 -0.004003 0.0
0.117140 1.209361 0.003012 0.0
1.258107 1.784970 0.001419 0.0
1.001580 1.663073 0.001379 0.0
2.523063 1.231813 0.003375 0.0
0.814049 1.002384 -0.001388 0.0
3.668772 1.702311 -0.001386 0.0
4.212739 1.084046 -0.001464 0.0
2.491139 1.257142 0.000197 0.0
0.417634 0.008332 -0.001390 0.0
0.905785 1.217114 0.003299 0.0
4.621620 0.143647 -0.001006 0.0
1.520617 0.771230 -0.000676 0.0
3.419830 0.655450 -0.003921 0.0
0.468735 1.300424 -0.002551 0.0
3.360969 1.390719 0.001114 0.0
1.207501 1.446635 -0.003282 0.0
3.961863 0.709610 0.004087 0.0
2.716954 0.859205 -0.001908 0.0
4.127824 1.174488 0.002851 0.0
1.119712 1.655836 -0.001153 0.0
0.652725 0.079018 -0.000190 0.0
4.503304 1.068866 0.000064 0.0
0.498161 0.509915 -0.000824 0.0
3.283889 0.939774 -0.001783 0.0
1.558293 1.372521 0.000058 0.0
3.579181 0.760034 -0.000019 0.0
3.714619 1.479465 -0.001358 0.0
2.338969 0.973743 -0.003304 0.0
1.399551 1.468148 -0.002119 0.0
3.418007 1.338118 -0.000018 0.0
3.044915 1.155785 -0.002911 0.0
3.678740 0.023082 0.001674 0.0
1.261629 0.405238 0.003257 0.0
3.661932 1.835629 0.002378 0.0
1.621341 1.593394 -0.000482 0.0
0.585027 0.675932 0.001456 0.0
0.997805 0.871598 -0.002062 0.0
0.931529 1.286070 -0.001717 0.0
1.975350 0.773646 0.001508 0.0
2.904855 0.305282 0.000301 0.0
2.285597 0.687492 -0.002937 0.0
0.365390 0.049504 0.000418 0.0
2.003472 0.734834 0.000407 0.0
0.606882 1.119988 -0.001188 0.0
0.054318 0.139942 -0.000442 0.0
2.018119 0.291703 -0.001073 0.0
1.567284 0.935436 0.000277 0.0
3.696818 1.257261 -0.002264 0.0
2.431928 0.751746 0.004708 0.0
1.126647 1.457820 0.005251 0.0
1.028621 0.663806 0.002761 0.0
0.819310 1.697737 0.000964 0.0
0.736464 1.591846 0.001923 0.0
0.010559 1.549462 0.006100 0.0
1.630091 0.231820 -0.001333 0.0
2.294838 0.953070 0.000999 0.0
4.455157 1.050658 -0.001548 0.0
3.835120 0.894441 0.001732 0.0
3.719974 1.252037 0.000505 0.0
3.280786 1.741521 0.002256 0.0
4.629069 1.174543 0.004738 0.0
1.609653 0.819341 0.004628 0.0
2.424659 1.480288 -0.000745 0.0
3.377677 0.515852 0.001661 0.0
3.974431 0.891297 -0.003462 0.0
3.509651 0.540988 0.003627 0.0
2.496894 1.197204 -0.001530 0.0
0.409153 1.828398 0.002030 0.0
3.049902 0.595910 0.001347 0.0
3.757864 0.739376 0.001651 0.0
0.412990 1.506225 -0.001280 0.0
3.968935 1.247370 0.000098 0.0
3.036857 1.506522 -0.000125 0.0
4.420358 1.266854 -0.002939 0.0
2.364570 0.062178 0.000236 0.0
1.313175 0.857963 0.001650 0.0
0.506424 1.545513 -0.001021 0.0
1.068236 0.754791 -0.004215 0.0
3.434525 0.274341 0.002125 0.0
1.174770 0.215325 -0.000497 0.0
3.948239 0.155064 -0.000891 0.0
0.788378 1.242335 0.000162 0.0
3.268267 1.201637 0.002318 0.0
3.623017 1.656559 -0.000726 0.0
2.404131 0.483959 0.002134 0.0
2.284073 1.107059 0.000122 0.0
2.476559 0.217744 0.001584 0.0
3.649840 0.377746 -0.000587 0.0
2.558831 1.763985 0.002287 0.0
1.382010 1.378951 -0.002730 0.0
1.831266 1.819534 -0.001493 0.0
2.279751 0.412352 -0.002583 0.0
4.142384 1.031004 0.000028 0.0
0.923846 1.803348 0.001459 0.0
0.572132 0.290845 -0.003120 0.0
3.899094 0.821426 0.000670 0.0
4.516284 1.828233 0.003535 0.0
3.725995 1.665654 0.001173 0.0
4.064248 0.312646 -0.001863 0.0
4.589406 1.446915 -0.002209 0.0
2.581561 0.264982 -0.000218 0.0
3.455393 0.597570 -0.002874 0.0
0.808153 1.216221 0.002670 0.0
1.876979 0.146748 -0.004283 0.0
2.183503 0.858826 -0.001124 0.0
4.581306 0.014083 -0.001235 0.0
3.797219 1.387482 0.007745 0.0
3.452021 0.874190 0.003874 0.0
2.625706 0.056484 0.001393 0.0
3.678750 1.738198 0.003519 0.0
2.673293 0.777463 0.001194 0.0
3.758517 1.348884 0.002313 0.0
0.237475 0.955052 0.004136 0.0
4.392429 0.654913 0.001157 0.0
2.201146 0.995954 -0.001905 0.0
3.419609 0.896743 -0.002991 0.0
3.328108 0.609212 -0.000982 0.0
2.637153 1.764444 -0.004063 0.0
2.764668 1.833459 0.003257 0.0
3.097075 0.816512 -0.002370 0.0
0.963393 0.715618 -0.002260 0.0
4.513611 0.929677 -0.001288 0.0
3.901634 0.827686 0.001764 0.0
2.400390 1.618504 0.003004 0.0
0.415393 1.351353 -0.001370 0.0
2.157123 1.515590 -0.002709 0.0
0.279984 0.496082 0.000075 0.0
3.672993 1.321804 -0.000282 0.0
2.435219 1.008340 -0.000859 0.0
3.159725 1.336700 0.001378 0.0
4.008033 0.094217 0.003188 0.0
1.633818 0.841560 0.000463 0.0
0.348573 1.134021 0.002446 0.0
2.321180 1.509534 -0.002334 0.0
1.964644 1.466686 -0.001104 0.0
