2.383532 2.437172 0.000420 0.0
0.360426 1.904361 -0.005375 0.0
3.848416 0.484132 0.001757 0.0
0.782505 0.053842 0.001918 0.0
3.371376 1.646991 0.002252 0.0
3.582073 1.905623 -0.002211 0.0
4.374871 0.605542 0.000582 0.0
4.117784 0.797624 0.000292 0.0
0.081623 1.980753 -0.001582 0.0
1.655920 1.953783 0.004789 0.0
3.505240 0.192797 0.004627 0.0
4.506280 0.655592 -0.003726 0.0
0.388543 1.961662 -0.006515 0.0
3.401104 2.289597 0.001679 0.0
2.208603 2.263557 0.000380 0.0
1.591062 0.815575 0.004746 0.0
3.910191 0.078275 -0.000409 0.0
1.902184 2.454686 -0.000094 0.0
0.206419 1.305267 0.002742 0.0
2.262743 0.062270 -0.000904 0.0
3.619708 0.387245 -0.000996 0.0
0.377378 0.339019 -0.002066 0.0
1.628833 1.744201 0.001052 0.0
0.599449 0.680377 -0.000047 0.0
1.154479 1.424626 -0.002663 0.0
1.683603 0.485210 -0.001759 0.0
0.313174 0.460280 -0.005400 0.0
1.120108 0.986178 -0.001808 0.0
1.092202 0.132302 0.000836 0.0
3.174456 0.915782 -0.000399 0.0
1.688229 1.514086 -0.001830 0.0
3.166294 2.178537 -0.002636 0.0
3.021882 1.435096 0.000432 0.0
3.720137 1.169968 -0.000820 0.0
1.739197 0.728767 0.005776 0.0
2.801812 1.107103 0.003612 0.0
4.022000 0.848978 -0.002183 0.0
0.659974 1.617885 -0.001495 0.0
0.679048 1.079226 0.002023 0.0
2.759304 1.685392 0.000369 0.0
1.393697 1.734572 0.000505 0.0
0.509137 1.947628 -0.004602 0.0
4.205782 1.674844 0.005289 0.0
2.271573 0.663246 -0.001962 0.0
1.771271 0.238987 -0.001211 0.0
1.116615 0.146788 0.003319 0.0
3.512758 1.164188 0.002601 0.0
3.721980 1.073236 0.000588 0.0
0.005016 1.408685 -0.001259 0.0
0.724491 2.460559 0.000167 0.0
2.387278 0.066127 -0.003477 0.0
2.363047 0.558987 -0.000089 0.0
0.575740 1.157287 0.001798 0.0
3.496729 1.324697 -0.002201 0.0
3.237306 2.392441 0.000844 0.0
3.938833 1.625790 0.000251 0.0
1.506295 0.297875 -0.003037 0.0
2.462235 0.899148 -0.002051 0.0
3.609689 0.014364 -0.005257 0.0
3.527432 0.631028 0.001235 0.0
3.465131 1.195207 -0.000597 0.0
3.854288 1.514944 -0.002311 0.0
2.271430 2.273995 -0.000519 0.0
1.879972 2.205091 0.002656 0.0
2.296402 0.338072 -0.002704 0.0
1.200746 0.416302 0.000349 0.0
1.127893 0.448007 0.002260 0.0
2.241734 1.184079 0.004904 0.0
2.228518 0.545651 0.001225 0.0
1.360000 0.461362 0.004174 0.0
0.989032 1.967537 0.000038 0.0
2.886735 1.269561 -0.000720 0.0
3.655444 1.944187 -0.001448 0.0
4.511815 1.565991 0.002874 0.0
3.754183 2.113448 -0.001259 0.0
0.184909 0.953601 0.000090 0.0
2.456254 1.251856 0.002495 0.0
3.439770 2.102724 0.003672 0.0
0.472978 0.024312 -0.000554 0.0
1.717513 2.395013 0.001383 0.0
1.788866 2.143198 -0.001354 0.0
0.262655 2.327497 0.001389 0.0
4.088345 0.741261 0.002562 0.0
1.785475 0.815221 -0.000211 0.0
4.259862 1.808603 -0.000207 0.0
4.394388 1.334342 0.004189 0.0
3.259245 1.770932 -0.003965 0.0
1.229766 1.165669 0.004561 0.0
0.385297 0.285224 0.001015 0.0
1.905422 2.058787 -0.001487 0.0
3.435452 1.599119 0.002531 0.0
2.528966 0.855041 -0.000398 0.0
3.674119 1.981051 -0.000965 0.0
4.037752 1.933512 -0.005244 0.0
0.671161 1.523160 0.000792 0.0
1.781697 0.179164 -0.002195 0.0
0.824721 2.200582 -0.001247 0.0
0.162333 1.519104 -0.001129 0.0
0.915820 1.315005 -0.004411 0.0
3.674406 2.380639 -0.000391 0.0
2.755564 0.374659 -0.003157 0.0
2.781156 0.072140 -0.002582 0.0
3.521313 0.136103 0.000985 0.0
2.621837 0.673721 0.001104 0.0
0.110987 0.700427 0.002841 0.0
2.035123 0.174278 0.001043 0.0
3.918423 1.558480 -0.006490 0.0
1.114610 0.362838 -0.001849 0.0
2.065166 1.168221 -0.001833 0.0
1.296804 2.051036 0.003339 0.0
2.095044 1.216086 -0.004975 0.0
3.818087 2.393339 0.000200 0.0
3.451367 1.815331 0.000889 0.0
4.365055 0.109897 -0.001631 0.0
3.551225 1.813771 0.001590 0.0
1.157081 0.245768 0.001019 0.0
3.878098 1.002336 0.001959 0.0
1.188456 2.385382 -0.000314 0.0
2.028815 0.560573 -0.001398 0.0
0.590142 2.085373 -0.000861 0.0
4.057720 1.696904 0.001203 0.0
3.672195 0.251588 0.004008 0.0
0.473785 2.200504 -0.001504 0.0
0.648649 1.187478 0.003834 0.0
1.734821 0.373399 0.000061 0.0
0.137042 0.571217 -0.001705 0.0
3.346549 2.244776 -0.002941 0.0
1.549215 0.624266 -0.004098 0.0
2.378707 0.964218 -0.002558 0.0
2.532235 0.566096 0.001279 0.0
2.257426 0.875273 0.001042 0.0
1.949819 0.312358 -0.000078 0.0
3.966470 1.771432 0.002037 0.0
0.245504 2.131386 -0.001967 0.0
0.782790 0.427214 0.002036 0.0
2.388333 2.390806 0.004605 0.0
4.066288 1.354467 -0.003647 0.0
0.113848 1.106688 -0.001853 0.0
3.999652 0.654539 -0.004583 0.0
0.147132 0.741180 -0.004070 0.0
0.416811 1.773156 0.004748 0.0
0.348017 2.301838 0.001045 0.0
0.402851 0.061168 -0.006390 0.0
2.581365 2.253873 0.000261 0.0
2.682804 1.222098 -0.001025 0.0
3.052121 2.452229 -0.000267 0.0
2.468705 0.939150 -0.000529 0.0
0.287485 1.442019 -0.002180 0.0
4.309607 0.035108 -0.000632 0.0
3.960629 2.107104 0.001993 0.0
3.973748 2.030484 0.002987 0.0
0.597681 0.541924 -0.000472 0.0
2.392179 1.665157 0.002088 0.0
3.270084 0.122538 -0.000069 0.0
4.482239 1.024294 0.002403 0.0
3.251258 0.968604 -0.000071 0.0
3.793331 1.670402 -0.001764 0.0
3.578779 0.467731 0.000404 0.0
0.972796 1.045526 0.000480 0.0
3.209686 0.945052 0.001814 0.0
4.061552 2.408429 -0.001209 0.0
3.475697 1.164660 0.005923 0.0
4.146304 0.734076 -0.000330 0.0
0.533905 0.986594 -0.000150 0.0
3.104643 0.489696 -0.001737 0.0
4.202542 0.641929 -0.001409 0.0
2.314680 1.681649 0.002258 0.0
2.608461 1.370037 -0.003372 0.0
1.102103 1.544042 0.001616 0.0
0.787324 2.119878 0.000980 0.0
2.295071 0.495248 -0.003742 0.0
1.004408 0.633122 -0.002471 0.0
1.538377 1.646349 0.002347 0.0
3.611810 1.514690 0.003570 0.0
1.684096 1.771287 -0.000507 0.0
0.562587 2.242151 -0.001955 0.0
2.666834 0.622407 0.000281 0.0
3.544091 0.064180 0.001082 0.0
0.929544 1.683974 0.000386 0.0
1.943806 2.127030 0.000031 0.0
1.812270 2.293191 -0.001784 0.0
2.669167 2.248081 0.004792 0.0
3.409427 0.777305 -0.001633 0.0
0.834056 1.538449 -0.002969 0.0
1.353128 1.661607 -0.000095 0.0
4.029380 1.825878 0.000938 0.0
0.645170 2.095869 0.002337 0.0
4.219715 0.928139 0.002629 0.0
1.377744 2.474641 0.000956 0.0
0.945759 1.945649 -0.001266 0.0
0.606214 1.971659 0.003220 0.0
0.815283 0.188068 -0.001920 0.0
2.254597 0.200946 -0.000549 0.0
3.520241 2.117109 -0.004164 0.0
0.274276 1.974767 0.002792 0.0
1.728159 0.667150 0.003091 0.0
0.841780 0.315438 -0.001757 0.0
0.370126 2.193005 0.002020 0.0
4.091205 0.576490 0.002186 0.0
1.249261 0.234567 -0.000891 0.0
2.066609 0.881244 -0.001960 0.0
3.769181 1.088502 0.005344 0.0
3.415769 1.968354 0.000959 0.0
2.400275 1.285894 -0.000923 0.0
3.919819 1.414930 0.001438 0.0
1.724528 1.478290 0.000610 0.0
1.921391 2.310279 0.002368 0.0
3.281802 1.220651 0.002001 0.0
4.302649 1.976596 0.000656 0.0
3.850248 2.135184 -0.005287 0.0
2.908169 1.959883 0.001314 0.0
2.126206 0.635797 0.001835 0.0
2.659523 0.425862 -0.002239 0.0
0.796328 2.428500 -0.000450 0.0
2.751919 2.082553 -0.002572 0.0
3.641995 0.182701 0.001147 0.0
0.126837 0.152318 -0.002075 0.0
0.385147 2.314769 -0.004828 0.0
2.074749 1.900972 -0.002963 0.0
4.457325 0.589303 0.003865 0.0
3.216183 1.281518 -0.001687 0.0
1.385508 1.615161 0.000608 0.0
0.571737 2.068029 0.004427 0.0
0.993297 0.220347 0.000669 0.0
1.633058 1.457428 0.002025 0.0
2.830144 2.208850 0.002388 0.0
1.314377 0.784673 0.003002 0.0
3.273964 0.807634 0.004226 0.0
1.914691 1.137922 -0.000203 0.0
1.504291 0.677608 0.001748 0.0
1.981343 2.381284 -0.003913 0.0
1.056726 0.321895 -0.003125 0.0
3.092326 1.663761 0.005379 0.0
1.892521 0.811781 -0.003602 0.0
3.065478 1.062855 0.000457 0.0
0.762311 0.886015 -0.000454 0.0
3.996075 1.326280 -0.001074 0.0
3.181655 2.007435 -0.000862 0.0
3.426033 0.085185 -0.003309 0.0
3.362361 1.266575 -0.001235 0.0
2.964341 2.022984 -0.001582 0.0
2.760396 1.223504 -0.000410 0.0
2.914616 1.442818 -0.002227 0.0
3.514553 1.707965 -0.000648 0.0
2.932383 1.004164 -0.001010 0.0
3.992390 0.772111 -0.002338 0.0
2.137337 1.602900 0.001059 0.0
3.811038 2.031208 -0.003312 0.0
0.562120 0.130284 0.001976 0.0
1.776732 1.281299 0.000387 0.0
3.933727 0.912792 -0.003414 0.0
3.723170 1.554046 0.001288 0.0
3.092484 0.778147 -0.001499 0.0
0.344211 1.315887 -0.000278 0.0
3.441668 0.631946 -0.000111 0.0
1.990698 1.200050 0.001382 0.0
0.580528 0.307608 -0.001213 0.0
1.298779 0.956638 -0.000840 0.0
4.103278 1.369173 -0.001546 0.0
0.391032 1.804168 0.000146 0.0
4.382902 1.155298 0.004313 0.0
1.143560 0.699368 0.001207 0.0
3.237999 0.657986 -0.006224 0.0
0.280835 1.257571 0.004523 0.0
1.112025 1.141828 -0.004516 0.0
1.316942 0.533735 -0.002864 0.0
3.751393 0.569194 0.003493 0.0
2.473369 1.756665 -0.001435 0.0
1.357619 1.310321 -0.003275 0.0
3.361499 1.466251 -0.001254 0.0
0.570373 1.790376 -0.001984 0.0
1.819197 1.854388 -0.001885 0.0
3.591620 1.146789 0.001533 0.0
1.280810 1.583725 -0.000224 0.0
4.215085 0.274209 0.000626 0.0
3.545443 1.314121 0.003449 0.0
1.508600 1.339106 0.000007 0.0
2.448023 1.102653 0.003087 0.0
4.322392 0.266933 0.000238 0.0
1.053336 1.741850 -0.000225 0.0
4.430204 1.600679 0.000097 0.0
2.719016 0.238616 0.002456 0.0
4.370263 1.827447 0.000244 0.0
2.523339 0.617101 -0.003281 0.0
0.727699 2.381612 0.000448 0.0
3.595503 1.256898 0.000757 0.0
1.844466 1.407060 0.000579 0.0
2.201821 2.434821 0.004956 0.0
2.436384 0.114505 0.005162 0.0
2.813916 2.270433 0.002673 0.0
2.000736 0.224919 0.003887 0.0
3.782616 1.831615 0.002960 0.0
1.932872 2.199637 -0.000648 0.0
1.625209 1.607727 -0.000928 0.0
2.663264 2.346120 0.000651 0.0
3.684328 1.243296 0.002268 0.0
1.760066 2.323579 0.000184 0.0
1.767657 0.879585 0.002168 0.0
0.548678 1.723668 -0.004360 0.0
1.012655 0.272722 0.002628 0.0
2.663894 0.446594 0.001460 0.0
3.642950 2.395665 -0.000450 0.0
0.833157 0.013378 -0.003044 0.0
1.830028 1.761449 0.003157 0.0
1.050062 1.719641 0.001259 0.0
0.290515 0.422102 0.000682 0.0
1.336591 2.450040 -0.001927 0.0
1.213031 0.935169 -0.003955 0.0
4.014380 0.685968 -0.004090 0.0
4.167001 1.509766 -0.000764 0.0
2.830983 1.369577 -0.000453 0.0
2.016413 0.576903 0.000425 0.0
4.455562 0.707146 -0.000748 0.0
3.326667 1.435056 0.006625 0.0
0.464303 0.065132 0.003466 0.0
1.116619 0.627981 -0.001967 0.0
3.398192 2.292929 -0.002052 0.0
1.976520 2.350985 -0.000450 0.0
3.948935 1.725351 0.001970 0.0
1.258220 0.858295 -0.000851 0.0
0.748947 2.391094 0.001814 0.0
2.723787 2.430403 -0.003365 0.0
3.392813 0.788216 -0.002056 0.0
1.614605 2.445050 0.000405 0.0
3.712301 0.447234 -0.001167 0.0
0.444493 0.978124 -0.002228 0.0
1.021922 0.168765 0.000018 0.0
0.918588 2.436550 0.002651 0.0
0.260592 2.368399 -0.001487 0.0
0.336768 0.131461 0.003663 0.0
2.722949 0.927087 0.000520 0.0
0.467998 2.145374 0.000632 0.0
1.161021 0.572729 0.000032 0.0
0.291456 0.869248 -0.003491 0.0
1.045860 2.242748 -0.001248 0.0
4.152872 2.280662 0.001620 0.0
1.955291 1.612270 -0.000298 0.0
4.013941 2.230351 -0.000681 0.0
1.930390 2.106828 0.000166 0.0
0.629121 0.487543 0.002530 0.0
2.820299 0.210382 0.000797 0.0
0.894451 0.867019 0.001593 0.0
1.754918 1.299888 0.001201 0.0
3.576936 0.149545 0.003397 0.0
3.119774 1.008953 -0.002694 0.0
2.376080 2.450926 0.001076 0.0
0.331423 1.082853 0.002085 0.0
3.396087 0.090929 0.000597 0.0
1.331083 0.110381 -0.003368 0.0
4.066981 1.616957 -0.002860 0.0
3.603425 0.169568 -0.000161 0.0
1.873478 0.309037 -0.002826 0.0
2.027438 0.055531 0.003316 0.0
4.412169 1.421279 -0.000586 0.0
4.482455 0.738048 0.003533 0.0
3.492770 0.888548 0.002444 0.0
3.200702 1.846813 0.003684 0.0
0.350654 0.734243 0.002824 0.0
2.868761 0.267864 0.000336 0.0
3.401878 0.823886 -0.002186 0.0
3.894761 0.106529 -0.001421 0.0
0.036421 2.384699 -0.000281 0.0
2.787090 0.421432 -0.001390 0.0
0.461650 2.175729 0.002155 0.0
1.692713 0.571768 -0.003674 0.0
4.418005 2.389191 -0.002791 0.0
0.702153 2.232707 0.000028 0.0
4.171454 1.845311 -0.000191 0.0
1.802857 2.229387 -0.001934 0.0
0.777187 1.383399 0.000675 0.0
0.612680 0.908867 -0.001390 0.0
2.890050 1.412833 -0.000541 0.0
1.541254 0.348165 0.001212 0.0
2.989017 1.602391 0.004240 0.0
4.069662 2.200296 0.001365 0.0
2.691377 1.644220 -0.001114 0.0
0.917284 0.424759 -0.000026 0.0
3.847847 1.071420 -0.002693 0.0
0.343888 2.256426 0.004782 0.0
0.030728 0.479720 0.002769 0.0
4.151395 1.450048 -0.003526 0.0
3.507349 0.397816 -0.004100 0.0
2.127719 1.544854 -0.006566 0.0
2.095394 2.117159 0.002552 0.0
2.437851 1.619731 0.002481 0.0
2.888156 0.364333 -0.003972 0.0
2.227574 2.195913 -0.000544 0.0
2.001035 0.236934 -0.002463 0.0
3.751833 1.873456 0.002013 0.0
0.748649 2.179648 0.003142 0.0
3.960354 1.087581 0.002661 0.0
2.007117 2.362434 -0.001582 0.0
2.238358 2.099358 -0.002305 0.0
0.167129 0.419905 -0.001723 0.0
1.091853 2.292035 -0.003340 0.0
3.891401 0.801220 -0.001456 0.0
4.423370 1.060017 -0.000115 0.0
1.055112 0.191442 0.001303 0.0
1.431709 1.053302 -0.004045 0.0
3.212735 1.218120 -0.002262 0.0
1.719136 2.455050 -0.001315 0.0
3.088551 1.928419 -0.002392 0.0
1.831133 0.348851 0.002405 0.0
3.365664 1.673252 0.002901 0.0
1.678940 1.029308 0.004803 0.0
1.558800 1.057873 0.003670 0.0
2.622123 2.435414 0.000919 0.0
0.193143 1.230667 0.001103 0.0
0.876806 1.945379 0.000130 0.0
3.246763 0.693581 0.004391 0.0
0.358557 0.471559 0.004203 0.0
1.476043 1.529241 0.001923 0.0
1.354006 1.855612 0.003749 0.0
2.735617 1.301639 0.000563 0.0
3.926907 1.629093 0.002200 0.0
0.022112 2.187502 0.002054 0.0
4.442001 0.933441 -0.001514 0.0
3.564189 1.456354 0.001865 0.0
1.381924 1.624392 -0.006571 0.0
0.816136 1.921283 -0.003262 0.0
1.019276 0.180573 -0.003338 0.0
3.189866 1.758554 -0.002041 0.0
1.233525 1.966260 0.000933 0.0
1.961013 0.142781 -0.001536 0.0
0.606250 0.572934 -0.002168 0.0
0.528339 2.294336 -0.003430 0.0
1.202699 1.133205 -0.001788 0.0
4.231067 2.394772 0.000688 0.0
2.534578 1.694612 0.002304 0.0
3.349901 2.324690 -0.003874 0.0
3.489486 2.051674 -0.006913 0.0
1.555461 0.957486 -0.001727 0.0
4.447010 1.214894 -0.000572 0.0
1.609654 1.186807 -0.002092 0.0
2.384284 1.145129 -0.000294 0.0
3.828701 1.111467 -0.003053 0.0
3.364501 1.014933 -0.000028 0.0
2.039658 1.636861 0.001036 0.0
4.269270 0.891397 0.004636 0.0
1.536779 0.891635 -0.000901 0.0
0.945963 0.537220 -0.000300 0.0
1.744335 2.440695 -0.002385 0.0
2.591737 1.981998 -0.001772 0.0
0.409428 1.174132 0.000698 0.0
0.176901 0.237475 -0.001285 0.0
1.027277 1.392179 -0.001348 0.0
1.051475 1.339723 -0.004098 0.0
3.280125 1.749920 0.000573 0.0
3.885445 2.370035 -0.001975 0.0
0.787425 1.581724 0.001496 0.0
0.096359 1.378837 -0.001813 0.0
3.314576 1.415778 -0.001887 0.0
1.361351 0.287461 0.002099 0.0
1.754609 0.533422 -0.003874 0.0
0.357902 1.623553 0.000327 0.0
2.510982 0.212574 -0.000784 0.0
0.461284 0.430202 -0.001329 0.0
4.165895 0.304046 0.000586 0.0
0.365621 0.322325 -0.003042 0.0
3.039488 1.563831 0.002816 0.0
3.433435 0.523123 -0.002918 0.0
1.944186 2.023872 -0.001148 0.0
3.831218 0.741464 -0.004267 0.0
1.099712 1.632150 0.003455 0.0
0.116449 0.296386 0.001503 0.0
2.291607 1.695983 -0.003610 0.0
3.118431 1.615766 -0.001828 0.0
4.462017 1.132237 0.000717 0.0
0.831890 0.634681 -0.004535 0.0
1.577242 0.510625 0.000642 0.0
0.434909 2.221597 -0.008159 0.0
0.239498 0.825814 0.000288 0.0
0.762410 1.213745 -0.000627 0.0
0.460312 0.290379 0.002324 0.0
1.722004 1.755408 0.001943 0.0
1.202770 2.247672 -0.001811 0.0
0.931136 2.045335 0.000264 0.0
0.721402 0.247863 -0.002857 0.0
3.157467 1.547381 0.002669 0.0
0.626796 2.006045 0.003581 0.0
1.761835 0.936703 -0.000192 0.0
0.174794 1.875590 -0.001074 0.0
3.435602 2.396809 0.001846 0.0
1.712297 0.342909 0.000414 0.0
0.686146 2.016129 0.002462 0.0
1.091545 0.130837 0.001325 0.0
1.901720 1.731802 0.001254 0.0
2.262728 1.103272 -0.000377 0.0
0.643174 2.202735 -0.004978 0.0
2.922911 0.969616 0.000728 0.0
0.787764 1.307519 0.003498 0.0
2.047126 0.325355 0.001211 0.0
4.212825 1.873250 -0.000995 0.0
0.084013 1.089096 0.001237 0.0
4.270524 0.798289 -0.000217 0.0
4.478115 2.474298 0.000241 0.0
4.362110 0.860815 -0.002251 0.0
3.172283 0.707216 0.000884 0.0
0.232993 1.406056 -0.000821 0.0
3.874065 1.342470 0.002993 0.0
1.577901 0.688054 0.000325 0.0
3.946460 1.032255 -0.000375 0.0
0.362713 0.711860 -0.000906 0.0
0.059684 1.606720 -0.003011 0.0
2.247269 1.866167 0.001376 0.0
3.887992 2.023062 0.002303 0.0
3.414049 1.861750 -0.003901 0.0
0.627454 1.720861 0.000736 0.0
1.900700 1.630341 0.002243 0.0
0.438019 1.277207 -0.001134 0.0
3.305422 1.469661 0.001534 0.0
3.681534 2.216978 0.002042 0.0
3.110087 1.621926 0.004727 0.0
1.857047 0.759163 0.000107 0.0
3.437785 2.256494 -0.000213 0.0
1.720125 0.428913 0.001778 0.0
2.169247 1.028575 0.002044 0.0
2.682547 1.682769 -0.000663 0.0
4.067075 0.302444 0.000570 0.0
2.132092 1.772538 -0.001066 0.0
2.143541 1.188759 0.001519 0.0
3.817860 0.360678 0.001874 0.0
1.069536 2.404986 -0.003189 0.0
0.461963 0.484701 0.000268 0.0
2.543975 0.403128 -0.003592 0.0
0.687166 1.758320 0.004153 0.0
2.963812 0.002382 0.003494 0.0
3.178836 1.019457 -0.000323 0.0
0.145697 0.891007 0.003281 0.0
0.950389 0.984285 -0.001559 0.0
3.274149 1.188230 0.000993 0.0
3.910005 1.281574 -0.000958 0.0
0.076562 2.038213 -0.000187 0.0
3.232195 0.323228 0.000227 0.0
1.863257 0.268586 -0.000253 0.0
2.600470 0.915876 0.004020 0.0
1.717220 1.443813 -0.000876 0.0
0.309962 1.349494 0.001244 0.0
2.274705 0.346378 0.001187 0.0
2.060773 1.167976 -0.001590 0.0
1.254768 1.956606 0.006665 0.0
2.724142 1.052569 0.002179 0.0
1.175200 0.593268 0.002828 0.0
0.028752 0.986614 0.002611 0.0
4.053413 1.174318 0.001878 0.0
3.972216 1.706442 -0.001439 0.0
1.241368 0.431987 0.003237 0.0
1.808991 1.384716 0.000308 0.0
3.687220 1.401052 -0.002706 0.0
1.470690 1.430031 -0.001760 0.0
1.053559 0.891900 -0.001872 0.0
0.088093 0.195889 -0.003227 0.0
0.059496 1.888215 -0.001804 0.0
0.366762 1.798527 -0.001321 0.0
3.560539 0.259375 -0.002285 0.0
4.387668 1.048013 -0.003178 0.0
2.912260 0.087295 -0.002650 0.0
3.142818 1.353177 0.000954 0.0
2.673377 0.368882 -0.000782 0.0
2.046899 0.072279 0.002414 0.0
2.004318 1.026273 0.003971 0.0
0.987349 2.326972 -0.007294 0.0
0.551165 0.869059 -0.000007 0.0
3.033622 1.935230 -0.001080 0.0
4.234466 0.111496 -0.001314 0.0
2.724546 0.137615 0.005072 0.0
3.362121 0.836000 -0.002274 0.0
3.035593 0.428902 -0.002497 0.0
3.219137 1.909763 0.001205 0.0
0.975753 2.198846 -0.000801 0.0
4.165458 0.279922 0.001907 0.0
2.157585 0.047805 -0.001226 0.0
0.707860 2.096568 0.003362 0.0
2.881123 2.058558 -0.001365 0.0
1.305949 0.493636 0.000045 0.0
2.590980 0.782763 0.001192 0.0
2.273868 0.680958 0.000891 0.0
0.934720 0.405986 0.001365 0.0
0.278572 2.391264 0.004294 0.0
0.470805 1.682349 0.002695 0.0
2.002238 0.990276 -0.003140 0.0
3.150490 1.604992 0.002825 0.0
0.541092 0.406312 -0.003010 0.0
0.388461 1.132503 0.001395 0.0
3.919335 1.626280 -0.002513 0.0
1.218330 1.785328 -0.002610 0.0
3.578121 0.427620 0.000769 0.0
1.494419 0.682382 -0.001437 0.0
0.912462 0.031087 0.004346 0.0
2.906078 2.385099 -0.007148 0.0
0.066858 1.721227 0.000551 0.0
3.131205 2.224830 0.001386 0.0
0.765760 0.953466 0.002739 0.0
0.221121 0.641862 0.001444 0.0
2.703820 0.107165 -0.000824 0.0
4.501883 2.483972 -0.000736 0.0
4.076096 2.301314 -0.000033 0.0
0.219454 1.993321 0.000146 0.0
4.293633 1.059195 -0.004964 0.0
2.742617 2.310382 -0.000814 0.0
0.959900 2.410871 0.000133 0.0
2.633766 1.782829 -0.001230 0.0
1.950421 1.799333 0.001528 0.0
3.163288 1.833215 0.002399 0.0
1.590008 1.685565 0.000289 0.0
3.588051 0.384461 0.003501 0.0
0.274185 0.895254 0.003316 0.0
1.467781 2.439062 0.002083 0.0
1.822900 0.607612 -0.004446 0.0
1.291495 1.904721 -0.003029 0.0
2.796954 2.461184 -0.000783 0.0
0.741179 2.024518 -0.000819 0.0
0.830699 1.362975 -0.000116 0.0
4.289028 1.045932 -0.001292 0.0
2.307166 0.735650 -0.003661 0.0
1.943895 0.151598 0.001587 0.0
0.485146 2.220104 0.001273 0.0
1.815969 0.044712 -0.002048 0.0
1.597579 0.845249 0.000622 0.0
2.974095 1.238694 -0.003387 0.0
0.593608 2.170647 -0.001995 0.0
0.468214 0.562415 0.003353 0.0
3.104740 0.149053 0.002850 0.0
0.168317 0.018335 -0.000788 0.0
3.201760 2.274067 0.002207 0.0
1.695248 2.456715 -0.004199 0.0
2.824569 1.490658 -0.001819 0.0
1.301537 2.448133 -0.002219 0.0
2.197122 1.355437 -0.002256 0.0
1.494489 1.730078 0.002228 0.0
1.434359 1.675464 0.000978 0.0
0.628656 0.283056 0.000075 0.0
4.170883 0.326070 0.000512 0.0
1.764878 0.058649 0.000949 0.0
1.911586 2.182114 0.000278 0.0
4.323296 0.483454 -0.002043 0.0
3.127693 0.120716 -0.002750 0.0
3.403293 1.855799 -0.000501 0.0
3.722030 0.783138 0.002653 0.0
0.013343 2.445584 -0.005955 0.0
3.664166 1.909719 0.001645 0.0
4.242021 1.736763 0.000486 0.0
2.832522 2.083705 -0.000372 0.0
2.940826 1.672975 -0.000130 0.0
2.151267 1.056440 -0.001696 0.0
0.806855 0.473210 -0.004369 0.0
3.315810 0.291823 -0.005806 0.0
4.161910 2.205496 -0.006498 0.0
4.079488 0.762954 -0.003520 0.0
3.501694 0.693165 0.002205 0.0
3.479876 1.956368 -0.002895 0.0
3.723326 0.222663 0.000676 0.0
1.544268 0.722509 0.002270 0.0
0.763276 1.500721 -0.000110 0.0
2.561112 2.415503 0.001735 0.0
3.108158 0.725465 0.001973 0.0
2.743600 1.857727 -0.000856 0.0
0.095210 0.444185 0.003369 0.0
0.506500 0.814709 0.002576 0.0
4.229191 0.490899 0.002902 0.0
2.238456 0.235969 0.000647 0.0
3.847692 1.771543 0.000422 0.0
1.774568 0.266535 0.000974 0.0
0.958177 1.428575 -0.001773 0.0
0.442468 2.088534 -0.005225 0.0
4.262939 0.103165 0.000409 0.0
0.786022 0.969233 -0.002162 0.0
0.311655 2.302081 -0.002080 0.0
4.113880 1.736386 0.005220 0.0
2.040542 2.103668 -0.003618 0.0
1.001339 1.548859 -0.005363 0.0
0.489582 0.535091 -0.000633 0.0
2.550448 0.673086 0.003034 0.0
2.764830 1.881139 0.001311 0.0
1.940293 1.556432 -0.005018 0.0
3.366729 2.443231 -0.002737 0.0
0.459233 2.379779 0.004014 0.0
0.670036 0.400718 -0.004049 0.0
3.866420 1.808562 -0.003711 0.0
0.670464 0.461497 -0.002760 0.0
2.500352 2.084130 -0.000739 0.0
3.848451 0.109249 -0.005080 0.0
2.333923 1.220047 0.000693 0.0
3.464602 0.051094 0.000189 0.0
1.061863 1.616383 -0.004469 0.0
0.379269 2.087441 -0.000645 0.0
2.217730 2.168714 0.000161 0.0
4.297497 1.713338 -0.001146 0.0
4.217823 0.822839 -0.001410 0.0
2.993603 0.314503 -0.006964 0.0
3.593093 2.395738 0.001137 0.0
0.070919 2.224864 -0.000169 0.0
0.481699 0.750149 -0.000860 0.0
0.175096 -0.001765 0.000244 0.0
2.724145 0.142600 0.002107 0.0
2.640692 1.323946 0.000983 0.0
4.089113 1.598260 -0.000690 0.0
0.711190 1.821623 -0.000384 0.0
4.504954 1.434503 0.002114 0.0
3.034506 0.466244 -0.000533 0.0
0.508198 0.608312 0.000835 0.0
3.129697 2.466616 0.003088 0.0
3.012376 2.313196 -0.001308 0.0
0.616084 0.903614 0.003047 0.0
0.461105 0.841009 0.003766 0.0
4.457157 1.812474 -0.000781 0.0
4.317901 2.343883 0.003763 0.0
0.733586 0.524725 0.001658 0.0
2.808399 1.507546 0.002484 0.0
1.795431 1.228224 0.002699 0.0
2.008356 1.780884 -0.001932 0.0
3.060856 0.698394 0.003060 0.0
1.636130 1.610634 -0.003989 0.0
2.320973 1.992116 -0.000442 0.0
3.746393 0.362687 -0.002780 0.0
2.375702 0.367324 -0.000865 0.0
1.057613 0.982400 -0.000389 0.0
4.460012 1.652209 0.004305 0.0
1.684442 0.822918 0.000060 0.0
0.344952 1.358536 -0.001474 0.0
0.211761 1.719813 0.000402 0.0
1.014865 1.156658 -0.000353 0.0
3.418635 0.414120 -0.002057 0.0
1.088416 0.986029 -0.000904 0.0
3.319225 1.071496 -0.001329 0.0
2.334251 2.293775 -0.002278 0.0
2.753228 1.471227 -0.001331 0.0
0.712896 1.566949 0.001849 0.0
4.326031 0.099355 -0.003058 0.0
2.884575 1.108822 -0.000893 0.0
1.128151 0.791484 0.001155 0.0
4.074464 0.851716 0.003089 0.0
2.450418 0.531984 0.003146 0.0
4.098133 1.138563 0.001798 0.0
3.248568 2.357356 -0.004567 0.0
2.295538 1.540300 0.000339 0.0
1.485770 0.603534 0.003696 0.0
3.474856 0.386369 -0.002001 0.0
1.343606 1.468162 -0.000539 0.0
1.585547 0.605772 0.001189 0.0
3.706643 2.020046 -0.002142 0.0
2.182446 2.109282 -0.004356 0.0
4.462508 1.463929 0.002955 0.0
3.255657 1.193531 -0.003555 0.0
3.454674 1.459527 0.002206 0.0
3.810066 0.091449 0.005627 0.0
1.805780 2.240752 0.002412 0.0
3.083845 0.038661 -0.004935 0.0
4.486523 2.039764 0.001457 0.0
1.769930 1.426082 0.000425 0.0
0.013427 1.464970 -0.000588 0.0
0.468582 0.946885 -0.003376 0.0
3.921457 0.411099 -0.000200 0.0
4.386860 0.252249 -0.001449 0.0
2.367534 1.109145 0.004569 0.0
0.428534 1.430762 0.001855 0.0
3.455882 0.555603 -0.003044 0.0
2.832263 2.305238 -0.000116 0.0
2.415945 1.594157 0.001716 0.0
2.260026 0.127166 -0.001798 0.0
3.744329 0.647189 0.001495 0.0
1.413147 1.107440 -0.000038 0.0
0.358115 0.117896 0.000275 0.0
4.315544 0.923875 0.001174 0.0
3.170685 2.316021 -0.005102 0.0
3.853232 2.400387 0.000262 0.0
2.863902 1.407938 -0.001940 0.0
1.963014 2.180250 -0.002567 0.0
4.130504 2.105436 0.003720 0.0
4.504926 2.274614 -0.002240 0.0
3.474583 2.193698 -0.001390 0.0
3.701270 1.292850 -0.007959 0.0
4.374647 1.677062 -0.001964 0.0
3.098796 1.923038 -0.001426 0.0
3.399008 2.222012 0.001114 0.0
2.854838 1.176430 0.000394 0.0
1.344741 1.296480 -0.002127 0.0
0.159124 2.125626 0.003942 0.0
1.741982 1.183425 -0.004534 0.0
2.745728 0.875377 -0.003702 0.0
2.919671 0.385672 -0.000828 0.0
3.038243 1.831185 -0.003189 0.0
1.120892 0.580385 0.001433 0.0
3.535448 1.433024 -0.000556 0.0
0.612235 2.309701 -0.000902 0.0
1.952003 1.252722 -0.000759 0.0
2.950945 1.981716 -0.003291 0.0
2.845028 0.234386 0.001982 0.0
2.763104 1.424194 0.002392 0.0
2.104042 2.298294 0.000871 0.0
0.010021 2.002545 -0.000693 0.0
2.766263 1.364244 0.001090 0.0
2.526780 1.315242 0.000549 0.0
2.085524 1.386997 0.003183 0.0
2.988536 1.511633 -0.001135 0.0
2.335977 1.959354 0.000631 0.0
0.811086 0.685758 -0.003538 0.0
3.125767 1.596642 0.002805 0.0
1.613196 1.163372 0.001019 0.0
0.952638 1.551792 -0.002850 0.0
0.473968 0.789515 -0.001165 0.0
1.854586 0.288093 -0.002757 0.0
4.212684 1.465904 0.000758 0.0
4.326748 1.692483 -0.001883 0.0
0.037338 0.250651 -0.000043 0.0
2.409024 1.999245 0.003259 0.0
1.792284 2.257290 0.002152 0.0
2.829191 1.362884 -0.004139 0.0
1.504136 1.681249 -0.000200 0.0
0.494753 2.185218 -0.001746 0.0
4.031934 2.184828 -0.003195 0.0
2.082767 0.461710 0.001161 0.0
1.437871 1.266458 -0.001801 0.0
1.137349 2.472397 0.000576 0.0
0.835505 0.930654 0.002910 0.0
0.186326 2.264388 -0.003058 0.0
4.490127 0.326554 0.002304 0.0
2.373290 1.561859 -0.001643 0.0
1.617391 1.821443 -0.003583 0.0
2.441189 0.079177 -0.001717 0.0
2.029485 0.280933 -0.001876 0.0
2.656891 0.733470 -0.001211 0.0
0.839687 2.065175 0.000007 0.0
4.254183 0.986864 0.000952 0.0
0.300505 1.420699 -0.000248 0.0
0.484769 1.844311 0.001568 0.0
4.255315 0.541913 -0.008071 0.0
3.075781 1.847642 0.002181 0.0
4.328220 2.265824 -0.000568 0.0
2.529180 2.148290 -0.000804 0.0
3.150030 0.741566 0.000238 0.0
3.126082 1.493028 0.000286 0.0
3.374732 1.789318 -0.001866 0.0
2.100319 0.981725 0.003638 0.0
0.741847 2.385333 0.003303 0.0
2.463048 0.205213 -0.001356 0.0
3.049189 0.940977 0.003840 0.0
1.160430 0.442433 0.004366 0.0
1.195309 1.584388 0.001801 0.0
1.048326 1.862795 0.001720 0.0
0.118225 2.029494 -0.003005 0.0
3.283747 0.243015 -0.001837 0.0
1.290951 2.341189 -0.000617 0.0
2.863709 0.664976 -0.005173 0.0
0.831183 1.986440 0.005150 0.0
0.569770 2.145943 0.007078 0.0
2.282737 2.207538 0.001593 0.0
3.198373 1.458327 0.000039 0.0
1.056560 2.217865 -0.000351 0.0
3.294642 2.334902 0.003255 0.0
1.640648 1.060961 -0.002974 0.0
0.884337 0.575110 0.005512 0.0
4.405256 1.962525 -0.001112 0.0
3.176666 0.276137 0.003089 0.0
3.920479 2.210029 -0.000476 0.0
3.521798 0.130741 -0.000990 0.0
0.418280 1.194206 0.004353 0.0
2.218964 2.449702 0.002120 0.0
4.013373 1.782721 -0.001267 0.0
3.601262 1.742408 0.002710 0.0
3.519345 2.193666 0.002438 0.0
4.266455 1.526291 0.003700 0.0
0.176261 0.326578 -0.001943 0.0
0.024514 1.784430 -0.002359 0.0
1.380744 1.923219 -0.001337 0.0
0.962572 1.544492 -0.001403 0.0
1.576206 1.459238 -0.000526 0.0
0.182829 1.892243 -0.005233 0.0
1.586865 2.292259 -0.002040 0.0
1.616347 1.120410 -0.001950 0.0
2.864538 0.146289 -0.001841 0.0
1.100679 0.218596 0.000356 0.0
1.261250 0.394318 -0.002375 0.0
2.373047 1.942454 -0.002409 0.0
1.770628 1.895377 0.001836 0.0
2.183005 2.028997 0.000502 0.0
0.693479 1.598759 -0.000927 0.0
3.632902 0.084496 0.001460 0.0
2.149026 2.081472 -0.000835 0.0
4.180645 1.450849 0.001228 0.0
4.522402 2.260094 -0.001614 0.0
3.193372 0.324109 -0.001359 0.0
3.853167 0.934692 0.000537 0.0
2.494032 2.191048 -0.001219 0.0
3.082754 1.704048 -0.002364 0.0
3.480794 0.035748 -0.001414 0.0
1.779516 0.991918 -0.000269 0.0
1.253318 0.425887 0.001186 0.0
1.091063 1.412727 0.000267 0.0
1.320803 0.121875 0.000370 0.0
0.839450 0.357477 -0.002383 0.0
3.400875 0.175836 0.001978 0.0
4.511010 1.559392 -0.000940 0.0
2.581125 0.224355 0.001009 0.0
0.806863 1.995758 -0.003900 0.0
2.583428 1.888607 -0.000194 0.0
1.816477 1.748915 -0.002941 0.0
1.377238 2.155919 0.002149 0.0
2.266951 0.111495 -0.002986 0.0
2.152784 0.207163 0.001104 0.0
0.517291 0.909955 0.002578 0.0
2.524644 1.463352 -0.004259 0.0
3.921632 0.517206 -0.001092 0.0
4.327818 1.263497 0.000524 0.0
3.066725 0.497566 0.000923 0.0
1.379170 2.012524 -0.003147 0.0
3.302896 0.294719 -0.004920 0.0
2.425748 1.418908 -0.000413 0.0
3.668184 1.291442 0.006745 0.0
4.062286 2.258965 0.003386 0.0
1.079159 2.429361 0.002008 0.0
0.445239 0.537617 -0.003637 0.0
3.298676 2.246979 -0.000988 0.0
1.117172 0.373092 0.000088 0.0
3.199992 1.800423 0.002035 0.0
0.237899 0.037722 0.005705 0.0
0.547284 0.727794 -0.000830 0.0
2.567505 2.278964 -0.001416 0.0
1.723437 1.406144 0.003675 0.0
3.677695 0.419569 0.004873 0.0
1.889828 0.528704 -0.000694 0.0
3.697579 1.234355 -0.003800 0.0
3.737857 0.192453 -0.004371 0.0
3.833414 0.292247 -0.000322 0.0
3.553790 0.781237 0.002756 0.0
4.446434 0.088921 -0.001261 0.0
0.691273 2.102992 0.000172 0.0
2.237648 0.675103 0.000305 0.0
2.336404 1.556790 0.000590 0.0
2.012360 2.472991 -0.001317 0.0
3.947720 1.292027 -0.001246 0.0
1.404841 2.051401 0.000130 0.0
3.932825 0.936398 -0.001771 0.0
0.486221 0.388949 -0.000854 0.0
3.969413 1.239291 0.003143 0.0
3.068079 1.701276 -0.002340 0.0
2.241652 2.385983 -0.000842 0.0
0.156542 1.214574 0.002363 0.0
3.287137 2.385766 -0.001462 0.0
2.267629 1.159999 -0.004206 0.0
2.740916 1.619053 0.002049 0.0
3.846737 1.331675 -0.002244 0.0
3.025910 0.258003 -0.000594 0.0
3.681402 2.474373 0.003084 0.0
0.248513 2.374276 0.002133 0.0
1.754096 1.517841 -0.002685 0.0
2.170137 0.249408 -0.000493 0.0
1.942566 2.365661 0.001744 0.0
3.014797 0.140972 -0.004692 0.0
2.871022 0.268397 -0.000924 0.0
1.355080 1.155879 0.001332 0.0
3.877110 1.994428 -0.003702 0.0
1.235672 0.543089 0.005270 0.0
3.793554 2.346527 -0.003082 0.0
2.663977 0.134808 0.000313 0.0
0.175111 0.931171 0.001169 0.0
2.684982 0.669907 0.000449 0.0
0.771482 0.087895 0.000768 0.0
4.417947 0.288731 0.002071 0.0
2.435077 1.625491 0.000735 0.0
1.506592 1.841048 -0.002378 0.0
2.452130 1.840113 -0.001980 0.0
3.046820 1.476980 0.001572 0.0
2.674248 2.169300 -0.004261 0.0
3.101988 1.540802 0.005726 0.0
4.122981 1.618472 0.000336 0.0
4.192635 0.342067 -0.003645 0.0
3.007431 0.212810 0.000101 0.0
3.182668 0.494328 0.001041 0.0
2.267892 1.218541 -0.002345 0.0
3.158141 0.926170 -0.002857 0.0
0.219152 0.359640 -0.003359 0.0
1.064305 2.461562 0.002134 0.0
0.582003 1.778134 0.001002 0.0
1.793440 2.370170 0.003761 0.0
3.897778 2.480824 -0.000610 0.0
1.264324 1.986907 0.000579 0.0
3.479182 1.182497 0.003196 0.0
2.380438 1.415719 -0.000152 0.0
3.898034 0.181873 -0.000127 0.0
4.174952 2.055128 0.001831 0.0
2.655712 1.941950 -0.002493 0.0
1.868581 1.869411 -0.000755 0.0
2.412156 0.815529 -0.000391 0.0
3.842329 0.818344 -0.000327 0.0
3.033094 0.262715 -0.000570 0.0
0.201140 0.310010 0.003528 0.0
3.680267 0.664503 0.000903 0.0
2.201441 0.725423 -0.003021 0.0
4.131876 1.102778 -0.001098 0.0
2.047170 0.063635 0.002169 0.0
1.527087 1.825180 0.000735 0.0
3.051030 1.469247 0.001643 0.0
1.512031 1.505048 -0.002064 0.0
2.829084 0.482306 0.000345 0.0
3.753769 1.201181 0.001510 0.0
0.338886 2.473655 0.000008 0.0
4.490300 0.507269 -0.006435 0.0
0.626637 2.178471 0.003403 0.0
2.423413 0.496818 -0.002694 0.0
2.066632 0.594808 -0.000215 0.0
3.340830 0.309135 0.000073 0.0
2.455699 1.359568 0.003437 0.0
1.508450 0.088378 0.001430 0.0
4.184778 1.232987 0.004323 0.0
3.965565 1.008211 0.000745 0.0
3.425592 0.575503 0.000782 0.0
2.138166 0.602964 0.002380 0.0
3.032373 1.030042 0.003173 0.0
1.366411 0.705473 0.001414 0.0
3.546244 1.576468 -0.001226 0.0
0.326349 0.986526 0.003251 0.0
3.581953 1.011289 -0.000439 0.0
0.343017 0.487096 -0.002991 0.0
2.528069 1.809240 0.003849 0.0
2.306217 0.552371 -0.000851 0.0
4.320453 1.142952 0.005525 0.0
4.295097 2.106506 -0.002725 0.0
0.854067 2.092780 -0.001172 0.0
3.479516 1.063604 0.000492 0.0
1.522799 1.433397 -0.001374 0.0
2.167556 1.702132 -0.001327 0.0
3.421155 2.480818 -0.002205 0.0
0.977214 2.012370 -0.002146 0.0
3.584774 1.572627 0.004199 0.0
1.773595 1.669092 0.001031 0.0
2.848979 0.838260 0.000783 0.0
1.899453 1.114471 -0.003658 0.0
0.075815 1.901026 -0.002613 0.0
4.314117 0.328866 0.004165 0.0
1.820178 1.847512 0.003026 0.0
3.002701 0.226160 -0.002623 0.0
3.068765 1.783789 0.000477 0.0
4.172485 1.980606 0.002636 0.0
3.995243 2.081848 0.001786 0.0
3.127039 1.537467 -0.000612 0.0
1.971195 2.353756 0.004965 0.0
3.860604 2.413163 0.002048 0.0
2.899035 1.899528 -0.000003 0.0
1.508153 1.842344 0.002324 0.0
1.209699 2.469564 0.003519 0.0
0.441126 2.401137 -0.000620 0.0
0.201962 2.441706 0.000341 0.0
3.055296 2.102520 -0.000059 0.0
4.096120 0.648265 0.001065 0.0
3.076794 1.224312 0.004728 0.0
1.081858 2.445206 0.002965 0.0
0.558048 0.228504 -0.006457 0.0
2.013672 0.018295 0.000124 0.0
0.503845 2.041173 -0.000209 0.0
1.597293 0.097787 -0.001893 0.0
4.007646 0.993217 0.000204 0.0
0.123528 1.457693 -0.000323 0.0
1.778313 2.061578 -0.001228 0.0
2.253284 0.428488 0.003204 0.0
2.925860 1.621015 0.003933 0.0
0.489091 0.235148 0.001594 0.0
3.640076 0.619289 0.002582 0.0
1.287719 1.439922 -0.001216 0.0
3.876802 0.574245 -0.000255 0.0
3.119799 1.890509 -0.000427 0.0
0.447946 0.990922 0.001645 0.0
1.619049 0.463356 -0.000474 0.0
1.223587 0.191832 0.002598 0.0
0.236972 1.608457 -0.001841 0.0
4.147084 1.364613 -0.000759 0.0
0.189564 1.403495 -0.000356 0.0
3.884022 1.131470 -0.004905 0.0
3.133868 2.334751 -0.002041 0.0
4.033725 0.754733 -0.001309 0.0
4.464790 1.381120 -0.002936 0.0
2.056388 0.630252 0.001818 0.0
3.209783 2.297423 0.002727 0.0
1.840273 2.267267 -0.003106 0.0
1.792028 1.069126 0.005851 0.0
3.591966 1.337557 0.001595 0.0
4.445156 0.128796 -0.004669 0.0
2.089896 1.576016 0.001421 0.0
4.421441 1.436279 -0.003880 0.0
2.449139 2.393374 -0.001607 0.0
2.808056 0.406472 -0.004424 0.0
4.100817 1.933158 -0.000509 0.0
2.484072 0.818005 0.000501 0.0
3.073660 1.269693 -0.003859 0.0
0.150923 1.322466 0.000326 0.0
3.881163 2.484385 -0.001316 0.0
1.259207 0.966621 -0.003395 0.0
4.371222 1.666173 -0.000862 0.0
2.909642 1.682653 0.001975 0.0
0.614493 0.438947 0.003107 0.0
2.451077 0.221619 -0.000308 0.0
4.434633 1.949056 0.002504 0.0
2.937542 2.295704 0.002231 0.0
3.570557 0.834728 -0.000905 0.0
0.551036 0.264182 -0.000551 0.0
1.082661 2.439955 0.000263 0.0
0.191382 0.019567 -0.001729 0.0
0.943394 2.293145 -0.001895 0.0
4.075590 0.275268 0.002798 0.0
3.241660 0.293705 0.001911 0.0
1.479982 2.127799 -0.004253 0.0
3.274883 1.522706 -0.002930 0.0
1.482262 2.109879 -0.000166 0.0
3.509328 1.817612 -0.001594 0.0
1.574234 2.092757 -0.001295 0.0
2.002971 1.931050 0.001841 0.0
4.081117 0.196362 0.003194 0.0
3.529743 2.094118 0.001720 0.0
1.173849 1.404647 0.000979 0.0
1.673210 0.645563 -0.003904 0.0
2.851618 2.117791 0.003572 0.0
1.113708 0.368633 0.004971 0.0
4.199502 1.118474 -0.001704 0.0
1.872112 2.383104 -0.001723 0.0
2.638468 1.078958 -0.000134 0.0
4.402402 0.594773 0.004158 0.0
0.567273 0.219039 -0.005293 0.0
4.474197 0.637127 -0.003521 0.0
2.665024 1.352019 -0.001076 0.0
0.819640 0.158637 -0.001774 0.0
4.450572 0.017318 -0.005465 0.0
3.539580 2.219384 0.002592 0.0
0.042838 0.365496 -0.001589 0.0
1.677272 2.403766 0.000747 0.0
4.354961 1.657883 0.001428 0.0
2.537575 0.637859 -0.003237 0.0
0.716817 2.168012 0.002638 0.0
3.475585 0.651474 0.000744 0.0
0.558311 1.919328 -0.002522 0.0
2.191550 0.170751 0.001329 0.0
2.417855 1.471045 -0.001632 0.0
4.013866 1.901041 0.004396 0.0
2.009306 1.606820 0.000543 0.0
0.871927 0.901314 -0.002279 0.0
3.113614 1.382649 -0.001578 0.0
1.158545 0.738925 -0.000831 0.0
1.775194 0.315298 0.005320 0.0
3.206619 1.313414 0.002293 0.0
0.096612 2.437605 -0.004526 0.0
0.087526 1.394901 -0.002144 0.0
0.194072 2.479530 0.001351 0.0
1.125711 1.526300 -0.004992 0.0
4.415226 1.120176 -0.000104 0.0
1.758041 0.399033 -0.002600 0.0
2.351570 1.750426 0.001706 0.0
0.675371 1.573723 0.004884 0.0
4.089539 0.278155 -0.005092 0.0
2.364856 0.379350 0.001907 0.0
1.411848 1.458281 -0.001887 0.0
4.365233 1.751448 0.000892 0.0
2.650598 0.792315 -0.002095 0.0
3.608271 2.360488 0.000320 0.0
3.900814 2.310700 -0.000544 0.0
0.870322 0.195592 -0.001468 0.0
3.647083 1.739000 -0.001261 0.0
0.120854 2.252435 0.000900 0.0
4.184900 2.012617 0.009510 0.0
1.484554 1.756797 -0.000888 0.0
0.285961 0.402962 0.001899 0.0
3.462413 0.937355 0.002336 0.0
0.865307 0.756921 -0.001944 0.0
2.615878 1.476968 -0.002634 0.0
4.170710 2.165622 0.001002 0.0
1.196953 2.105091 0.001705 0.0
4.215314 0.875573 0.001431 0.0
3.800535 1.040576 0.002506 0.0
2.097521 2.183436 -0.001465 0.0
3.933376 0.234128 0.000322 0.0
2.743221 2.341404 0.000057 0.0
0.363955 1.289359 -0.002441 0.0
0.004147 0.840466 0.002866 0.0
0.923350 1.182701 0.002955 0.0
3.672034 0.412129 0.001432 0.0
3.632587 0.667989 -0.000994 0.0
1.246159 1.975844 -0.000295 0.0
2.007590 1.319059 0.001830 0.0
2.233294 2.406761 -0.001154 0.0
4.147213 0.066159 -0.006261 0.0
2.398781 0.838118 0.001389 0.0
4.129473 2.092367 0.001480 0.0
2.845549 1.850000 -0.001412 0.0
0.894438 0.824471 0.004485 0.0
2.770731 2.278168 -0.000808 0.0
3.586213 1.610600 0.000550 0.0
0.502656 1.602923 0.001769 0.0
0.156749 0.239629 -0.001985 0.0
1.229216 0.850733 0.000085 0.0
3.598941 0.366513 -0.001637 0.0
2.145739 0.447871 0.002214 0.0
1.408517 0.125539 0.001008 0.0
2.895052 1.357738 0.000320 0.0
1.908887 0.334529 0.001992 0.0
0.953873 0.874559 0.004556 0.0
1.303356 0.455849 0.001783 0.0
4.033949 1.536439 0.000457 0.0
3.935775 0.275918 0.000044 0.0
1.472839 0.319023 0.003124 0.0
1.220466 0.058936 -0.000127 0.0
2.543487 1.065510 0.003568 0.0
1.673911 1.199464 -0.003320 0.0
1.687609 1.006531 -0.001081 0.0
0.880124 0.782827 -0.003347 0.0
0.042331 0.056640 0.002059 0.0
0.644521 1.890370 -0.005018 0.0
3.001953 0.443921 0.003299 0.0
2.565995 0.533889 -0.001430 0.0
2.421688 1.171197 0.001135 0.0
3.629370 2.414516 0.000362 0.0
1.359999 0.485549 -0.002236 0.0
0.780743 0.703505 -0.001232 0.0
0.123231 0.165485 -0.001964 0.0
1.127813 1.048050 -0.000538 0.0
2.065531 1.892820 -0.003590 0.0
2.810301 1.871034 0.002688 0.0
0.162034 1.416549 0.005386 0.0
2.679973 2.143706 0.000243 0.0
3.924370 0.132045 -0.001242 0.0
1.314083 1.635569 -0.003399 0.0
0.485815 1.932076 0.000770 0.0
3.929464 1.921455 0.002478 0.0
0.138913 0.301861 -0.001250 0.0
1.302529 0.891582 -0.004765 0.0
4.416334 0.620270 -0.000937 0.0
2.293314 2.074901 0.004540 0.0
3.782828 1.137648 -0.002292 0.0
0.338187 2.457207 0.003140 0.0
3.822897 2.356250 -0.002016 0.0
1.938099 2.224829 -0.000974 0.0
1.328312 2.376995 -0.003654 0.0
2.688081 1.113858 -0.000831 0.0
3.168512 1.318505 -0.001919 0.0
1.899770 1.595266 -0.002225 0.0
4.390416 1.182063 0.000745 0.0
0.080477 2.359333 -0.000465 0.0
2.192979 1.418124 -0.000321 0.0
1.102240 1.094913 -0.000289 0.0
2.235534 2.001512 -0.002591 0.0
2.888298 1.101223 0.000546 0.0
1.487331 0.955205 0.002799 0.0
1.019348 0.400635 0.002569 0.0
1.709636 2.141621 -0.003614 0.0
1.800744 2.064054 -0.000499 0.0
2.993592 0.563271 0.001294 0.0
3.347033 1.165044 -0.003076 0.0
0.765508 2.387828 -0.001375 0.0
0.182675 2.289499 -0.002124 0.0
0.588942 0.363352 0.003540 0.0
2.961067 0.108485 0.000346 0.0
1.481298 1.269768 0.002417 0.0
1.653331 1.322657 0.003704 0.0
0.929791 0.801182 -0.001067 0.0
3.342107 1.008706 -0.001617 0.0
4.090553 0.544214 0.002804 0.0
2.311523 2.392196 0.000363 0.0
0.217976 2.035462 0.000126 0.0
4.491267 1.281753 0.001826 0.0
1.142144 2.270092 -0.001852 0.0
2.241572 0.443062 0.000312 0.0
3.543892 0.815826 -0.001675 0.0
4.419573 0.821461 -0.000146 0.0
3.203262 1.458615 -0.002044 0.0
0.919433 0.590514 0.003135 0.0
1.979339 1.264363 0.000336 0.0
3.622174 2.419813 0.000315 0.0
4.490432 2.276602 -0.000597 0.0
2.968292 1.725593 -0.004157 0.0
3.098514 1.300178 -0.001924 0.0
3.568887 0.867549 -0.002369 0.0
2.897588 2.223957 -0.005279 0.0
4.354451 1.730053 0.003356 0.0
1.172962 1.880870 0.002013 0.0
3.713491 0.206347 0.001019 0.0
0.354951 1.922732 -0.002418 0.0
4.388303 0.938500 0.000479 0.0
4.125165 0.440477 0.001965 0.0
0.592385 1.980231 -0.000616 0.0
1.329614 2.115807 0.003735 0.0
0.400477 1.162390 0.001112 0.0
0.157536 1.693352 0.001849 0.0
0.776754 2.304104 -0.001332 0.0
3.179567 0.621665 0.004492 0.0
2.380017 0.502896 -0.002693 0.0
1.164812 2.297177 0.001192 0.0
1.858852 1.990066 -0.001328 0.0
0.332707 2.184222 0.002666 0.0
2.994689 0.709092 -0.004366 0.0
3.865594 1.951772 0.000178 0.0
3.294580 1.702568 0.002402 0.0
2.466262 1.307202 0.000557 0.0
4.449226 1.568108 0.003354 0.0
2.483805 2.163042 -0.001234 0.0
1.046521 2.105489 -0.003459 0.0
1.819416 0.903448 -0.000376 0.0
2.553867 1.674797 -0.001741 0.0
2.028121 1.713529 -0.001272 0.0
1.315954 0.590774 0.000928 0.0
2.810551 0.931285 0.000775 0.0
1.020276 1.646870 0.001327 0.0
1.266647 1.521879 -0.004104 0.0
1.566796 0.051977 -0.000914 0.0
4.298729 0.487307 0.001019 0.0
0.618329 0.285038 0.002259 0.0
3.840739 0.186228 0.002603 0.0
3.112026 1.133969 -0.000192 0.0
0.523793 0.194584 -0.002461 0.0
2.104037 1.732491 -0.001683 0.0
1.666719 1.944460 0.003245 0.0
2.498249 1.936072 -0.000251 0.0
4.397075 1.982002 -0.002022 0.0
1.569205 1.219200 0.001722 0.0
3.739447 0.373907 -0.001339 0.0
1.790896 0.136407 0.000549 0.0
1.955978 2.218836 0.001746 0.0
3.252727 0.292932 -0.000436 0.0
2.535938 0.306443 0.000026 0.0
2.431490 2.085542 0.002332 0.0
0.006953 1.101215 0.000031 0.0
4.374414 1.491953 0.002026 0.0
4.151706 0.061489 0.001102 0.0
0.874489 0.333302 -0.001107 0.0
3.770149 0.126226 0.004750 0.0
4.019484 2.126856 0.001283 0.0
2.576060 0.318712 -0.002511 0.0
2.226709 2.455729 0.000135 0.0
3.648061 0.390161 -0.001032 0.0
3.464035 0.182726 -0.001549 0.0
1.586012 1.071848 -0.003265 0.0
3.388849 0.206687 0.000044 0.0
1.435054 0.259278 -0.000421 0.0
3.551639 1.011092 0.001453 0.0
3.017730 1.703905 0.000042 0.0
1.959358 0.986370 -0.001197 0.0
3.866491 0.984421 0.001484 0.0
2.633329 0.938862 0.000589 0.0
1.174727 0.474029 -0.004530 0.0
0.232537 0.760478 0.000696 0.0
1.716788 1.222184 -0.001878 0.0
3.385390 0.194113 -0.002902 0.0
1.477109 1.975251 -0.000234 0.0
3.192482 1.297437 0.001415 0.0
2.427345 0.066142 0.001045 0.0
1.652274 2.356567 0.003839 0.0
2.869672 1.135032 0.003425 0.0
3.880606 1.512086 -0.002961 0.0
1.282050 0.868000 0.000520 0.0
0.953760 2.350488 -0.001864 0.0
4.503713 1.458960 -0.002829 0.0
3.538441 1.745294 0.002748 0.0
0.836890 2.288125 0.002695 0.0
0.452748 0.319586 0.003803 0.0
3.966837 1.359093 0.006055 0.0
3.415564 1.305857 0.003890 0.0
0.425138 1.755053 0.001808 0.0
3.673519 0.643292 0.002924 0.0
1.647275 1.239025 0.001147 0.0
0.816543 2.255656 0.003156 0.0
4.373239 2.108188 -0.001607 0.0
2.967993 1.493063 0.003424 0.0
1.864803 0.803083 -0.000998 0.0
2.627776 1.616693 -0.002158 0.0
2.662581 0.671827 0.000601 0.0
1.715620 0.796001 -0.002222 0.0
0.625723 1.059599 0.002811 0.0
3.001258 1.207089 -0.000026 0.0
2.266512 1.190421 -0.001538 0.0
2.906393 2.259033 0.002491 0.0
1.933399 1.739717 0.002175 0.0
3.522696 1.095944 -0.000287 0.0
4.155668 1.705055 0.003212 0.0
3.411334 0.231735 -0.000865 0.0
0.454949 1.230859 0.003659 0.0
0.757751 0.734579 -0.000708 0.0
1.344883 0.428807 0.001291 0.0
1.315369 1.313213 -0.005109 0.0
3.329710 1.574129 -0.003448 0.0
2.347030 0.259958 -0.003446 0.0
2.344808 0.920063 -0.001081 0.0
0.960939 2.266133 -0.001368 0.0
0.804249 0.717321 -0.002723 0.0
1.485130 0.247411 -0.000886 0.0
3.223758 0.119044 -0.001426 0.0
0.853105 2.359048 0.001743 0.0
0.338888 1.108673 -0.000607 0.0
1.395809 0.778149 -0.003472 0.0
0.954388 2.466815 0.000846 0.0
2.937537 2.471755 0.000065 0.0
0.742171 1.662517 0.001823 0.0
1.977165 2.275896 -0.005693 0.0
0.444689 1.316399 -0.002376 0.0
0.688997 1.308578 -0.002867 0.0
1.620515 1.207360 -0.001571 0.0
1.783258 0.684704 0.000395 0.0
0.503783 1.474401 -0.001425 0.0
2.585202 1.853401 0.001588 0.0
3.130404 1.553468 -0.003506 0.0
2.915190 0.587055 0.004543 0.0
1.129290 2.235618 0.001741 0.0
4.283047 0.396057 -0.002961 0.0
0.135740 1.382330 0.002183 0.0
0.543302 0.954167 0.001171 0.0
2.918757 1.269859 0.002863 0.0
2.367994 1.977031 0.000049 0.0
4.045154 1.066008 -0.002058 0.0
3.737432 1.518679 0.001369 0.0
2.239960 2.415384 -0.001258 0.0
1.873845 1.344627 0.000927 0.0
3.277209 2.071006 0.001768 0.0
0.101410 1.958617 0.001015 0.0
2.849262 0.024739 0.002373 0.0
3.123441 1.402793 0.000825 0.0
2.715300 1.038576 -0.000975 0.0
2.290109 2.084678 -0.002621 0.0
4.118298 2.474611 -0.004253 0.0
3.288961 1.680205 0.001158 0.0
1.021578 1.211027 -0.001365 0.0
3.150314 0.691269 0.003352 0.0
2.747683 1.933508 0.002879 0.0
1.479784 0.878776 -0.003991 0.0
2.240531 1.452704 0.000378 0.0
0.486118 1.573877 -0.001136 0.0
0.236885 0.905641 0.000458 0.0
0.363228 0.733150 -0.001494 0.0
0.058275 0.409562 0.001955 0.0
3.023485 0.696109 0.001318 0.0
3.538488 2.302309 0.000447 0.0
0.558879 0.297806 0.000723 0.0
3.723893 2.296526 -0.001648 0.0
4.326419 1.478145 -0.001104 0.0
2.625202 0.612987 0.000329 0.0
3.823023 0.014711 0.001109 0.0
0.851319 1.899968 -0.006836 0.0
0.215928 1.544622 -0.001246 0.0
1.665310 2.220002 -0.003255 0.0
0.802263 1.895685 -0.003078 0.0
2.488047 0.483859 -0.004119 0.0
3.857237 0.850539 0.000257 0.0
2.053492 1.572736 0.000926 0.0
2.798464 1.101977 0.003347 0.0
2.484384 0.642422 -0.000231 0.0
0.539227 0.333281 -0.000925 0.0
2.201060 1.079251 -0.004342 0.0
0.173199 2.025982 0.003261 0.0
1.788227 1.949952 0.004051 0.0
3.592367 0.979839 0.001548 0.0
4.497980 1.218641 -0.004091 0.0
2.153224 0.407906 0.001903 0.0
3.425799 0.458766 -0.000273 0.0
4.336396 1.856623 -0.002795 0.0
3.730776 0.348337 0.000351 0.0
1.250063 2.207171 0.001186 0.0
3.393902 0.078627 0.001790 0.0
1.779113 1.781103 0.001406 0.0
2.975649 0.158437 0.004849 0.0
2.277697 2.003951 0.003222 0.0
3.452250 2.224305 0.002938 0.0
0.978547 0.298780 -0.004110 0.0
1.569929 2.454975 -0.002104 0.0
3.474466 1.558861 0.000232 0.0
1.506915 0.088303 0.002249 0.0
3.340860 0.772738 -0.000723 0.0
1.539094 0.074464 0.001619 0.0
3.751695 0.654640 0.000595 0.0
3.131213 1.275064 0.000327 0.0
3.831901 0.528365 -0.001873 0.0
3.523511 1.284408 0.004165 0.0
2.380822 1.813755 0.000203 0.0
4.498812 1.229759 -0.002807 0.0
1.887774 1.532404 -0.002393 0.0
4.246393 0.390216 0.002735 0.0
2.859824 1.043549 -0.000795 0.0
0.126692 0.102615 0.002732 0.0
4.391179 1.996682 -0.003095 0.0
3.468176 0.345347 0.001359 0.0
0.395058 2.096682 0.002690 0.0
0.865543 1.393148 -0.000574 0.0
4.456244 2.072623 0.000949 0.0
3.774055 0.710621 0.002579 0.0
2.124557 1.607749 -0.007013 0.0
2.090679 0.505620 0.001789 0.0
1.855959 0.038842 -0.003417 0.0
2.989343 1.790411 -0.000008 0.0
3.233829 2.275377 -0.005096 0.0
2.368809 0.573105 -0.002278 0.0
3.414934 1.504377 0.000789 0.0
1.298854 0.551816 -0.002978 0.0
1.812186 0.052483 -0.002777 0.0
2.334025 0.149974 -0.001656 0.0
2.644908 1.345548 -0.002439 0.0
2.032284 0.904428 -0.000420 0.0
2.948638 2.324380 -0.001318 0.0
3.687601 0.884005 0.000493 0.0
3.664323 1.896420 -0.002179 0.0
0.620581 0.330755 -0.001471 0.0
1.787082 0.386804 0.002721 0.0
0.727285 1.429638 0.000848 0.0
1.319413 2.018131 0.001204 0.0
1.636483 2.203463 -0.000645 0.0
2.151996 1.791341 0.000536 0.0
1.280468 1.659473 0.000127 0.0
3.338887 2.465121 -0.002108 0.0
2.359943 0.318483 -0.000363 0.0
2.394068 0.190920 0.002441 0.0
3.500169 1.010808 -0.001004 0.0
3.564148 0.089065 0.003345 0.0
3.411192 0.530617 -0.001548 0.0
4.202214 2.339756 -0.001692 0.0
1.455355 1.195666 -0.000861 0.0
1.931769 1.031718 0.003688 0.0
0.298534 0.824165 0.000002 0.0
1.520656 2.180705 -0.002311 0.0
1.803620 1.274685 -0.000701 0.0
4.324451 1.517771 0.000922 0.0
2.057817 2.394135 0.000236 0.0
4.366311 0.809037 -0.001764 0.0
4.378628 2.286681 -0.003167 0.0
2.157286 0.083029 0.000561 0.0
3.090083 0.684859 0.001114 0.0
0.178454 2.026819 0.000929 0.0
1.001959 0.820664 0.000061 0.0
0.763262 1.804147 0.000882 0.0
1.082802 0.640025 -0.001702 0.0
2.677551 2.164046 -0.004978 0.0
3.261289 1.250518 -0.000086 0.0
