4.24751260 1.31099990 -0.00443510 0.00000000
1.40036633 0.15415811 -0.00196997 0.00000000
0.72205762 1.02515474 -0.00323339 0.00000000
0.48206104 0.77714413 -0.00151364 0.00000000
3.91573229 0.03234485 -0.00061571 0.00000000
1.77558407 1.07397394 0.00606630 0.00000000
1.70362164 0.27581860 0.00250710 0.00000000
2.70868100 0.76381077 0.00105787 0.00000000
3.61042730 1.56600583 0.00432684 0.00000000
0.47040456 0.29701627 0.00018547 0.00000000
3.56354176 1.39603381 0.00241769 0.00000000
3.75919036 1.53855324 0.00210077 0.00000000
1.75695575 1.28904221 0.00014776 0.00000000
3.57538594 0.49608113 0.00037964 0.00000000
1.17969225 1.34959254 0.00053088 0.00000000
4.25978448 1.20297246 -0.00005556 0.00000000
0.05500956 0.12276819 -0.00027704 0.00000000
0.86500280 1.51091233 -0.00031410 0.00000000
3.55196387 1.33834971 0.00170902 0.00000000
1.47277675 0.11197375 0.00018643 0.00000000
0.41412990 0.87584775 -0.00054305 0.00000000
4.13716098 0.05352667 0.00053530 0.00000000
0.40193541 0.95982155 -0.00139617 0.00000000
1.76323341 0.58981317 0.00545823 0.00000000
1.20469457 1.08648428 -0.00041963 0.00000000
2.53320192 0.46027835 -0.00176819 0.00000000
1.57207373 0.96043936 -0.00056722 0.00000000
0.91081635 1.20663661 -0.00468613 0.00000000
1.20553222 1.39745744 0.00371805 0.00000000
1.48724696 0.21001049 0.00192860 0.00000000
3.95321217 0.46525476 -0.00118071 0.00000000
4.26165398 0.05137364 0.00020374 0.00000000
0.48279712 1.00967797 -0.00286548 0.00000000
2.02621377 0.78107912 -0.00297651 0.00000000
3.63561062 1.19408975 -0.00260714 0.00000000
1.86286063 1.37532517 0.00451220 0.00000000
0.82940376 1.42101531 0.00100771 0.00000000
1.78112535 1.35207600 -0.00309758 0.00000000
4.23133483 0.70309723 0.00360919 0.00000000
3.50142310 0.85268387 -0.00097830 0.00000000
2.93086558 0.86096547 0.00426205 0.00000000
1.29496458 0.09937342 -0.00544718 0.00000000
1.29445051 1.34912130 -0.00029986 0.00000000
3.79887663 0.00839447 -0.00085039 0.00000000
1.49953246 0.45377319 0.00338311 0.00000000
3.41721214 0.29301454 0.00690045 0.00000000
2.09441223 0.44616645 -0.00000925 0.00000000
2.73399208 1.45856462 -0.00335398 0.00000000
1.50504278 0.80795281 0.00037401 0.00000000
3.67573784 0.96233081 -0.00328387 0.00000000
1.83328177 0.14992176 0.00312707 0.00000000
0.47985023 0.29894662 0.00162561 0.00000000
3.62883309 0.97210841 -0.00069174 0.00000000
1.04260893 0.40952671 0.00092081 0.00000000
2.81057921 1.31106424 -0.00598800 0.00000000
3.83939517 0.43391869 -0.00208670 0.00000000
2.53456477 0.05411796 0.00066230 0.00000000
1.94379884 0.84877907 -0.00086987 0.00000000
3.60017717 0.01816530 0.00354101 0.00000000
1.22593428 1.03767075 0.00299645 0.00000000
4.19285367 1.34012599 0.00175696 0.00000000
0.08028424 1.08708541 0.00096256 0.00000000
3.24582729 0.89134046 -0.00024877 0.00000000
1.72345783 1.13519055 -0.00172012 0.00000000
2.89991363 0.30557461 -0.00106491 0.00000000
3.68896750 1.45513542 0.00524598 0.00000000
3.65718056 0.92558169 0.00177240 0.00000000
2.16272891 1.44026482 0.00009040 0.00000000
1.67488245 0.14683663 -0.00100934 0.00000000
2.81777076 0.35707427 0.00181439 0.00000000
0.78587332 1.09333880 0.00228614 0.00000000
0.68193609 1.43941770 0.00168889 0.00000000
3.95982025 0.07690798 -0.00090734 0.00000000
0.66342406 0.51565337 -0.00095083 0.00000000
3.85525294 0.71053373 0.00470117 0.00000000
0.65071452 1.44446412 0.00304432 0.00000000
1.81177038 1.30747117 -0.00206670 0.00000000
0.15779836 1.01881376 0.00295738 0.00000000
3.26341061 0.25663104 -0.00182582 0.00000000
1.61970783 0.36950528 -0.00111570 0.00000000
3.41095427 1.53392993 -0.00146250 0.00000000
1.08554566 0.95099981 -0.00003972 0.00000000
4.25718481 0.50924783 -0.00300444 0.00000000
1.15380283 1.32598804 0.00107433 0.00000000
2.39863503 0.23336497 0.00087071 0.00000000
3.92237769 0.25177121 0.00003061 0.00000000
0.74708352 1.10088001 0.00241349 0.00000000
0.87492535 0.31311430 0.00137721 0.00000000
2.89311295 1.32949196 -0.00097723 0.00000000
3.88295144 1.48862806 0.00202350 0.00000000
0.31148395 0.85706591 -0.00721070 0.00000000
2.03334529 1.33672476 -0.00231901 0.00000000
3.55240676 1.15439048 0.00079005 0.00000000
3.84460290 0.57467835 0.00041917 0.00000000
1.72242586 0.26112922 0.00185943 0.00000000
0.71204039 1.16705115 0.00333914 0.00000000
0.37408159 0.71166800 -0.00335915 0.00000000
3.27286236 0.65132280 -0.00008187 0.00000000
4.17233593 1.50881586 0.00447878 0.00000000
1.19240528 1.41758905 0.00091587 0.00000000
1.07345934 0.10262231 0.00166014 0.00000000
4.13594767 0.37056399 0.00049624 0.00000000
1.54995656 1.39392260 -0.00130205 0.00000000
1.20118912 0.25063392 0.00056024 0.00000000
2.72031829 0.41979560 -0.00148764 0.00000000
2.71799995 0.35236389 0.00235737 0.00000000
4.23432687 1.19011220 -0.00118875 0.00000000
0.72335625 0.74507100 0.00274869 0.00000000
3.89547699 1.54786535 -0.00517767 0.00000000
2.43353189 1.08468215 -0.00519107 0.00000000
2.14268830 0.92128951 0.00598517 0.00000000
3.47635799 0.13642366 -0.00408680 0.00000000
3.43671163 1.46263561 -0.00011287 0.00000000
2.19371243 0.20991583 -0.00041792 0.00000000
1.04734514 0.01364061 0.00372781 0.00000000
0.05184659 0.18016178 0.00064935 0.00000000
1.82611074 0.55112055 -0.00093827 0.00000000
2.22654611 0.78058204 0.00127482 0.00000000
2.25914908 1.01559756 -0.00142739 0.00000000
1.74252090 0.12192377 0.00117183 0.00000000
3.12982402 0.75360853 0.00045015 0.00000000
1.66411548 1.32626470 -0.00300310 0.00000000
1.66608164 0.94472040 0.00344446 0.00000000
3.39984785 0.81020913 0.00238203 0.00000000
1.81188985 0.53513526 0.00112608 0.00000000
2.77400289 1.02963517 0.00259460 0.00000000
1.93019998 1.01315557 -0.00129667 0.00000000
3.92474177 0.89479740 -0.00037924 0.00000000
0.24373439 0.68432889 -0.00014261 0.00000000
1.63859993 0.69089602 -0.00408522 0.00000000
2.89588591 1.05227877 0.00023441 0.00000000
0.23751962 0.95441597 0.00043836 0.00000000
2.03424313 1.39978471 0.00313289 0.00000000
2.89840499 1.04341829 0.00361130 0.00000000
1.50805974 0.86778908 -0.00002513 0.00000000
1.52313180 1.33213270 -0.00219986 0.00000000
1.10528516 0.45348515 -0.00035023 0.00000000
2.14890591 1.57022035 -0.00409571 0.00000000
3.61371998 1.36018979 0.00007506 0.00000000
0.64139628 1.02638247 -0.00048432 0.00000000
1.70215021 0.27865895 -0.00040634 0.00000000
0.78700707 0.27452731 0.00370442 0.00000000
4.17828061 0.21036733 0.00367518 0.00000000
0.33477134 1.49388120 -0.00172558 0.00000000
3.67529570 0.39715086 -0.00105294 0.00000000
1.75594234 1.53982165 -0.00193886 0.00000000
0.60402969 0.97881038 -0.00038584 0.00000000
0.66333410 0.57048945 0.00313369 0.00000000
0.19141730 0.65087940 -0.00092964 0.00000000
0.20190145 0.57260943 -0.00159144 0.00000000
1.10539816 0.42769342 -0.00217872 0.00000000
1.07425702 0.55105579 0.00048540 0.00000000
3.22967924 0.87593288 0.00301694 0.00000000
2.66630375 1.44427544 0.00123408 0.00000000
0.07360765 0.25880534 0.00206278 0.00000000
0.84549779 0.43514085 -0.00032093 0.00000000
0.75899917 1.38693041 -0.00031475 0.00000000
1.84661366 1.20870654 -0.00121638 0.00000000
2.34125514 1.06290334 -0.00018204 0.00000000
0.97989500 0.42432617 -0.00187924 0.00000000
0.03413384 1.01767286 0.00247921 0.00000000
3.63342821 1.14246152 -0.00273076 0.00000000
2.79238654 1.02778355 0.00060632 0.00000000
1.51917888 0.66163576 -0.00252397 0.00000000
0.64818654 1.11121635 -0.00082882 0.00000000
3.46830651 0.19698482 0.00226636 0.00000000
1.20322012 0.26007415 -0.00555770 0.00000000
0.78339140 1.09186894 0.00497426 0.00000000
3.86593551 0.99742240 0.00411402 0.00000000
3.09027793 1.00588044 -0.00322736 0.00000000
2.85523815 0.18870255 0.00104623 0.00000000
0.98929470 0.67224014 -0.00064691 0.00000000
1.64092964 0.91121249 0.00298615 0.00000000
1.42663237 1.44300723 0.00251142 0.00000000
2.60187281 1.35403368 -0.00250769 0.00000000
1.57550099 0.46783786 -0.00059506 0.00000000
3.37996674 1.12863004 -0.00305876 0.00000000
0.10575456 0.46991235 -0.00181976 0.00000000
1.79523473 0.09165354 0.00286279 0.00000000
1.29788960 0.65752886 -0.00350855 0.00000000
1.93840681 1.07599397 0.00127517 0.00000000
3.72848670 0.60832389 0.00331344 0.00000000
3.56912479 1.21450540 -0.00013897 0.00000000
2.42896099 1.10048458 0.00019932 0.00000000
3.47621834 1.03314277 0.00295754 0.00000000
3.37109344 1.27478040 0.00473254 0.00000000
1.50145244 1.01818068 0.00159798 0.00000000
3.92816514 0.46125575 0.00026625 0.00000000
1.11032601 1.20325693 0.00694574 0.00000000
1.42176827 1.17382354 0.00091088 0.00000000
3.09136642 0.28823822 -0.00118813 0.00000000
1.50442284 0.53057807 -0.00384101 0.00000000
0.83258474 1.20676578 -0.00134839 0.00000000
0.99878729 1.44557263 -0.00173657 0.00000000
3.57154448 0.91475799 -0.00099788 0.00000000
3.45968240 1.35198548 0.00027216 0.00000000
4.18400533 0.82238124 -0.00430280 0.00000000
0.52827197 0.00853388 -0.00019151 0.00000000
1.61762481 0.89844078 0.00298453 0.00000000
0.54752251 1.43910376 -0.00090897 0.00000000
3.47985930 0.12407123 0.00050266 0.00000000
1.02766705 1.08183333 -0.00191107 0.00000000
0.10737283 1.29442110 0.00211318 0.00000000
0.35245367 0.27770329 0.00104917 0.00000000
0.47968027 0.79651838 0.00023043 0.00000000
0.28647953 1.20043117 -0.00079603 0.00000000
0.35852473 0.91706645 0.00157010 0.00000000
2.96269614 0.32859805 -0.00040189 0.00000000
2.52391809 0.32522205 -0.00217415 0.00000000
1.86447447 1.09610721 -0.00103676 0.00000000
2.44870560 0.19075356 -0.00014233 0.00000000
0.67377665 1.35496610 0.00109424 0.00000000
3.75402070 0.58497902 -0.00151920 0.00000000
0.87356480 0.29815851 -0.00177734 0.00000000
2.22306947 1.45042215 0.00193838 0.00000000
3.98115194 1.43275490 0.00000423 0.00000000
2.52689783 0.67041652 0.00167703 0.00000000
2.44240284 0.94334866 -0.00030776 0.00000000
3.84273630 1.09522529 -0.00237913 0.00000000
3.75112544 0.88221938 0.00284783 0.00000000
3.72877069 1.25288590 0.00272177 0.00000000
2.27302084 0.60018308 0.00058167 0.00000000
1.11493550 0.18400948 -0.00373774 0.00000000
3.84912681 1.09255557 -0.00368131 0.00000000
1.98892380 0.12096443 -0.00492646 0.00000000
3.35172122 0.90543339 -0.00281497 0.00000000
0.49042773 0.45495685 -0.00250570 0.00000000
1.55723386 0.13591669 0.00252695 0.00000000
3.83252572 0.48262729 0.00270503 0.00000000
0.52574518 0.03012216 -0.00097030 0.00000000
3.58210321 0.06280768 0.00062381 0.00000000
3.04479618 1.30865883 0.00158425 0.00000000
0.16670273 0.15158504 -0.00295424 0.00000000
3.53850591 0.28566967 -0.00101798 0.00000000
3.32590219 0.61173429 0.00043770 0.00000000
3.71826434 1.54552610 0.00234747 0.00000000
0.08855568 1.21506081 -0.00265927 0.00000000
0.75255601 0.86918279 0.00439662 0.00000000
1.79196513 1.29184279 0.00347764 0.00000000
3.78359717 1.48542905 0.00357429 0.00000000
4.03015297 0.46219102 0.00256407 0.00000000
1.83583743 0.75763725 0.00292826 0.00000000
0.13721664 0.13977378 0.00384882 0.00000000
4.16690555 0.02146157 -0.00006743 0.00000000
2.02340848 0.05000621 -0.00115122 0.00000000
1.21439318 1.08478020 -0.00051106 0.00000000
0.85522649 0.83318405 0.00147992 0.00000000
1.74868771 0.83009094 -0.00458236 0.00000000
2.20778534 0.77516103 0.00080434 0.00000000
1.96343856 0.76616347 0.00042698 0.00000000
3.50693361 0.55226131 0.00017167 0.00000000
2.28368686 0.57441199 0.00072794 0.00000000
0.34298243 0.62449999 0.00116598 0.00000000
0.28864597 0.03730047 -0.00034987 0.00000000
1.38751982 0.92159209 0.00083624 0.00000000
0.34445803 1.47249463 0.00021302 0.00000000
1.58123090 0.08408504 -0.00162239 0.00000000
2.47447879 0.29987490 0.00134426 0.00000000
1.41364124 0.59090733 -0.00204767 0.00000000
4.24133440 0.19976486 -0.00109137 0.00000000
0.63128957 0.86316698 -0.00543923 0.00000000
3.73241263 1.20615823 -0.00382715 0.00000000
1.13095324 0.55640875 -0.00450027 0.00000000
2.37901943 0.54353932 -0.00155711 0.00000000
3.20620758 0.55067431 -0.00032232 0.00000000
3.15926637 0.87710946 -0.00028441 0.00000000
0.15562826 0.68063821 -0.00253979 0.00000000
2.44298866 0.44318040 0.00083416 0.00000000
3.70441915 1.00892455 -0.00400518 0.00000000
1.41314530 0.58742215 0.00427950 0.00000000
4.16175393 0.51759853 -0.00379566 0.00000000
1.46444366 0.54553641 -0.00389872 0.00000000
1.06949008 1.06462497 -0.00376599 0.00000000
1.81827262 1.55421999 -0.00536498 0.00000000
2.32768742 0.31542602 -0.00105979 0.00000000
1.17455083 0.11605731 -0.00343667 0.00000000
1.43322476 0.85530134 -0.00214269 0.00000000
2.68698942 0.18281200 -0.00165968 0.00000000
4.08712788 0.05801470 0.00242001 0.00000000
2.11084292 0.91152107 0.00221923 0.00000000
1.30402062 0.81294385 0.00155817 0.00000000
0.71371138 0.70045936 0.00012283 0.00000000
3.82883539 1.23747343 -0.00573519 0.00000000
1.68116345 0.05461218 0.00221066 0.00000000
0.30680714 0.25057686 0.00016772 0.00000000
1.27056112 1.04380729 -0.00112786 0.00000000
2.75388791 1.35430876 0.00423120 0.00000000
1.12152728 0.84420969 -0.00281407 0.00000000
2.38061045 1.05969300 -0.00047261 0.00000000
2.80704976 1.07989334 -0.00015360 0.00000000
2.59492432 1.30874772 -0.00079027 0.00000000
3.39875231 0.35195995 -0.00376148 0.00000000
3.38191943 0.87257715 -0.00199520 0.00000000
2.82257740 1.18130315 -0.00112171 0.00000000
1.97532243 1.32933096 0.00091569 0.00000000
2.90449019 0.93911938 0.00402683 0.00000000
3.41042459 0.50645369 0.00162234 0.00000000
3.52552576 0.24155786 0.00116003 0.00000000
0.41154274 0.33135986 0.00125808 0.00000000
2.56970112 0.67552233 -0.00093379 0.00000000
3.57159575 1.02465366 0.00035544 0.00000000
1.38911163 0.49336769 -0.00221183 0.00000000
3.20905960 0.19614512 0.00179442 0.00000000
2.95244188 0.08254985 -0.00058039 0.00000000
1.08727045 0.83003623 -0.00264530 0.00000000
2.15106148 0.26320784 0.00195460 0.00000000
2.65376945 1.37814006 0.00178186 0.00000000
1.41324305 0.26636723 -0.00125846 0.00000000
0.52163876 0.96187026 0.00288059 0.00000000
1.99302051 0.87541382 -0.00002060 0.00000000
3.15658218 1.34994073 -0.00145891 0.00000000
3.16321802 0.16886078 0.00617223 0.00000000
1.98080118 1.51246181 0.00201398 0.00000000
0.07742439 0.47046975 0.00151802 0.00000000
1.68245726 0.45179517 -0.00116230 0.00000000
0.04873413 0.94864146 0.00048510 0.00000000
4.08337724 0.78933659 -0.00221713 0.00000000
3.51464944 1.54402634 -0.00093583 0.00000000
1.00804749 0.02483155 -0.00059805 0.00000000
2.71356244 0.73539651 0.00136515 0.00000000
1.65818824 1.47180809 -0.00116918 0.00000000
3.34796981 0.32539266 -0.00163568 0.00000000
4.01276843 1.49373921 0.00291835 0.00000000
1.30221206 0.22612467 -0.00232068 0.00000000
2.79753168 1.56235213 0.00011730 0.00000000
2.36517713 1.47793235 0.00040008 0.00000000
0.61579422 0.85222826 -0.00049812 0.00000000
0.59301413 0.72100580 0.00332935 0.00000000
1.00882527 0.21748633 0.00071423 0.00000000
3.42775731 0.68678005 -0.00169795 0.00000000
3.26374394 0.50213180 -0.00149701 0.00000000
0.22155779 0.84019170 0.00238308 0.00000000
2.07023418 0.22632797 0.00039561 0.00000000
2.39778794 1.00750479 -0.00415262 0.00000000
1.19988965 1.31821015 0.00381571 0.00000000
2.52429221 1.55839556 -0.00615634 0.00000000
0.92694959 1.19658012 -0.00359773 0.00000000
3.73390566 1.06342965 -0.00036647 0.00000000
0.89208966 0.56495846 -0.00271745 0.00000000
3.74752150 0.60157285 0.00092451 0.00000000
1.32277607 0.86702390 -0.00016538 0.00000000
1.00702113 0.69132117 -0.00036796 0.00000000
0.55515928 1.51397997 -0.00565733 0.00000000
1.77958457 1.18515282 0.00010577 0.00000000
1.65015053 0.39985297 0.00127938 0.00000000
1.32323722 0.52893351 -0.00220257 0.00000000
1.82091693 0.45374478 -0.00381620 0.00000000
2.40032234 0.96267695 -0.00352130 0.00000000
2.98430139 0.03275524 0.00232166 0.00000000
2.78957120 1.09098206 0.00015606 0.00000000
0.19548814 0.22303825 -0.00151083 0.00000000
0.84578828 1.03495738 0.00029969 0.00000000
1.18763819 0.95586915 -0.00485786 0.00000000
1.45428593 1.19074607 0.00093398 0.00000000
0.46155751 0.88317900 0.00248347 0.00000000
0.46841568 1.50945855 0.00393825 0.00000000
3.34143349 0.27309434 0.00023008 0.00000000
3.94506642 1.23132281 0.00040262 0.00000000
0.05724820 0.63471024 0.00042971 0.00000000
3.15141112 0.87788336 0.00602824 0.00000000
1.54987598 1.41359511 0.00128438 0.00000000
2.32998170 1.45450161 -0.00192507 0.00000000
1.21065263 0.26974162 -0.00322405 0.00000000
4.21929773 0.87220509 0.00040769 0.00000000
0.77261741 0.16964046 -0.00105895 0.00000000
3.69941633 0.04198011 0.00439506 0.00000000
0.45859033 0.93329648 0.00014767 0.00000000
3.29290426 0.75948267 0.00167147 0.00000000
2.45210443 0.81645525 0.00047571 0.00000000
3.99962523 0.77711655 0.00104535 0.00000000
2.90994697 0.59251605 0.00058912 0.00000000
2.24840956 1.35772716 -0.00206089 0.00000000
4.22730905 0.09929036 0.00012660 0.00000000
3.22695299 1.17531726 -0.00251434 0.00000000
3.43516019 1.36111273 -0.00206775 0.00000000
0.22192899 0.05886945 -0.00096719 0.00000000
2.56860996 0.50097372 -0.00276207 0.00000000
0.12874257 0.78971499 0.00046769 0.00000000
3.71980707 0.36442478 0.00315363 0.00000000
0.16311841 0.23312942 0.00355781 0.00000000
2.36453403 1.21100598 0.00339273 0.00000000
2.20644362 1.36834617 0.00308441 0.00000000
1.43736482 0.42186935 -0.00426773 0.00000000
2.83151516 0.49457700 -0.00591241 0.00000000
1.37650982 0.47058825 -0.00323661 0.00000000
3.56199984 1.16484193 0.00300199 0.00000000
0.27601744 0.33461981 -0.00019515 0.00000000
0.94092331 0.57280357 -0.00421253 0.00000000
1.42827992 0.17172629 0.00075188 0.00000000
3.05941274 0.34650304 0.00216987 0.00000000
3.63481622 1.17545628 -0.00126159 0.00000000
3.26877250 0.90114213 0.00169822 0.00000000
1.95796052 1.24237668 0.00383323 0.00000000
2.63622788 0.42056801 -0.00170996 0.00000000
1.23635152 0.20596914 -0.00112277 0.00000000
1.46980645 0.61092480 -0.00572491 0.00000000
0.35856317 0.20577508 0.00154832 0.00000000
2.28474716 0.49334025 0.00088533 0.00000000
3.93387366 0.31824403 0.00001146 0.00000000
3.43802740 1.54470534 0.00068623 0.00000000
2.25241804 1.07408388 -0.00024382 0.00000000
1.51659422 1.52536141 -0.00047950 0.00000000
1.34852001 1.41027880 0.00142754 0.00000000
2.62690378 0.15438666 -0.00044584 0.00000000
3.02503961 0.22242282 0.00160472 0.00000000
1.15771363 0.48707706 -0.00141269 0.00000000
1.20260671 0.33942808 0.00429813 0.00000000
0.96483316 0.71426539 -0.00012077 0.00000000
4.12414462 0.90041211 0.00090272 0.00000000
4.19789301 1.19286149 -0.00270217 0.00000000
3.62836138 0.95651887 -0.00032303 0.00000000
2.78160743 0.74000232 -0.00420252 0.00000000
0.10539637 1.48909405 -0.00002353 0.00000000
4.04082383 0.99247991 -0.00527071 0.00000000
1.78050858 0.38980184 -0.00379982 0.00000000
1.17614965 1.28089577 -0.00087995 0.00000000
0.16180745 0.06371011 0.00404189 0.00000000
2.26998064 0.45880770 0.00033661 0.00000000
0.49289035 0.19496540 -0.00187718 0.00000000
2.23112734 0.61851534 0.00385296 0.00000000
1.17740956 1.07863322 0.00154940 0.00000000
1.77465227 0.37270518 -0.00274745 0.00000000
2.43538246 1.07192088 -0.00011710 0.00000000
2.58977617 1.13789809 0.00206026 0.00000000
1.50045585 1.37369917 -0.00023715 0.00000000
0.07231294 1.45316796 0.00172778 0.00000000
4.17612487 0.39135517 -0.00040475 0.00000000
1.48049555 0.69773551 0.00004856 0.00000000
1.89224257 0.83720649 -0.00354950 0.00000000
2.99049723 0.14064280 0.00109144 0.00000000
2.83614979 0.17826826 -0.00243523 0.00000000
0.08690692 0.63200335 -0.00145373 0.00000000
3.87180331 1.02917765 -0.00361378 0.00000000
2.93999373 1.35652031 -0.00115373 0.00000000
1.88052300 0.36164432 -0.00180825 0.00000000
3.89466728 0.32242766 -0.00289237 0.00000000
2.99455511 0.56030766 -0.00166073 0.00000000
0.59835802 0.13514461 -0.00193020 0.00000000
1.13582049 1.06019337 0.00352587 0.00000000
2.84631584 1.52418891 -0.00425786 0.00000000
3.28566384 1.26836324 -0.00209879 0.00000000
2.30648130 1.13065412 -0.00497660 0.00000000
2.02537205 1.55221120 -0.00253183 0.00000000
2.38762975 0.73035772 -0.00212190 0.00000000
1.03159238 1.07887501 -0.00080955 0.00000000
3.15317722 0.74126165 -0.00385720 0.00000000
2.07691273 0.75242731 0.00137514 0.00000000
2.56124535 0.55584421 0.00268937 0.00000000
2.97506079 0.90250016 0.00368362 0.00000000
3.27914917 1.24524556 0.00167413 0.00000000
1.52460252 0.64171112 0.00047695 0.00000000
0.42587755 0.58911612 -0.00014376 0.00000000
2.76754000 0.93757125 -0.00338936 0.00000000
0.80994393 1.31276754 0.00025359 0.00000000
0.38702656 0.02011291 -0.00137160 0.00000000
1.72697766 1.39501388 0.00247015 0.00000000
2.15204451 1.14968415 -0.00191073 0.00000000
1.27514863 1.39516035 -0.00203935 0.00000000
1.52830583 0.72307820 0.00100802 0.00000000
2.06175509 0.91228854 -0.00254050 0.00000000
2.16200080 0.83027372 0.00273204 0.00000000
2.30735794 0.11404234 -0.00264155 0.00000000
2.40416423 1.37661127 -0.00209975 0.00000000
3.14633129 0.12292593 -0.00309774 0.00000000
1.42197720 1.39855997 -0.00537773 0.00000000
0.77067767 0.86549037 -0.00177629 0.00000000
0.28719375 1.51951457 0.00057918 0.00000000
3.47678189 1.44059368 0.00246417 0.00000000
3.38307112 0.10520181 0.00176529 0.00000000
2.96054871 1.06490291 -0.00132891 0.00000000
1.24233606 1.23478089 0.00041747 0.00000000
0.52644699 0.45960903 -0.00091098 0.00000000
3.74179447 0.87980918 -0.00277362 0.00000000
0.84718214 0.14832990 -0.00081801 0.00000000
0.66129917 1.37306899 0.00096786 0.00000000
0.12463268 1.42475952 0.00047836 0.00000000
2.87961734 0.87538643 -0.00202923 0.00000000
2.04170708 1.24761306 0.00299870 0.00000000
0.22537856 0.88915144 0.00357603 0.00000000
2.67804484 0.31497489 -0.00359019 0.00000000
2.15239406 0.92737883 0.00124319 0.00000000
1.87577456 1.11440680 0.00097166 0.00000000
0.82685994 0.69350011 -0.00056000 0.00000000
0.51154020 0.65642465 -0.00213750 0.00000000
3.44813722 0.79098092 -0.00157232 0.00000000
1.98930351 1.14382397 0.00032597 0.00000000
2.36271975 0.75788171 0.00056797 0.00000000
1.31277283 1.30217294 0.00188891 0.00000000
1.66424260 1.55589767 0.00294393 0.00000000
0.83095270 1.57110092 0.00288725 0.00000000
0.84762530 1.00736765 -0.00008963 0.00000000
2.55232721 1.00389164 -0.00208007 0.00000000
3.96132295 1.07108229 0.00314014 0.00000000
3.12524708 0.69692022 0.00011700 0.00000000
0.20077882 0.30566542 -0.00039707 0.00000000
0.18744556 0.60900756 0.00152002 0.00000000
0.68068785 0.06812352 -0.00413654 0.00000000
1.05135059 1.42425955 0.00025065 0.00000000
1.70268792 1.38158084 -0.00475486 0.00000000
1.46156307 0.04893117 0.00131902 0.00000000
2.68590064 0.65787267 0.00357976 0.00000000
0.77891021 0.79630302 0.00269021 0.00000000
3.31967286 0.46546225 0.00014222 0.00000000
2.30626917 1.34200984 -0.00292573 0.00000000
1.59875245 0.74820497 -0.00313953 0.00000000
3.50080112 0.74151841 -0.00093580 0.00000000
0.69364458 0.65066325 0.00331167 0.00000000
1.12238999 0.22646400 0.00104425 0.00000000
1.48006594 1.22774604 -0.00188028 0.00000000
3.08822967 0.61965105 0.00276937 0.00000000
1.27355943 0.81749675 -0.00567346 0.00000000
3.62550528 0.82974267 -0.00016297 0.00000000
1.86854669 0.34721538 0.00138740 0.00000000
3.39169812 0.86513095 -0.00545607 0.00000000
0.66310557 0.34804364 0.00054267 0.00000000
2.31493106 0.99957408 -0.00129380 0.00000000
3.68090393 0.76002517 -0.00163218 0.00000000
3.31431658 0.81215702 -0.00172194 0.00000000
2.06263380 0.98120576 0.00031646 0.00000000
0.13236133 0.00329430 0.00233280 0.00000000
3.01757734 0.36345681 0.00117209 0.00000000
1.92276596 0.27603215 -0.00311511 0.00000000
2.05928119 1.38829855 -0.00119524 0.00000000
3.37288145 0.26805121 0.00040867 0.00000000
2.60108834 0.01530474 -0.00030522 0.00000000
2.35806267 0.69003323 0.00267290 0.00000000
1.17048204 1.31062633 0.00272566 0.00000000
0.59897134 1.06267242 -0.00085434 0.00000000
1.90042696 0.11830936 0.00133946 0.00000000
0.78141684 1.34110298 0.00508328 0.00000000
3.76545115 0.44895684 -0.00216497 0.00000000
1.90079750 0.35595072 0.00081858 0.00000000
1.35109189 1.37816342 0.00506295 0.00000000
0.07367260 0.14130451 0.00336224 0.00000000
0.69420360 1.31448663 -0.00084057 0.00000000
2.22525353 0.65969988 0.00493570 0.00000000
2.94885628 0.08282215 0.00182119 0.00000000
0.15487692 1.46603425 0.00195563 0.00000000
0.34410364 0.56556793 -0.00207475 0.00000000
2.11023504 0.77037492 0.00069157 0.00000000
3.32252299 0.33728697 -0.00250146 0.00000000
0.85072604 0.27523352 0.00176047 0.00000000
3.50325868 1.11455477 0.00131826 0.00000000
3.27356856 0.70672393 0.00337816 0.00000000
3.48636414 1.18609829 -0.00358014 0.00000000
2.36842339 0.52589624 0.00102691 0.00000000
1.63906624 1.42983658 -0.00251097 0.00000000
0.15819687 1.08953379 -0.00005547 0.00000000
2.06831096 1.36025106 0.00435985 0.00000000
2.83796450 1.32760871 -0.00200337 0.00000000
2.49164869 0.93450012 0.00314036 0.00000000
2.90351427 0.16719180 -0.00111672 0.00000000
0.82686380 0.77638670 -0.00048084 0.00000000
1.49881329 1.49109120 0.00236307 0.00000000
3.04208416 0.94816931 -0.00389644 0.00000000
3.10209611 0.64934410 0.00054328 0.00000000
4.05790049 0.62404465 -0.00032384 0.00000000
0.98536805 0.93691950 0.00045914 0.00000000
2.39508245 0.41254524 0.00227136 0.00000000
2.68728705 0.71153267 0.00245518 0.00000000
1.98773787 1.39308837 0.00004805 0.00000000
2.63807087 0.10643629 0.00067535 0.00000000
4.02299750 0.61961537 0.00116086 0.00000000
2.44503072 0.11225988 -0.00333270 0.00000000
2.18280017 0.92047599 0.00497412 0.00000000
2.78775804 0.92702504 0.00266846 0.00000000
4.09857235 0.70411235 -0.00100374 0.00000000
3.16847892 0.54537209 -0.00081512 0.00000000
2.62944683 1.22909701 0.00180845 0.00000000
3.05779077 1.05256876 0.00449276 0.00000000
2.47444347 0.85262586 -0.00285378 0.00000000
0.29832986 0.24688720 -0.00002682 0.00000000
4.25184393 0.38729856 -0.00289264 0.00000000
0.42172727 0.65834973 -0.00279222 0.00000000
2.58388501 1.22630400 -0.00318409 0.00000000
3.11605871 0.36070032 0.00403399 0.00000000
0.81144380 0.84763478 -0.00483809 0.00000000
3.93567104 0.52070632 0.00239411 0.00000000
0.04970767 0.84486558 -0.00158043 0.00000000
2.81534610 0.57282361 0.00080661 0.00000000
1.34802244 0.93794264 -0.00229307 0.00000000
2.52004343 1.30847247 0.00253067 0.00000000
1.49504284 0.57433804 0.00096645 0.00000000
1.05215664 0.77740807 -0.00148745 0.00000000
4.06613920 1.23523446 0.00592046 0.00000000
3.74799701 0.11202626 0.00079021 0.00000000
0.30394572 1.02780636 0.00131253 0.00000000
3.27635067 0.86452181 -0.00256802 0.00000000
0.80602182 0.70281080 0.00406481 0.00000000
3.07001545 0.24368359 -0.00468107 0.00000000
1.30356748 1.02216078 -0.00196903 0.00000000
3.98055792 1.29169255 -0.00064568 0.00000000
0.91367993 0.90440038 0.00045684 0.00000000
0.66450032 0.99408505 0.00291623 0.00000000
0.14313319 1.30584596 0.00044297 0.00000000
3.50687358 0.35542092 0.00043575 0.00000000
3.75785271 0.66655979 -0.00299736 0.00000000
4.04505461 1.55683663 0.00143559 0.00000000
2.86677090 0.61625594 0.00092791 0.00000000
3.50088256 1.08830502 -0.00010078 0.00000000
0.14766521 0.82394680 0.00340951 0.00000000
1.66757277 1.04092585 -0.00339998 0.00000000
1.20180983 0.29096637 -0.00417112 0.00000000
0.91678967 1.19697782 -0.00047453 0.00000000
2.79723073 1.14234559 -0.00079561 0.00000000
0.38863601 1.20130476 -0.00207826 0.00000000
2.85023566 1.40368333 0.00106657 0.00000000
4.17875694 0.30612515 -0.00071117 0.00000000
3.16077651 1.03288021 0.00079560 0.00000000
1.15104431 0.51727179 0.00163215 0.00000000
0.97239887 0.59219622 -0.00164093 0.00000000
3.66407021 0.75951133 0.00233395 0.00000000
2.79857077 0.28625996 -0.00000625 0.00000000
0.06531302 0.48599708 -0.00017478 0.00000000
3.88703670 0.85294526 -0.00279718 0.00000000
0.69505128 1.55365107 0.00161984 0.00000000
0.67142626 0.27935913 -0.00090488 0.00000000
2.35314752 1.27069067 0.00390098 0.00000000
0.94897743 1.43432833 -0.00067584 0.00000000
3.22858841 1.32984546 -0.00712401 0.00000000
2.17708826 0.02183286 0.00007813 0.00000000
1.42176447 1.39428314 -0.00293184 0.00000000
1.02073134 0.50267236 -0.00248884 0.00000000
2.41163234 0.03026000 -0.00103521 0.00000000
1.74789391 1.32818967 0.00564519 0.00000000
4.04852005 1.29430975 -0.00101371 0.00000000
4.14586668 0.82562875 -0.00186986 0.00000000
0.42246345 1.41167618 0.00538049 0.00000000
2.25831671 0.49591101 -0.00348059 0.00000000
2.34022258 0.07316789 -0.00249383 0.00000000
0.60229492 1.10534432 0.00350586 0.00000000
0.28622994 0.98395600 0.00309915 0.00000000
4.09801877 0.60343981 -0.00148451 0.00000000
2.69699594 1.03637228 0.00087010 0.00000000
0.01811489 0.96236785 0.00007626 0.00000000
0.77064284 1.31297011 -0.00170171 0.00000000
2.57090141 0.08513451 -0.00095145 0.00000000
2.99641649 0.72755738 -0.00170664 0.00000000
2.22674108 0.94904767 -0.00200537 0.00000000
3.19444221 0.41484807 0.00190800 0.00000000
2.97463264 0.11863332 0.00110388 0.00000000
3.89278170 1.48219940 0.00494108 0.00000000
2.04170563 1.14000677 -0.00020696 0.00000000
2.81022409 1.03285295 0.00117001 0.00000000
0.09187857 0.74050860 0.00433125 0.00000000
1.55785087 0.05402513 -0.00158704 0.00000000
2.38115115 1.00260205 -0.00111402 0.00000000
2.09406216 1.56806965 -0.00001510 0.00000000
0.50772485 0.88268278 0.00182395 0.00000000
2.14989570 0.62363961 0.00145823 0.00000000
0.06054724 0.53523010 -0.00050965 0.00000000
0.93650112 0.39855162 -0.00008742 0.00000000
1.56744302 0.62068094 0.00071232 0.00000000
0.18830360 0.37426604 -0.00113098 0.00000000
2.94771497 1.52715327 0.00067357 0.00000000
2.73077055 0.52100319 0.00296724 0.00000000
1.04979636 1.57358694 0.00204057 0.00000000
0.20970908 1.13231238 -0.00148105 0.00000000
0.40269425 1.52531680 -0.00109527 0.00000000
1.29156034 1.12219726 -0.00095040 0.00000000
0.60046200 0.52997545 -0.00159588 0.00000000
0.60330091 1.36764206 -0.00280708 0.00000000
1.19004389 0.11998075 -0.00096499 0.00000000
1.70066758 0.07001696 -0.00335020 0.00000000
2.05532581 0.10897403 -0.00033589 0.00000000
3.59753069 1.47118586 -0.00481612 0.00000000
2.13941755 1.04229795 0.00318900 0.00000000
3.23553473 1.09949584 -0.00117377 0.00000000
4.02693835 0.47071906 0.00282259 0.00000000
3.42232738 0.42842015 -0.00420857 0.00000000
2.18238504 0.66938397 0.00267070 0.00000000
0.42161811 0.34610222 0.00227598 0.00000000
1.44959751 0.15994314 -0.00518956 0.00000000
2.88861978 1.13667774 -0.00177224 0.00000000
2.46165525 1.46851418 -0.00314522 0.00000000
4.20447808 1.43584747 -0.00069769 0.00000000
3.53868401 0.13619556 -0.00283605 0.00000000
1.51113577 1.48382046 0.00031464 0.00000000
2.76343207 0.38744177 -0.00328132 0.00000000
1.19291829 1.39770239 0.00341408 0.00000000
1.73640389 0.12620553 0.00167937 0.00000000
0.26826062 1.48400903 0.00077593 0.00000000
3.02307331 1.40868523 -0.00174703 0.00000000
3.07052285 0.92288819 -0.00098547 0.00000000
3.31732718 0.57867846 -0.00293578 0.00000000
4.08886596 0.26082162 0.00327005 0.00000000
0.17134795 0.81318693 -0.00231369 0.00000000
1.37304839 1.46776454 0.00112280 0.00000000
2.37374385 0.91387156 0.00012002 0.00000000
0.78709528 1.56436028 0.00348156 0.00000000
0.22955700 1.52547337 -0.00270356 0.00000000
0.26522078 1.19662721 0.00164269 0.00000000
2.42143248 1.48747006 0.00280516 0.00000000
1.34543187 1.52462898 0.00122088 0.00000000
3.87843053 0.23469247 0.00006490 0.00000000
4.08521660 1.23999638 0.00293555 0.00000000
1.24885629 1.28025438 -0.00332504 0.00000000
3.01220609 0.88196598 -0.00313816 0.00000000
4.26083947 1.11242733 0.00054669 0.00000000
2.74023803 0.13126164 -0.00435845 0.00000000
3.06996479 1.15355675 -0.00182386 0.00000000
1.28537455 1.45124130 -0.00256450 0.00000000
1.76107329 1.55653821 -0.00389700 0.00000000
3.61552619 0.93716356 0.00173064 0.00000000
3.73621700 0.02054123 -0.00247133 0.00000000
0.33171391 0.40948666 -0.00078217 0.00000000
1.38237351 1.24263212 -0.00131471 0.00000000
4.10017002 0.29684386 0.00184373 0.00000000
0.17743807 0.68847067 0.00178520 0.00000000
0.23939406 0.08205859 0.00073956 0.00000000
0.68000950 0.46563354 0.00087866 0.00000000
4.07883843 1.09903055 -0.00156947 0.00000000
1.67271864 1.24643499 0.00318061 0.00000000
4.25082228 0.20388830 -0.00238482 0.00000000
2.20450756 0.07686299 -0.00247909 0.00000000
2.80734406 0.65856229 0.00196874 0.00000000
3.64997255 1.34403459 0.00325051 0.00000000
3.18958602 0.90061965 0.00028932 0.00000000
3.28978201 1.27636553 -0.00272194 0.00000000
4.00435262 0.25661158 -0.00092948 0.00000000
4.08496480 0.35228204 -0.00299358 0.00000000
1.74410851 0.24133288 0.00065360 0.00000000
4.24547973 1.41326616 -0.00320271 0.00000000
2.28344961 0.55919536 -0.00218735 0.00000000
1.18304446 0.49012551 -0.00228589 0.00000000
0.32490214 0.53204730 0.00095734 0.00000000
1.02616727 0.00255368 -0.00283853 0.00000000
3.11097767 0.56751045 -0.00152842 0.00000000
0.46439465 0.38288425 -0.00025675 0.00000000
2.89299206 1.26012927 0.00355197 0.00000000
4.12833791 0.37536688 0.00006394 0.00000000
0.31209785 1.52201675 -0.00062575 0.00000000
3.75410263 0.54368545 -0.00577922 0.00000000
0.31013943 0.36559227 -0.00027627 0.00000000
0.57142663 0.14102791 -0.00349392 0.00000000
3.67333960 0.13679972 -0.00113632 0.00000000
1.24533834 1.50947358 -0.00441091 0.00000000
3.74007413 0.97735253 0.00193574 0.00000000
2.26892830 0.48524490 0.00141692 0.00000000
3.27033322 0.30194546 0.00066337 0.00000000
1.41832456 0.04890232 0.00183238 0.00000000
3.22039607 1.00461693 -0.00211654 0.00000000
3.83172694 0.83977288 -0.00103201 0.00000000
0.60574743 1.40172594 0.00012220 0.00000000
0.54246777 1.07678879 -0.00246137 0.00000000
0.14734693 0.77807896 0.00225620 0.00000000
3.13945749 0.92174369 0.00102082 0.00000000
0.66002524 1.30789280 0.00432399 0.00000000
3.61140809 0.58425309 -0.00321087 0.00000000
2.29893454 0.17937046 -0.00137596 0.00000000
3.41509489 0.65155869 -0.00209982 0.00000000
3.78610343 0.85820491 0.00124877 0.00000000
3.71541074 0.45140029 0.00077658 0.00000000
1.66300471 1.09025766 0.00303424 0.00000000
4.17970349 1.45925814 -0.00434564 0.00000000
1.93712786 0.72320918 -0.00185408 0.00000000
3.03926381 0.54366828 -0.00086853 0.00000000
2.26732063 1.54702512 0.00140896 0.00000000
1.74075521 1.36538678 0.00085927 0.00000000
0.04780402 0.06541248 -0.00414643 0.00000000
4.26127023 1.03431674 -0.00043936 0.00000000
0.02032751 0.46104097 -0.00445901 0.00000000
3.98116794 0.57381666 0.00063778 0.00000000
0.48488835 1.48579300 0.00209581 0.00000000
3.05672925 0.81910565 0.00009844 0.00000000
1.12234209 0.10577749 0.00020274 0.00000000
0.78681091 0.81500003 0.00022465 0.00000000
0.25625801 0.25621128 0.00100959 0.00000000
0.20773362 0.64497248 0.00376308 0.00000000
2.86205551 1.10599528 -0.00509998 0.00000000
0.60677170 0.14472445 0.00059727 0.00000000
2.19542959 1.10312102 -0.00026551 0.00000000
2.32266073 0.03518903 0.00260597 0.00000000
0.34130265 0.49825093 -0.00258844 0.00000000
2.74417529 0.47161996 0.00029489 0.00000000
1.51877240 0.26786496 -0.00020121 0.00000000
2.26859883 0.28660564 0.00096617 0.00000000
0.99107344 0.68900752 0.00404781 0.00000000
1.68789414 0.11846541 -0.00114937 0.00000000
3.99034826 1.22834858 -0.00359480 0.00000000
1.39394046 0.35390429 0.00304836 0.00000000
2.98902885 1.51786252 -0.00114892 0.00000000
3.09939301 1.31421307 -0.00285427 0.00000000
1.47692946 0.77796749 0.00022475 0.00000000
1.16380742 1.33838053 0.00476733 0.00000000
0.33269807 0.79872166 0.00303165 0.00000000
2.41796014 0.85097764 0.00257239 0.00000000
0.76537191 0.26191280 -0.00424153 0.00000000
2.39142006 0.35260699 0.00012274 0.00000000
4.07278698 0.28320652 0.00163073 0.00000000
0.65960361 0.23660652 -0.00149752 0.00000000
0.65020970 1.30510604 -0.00065973 0.00000000
0.71251947 0.98955614 0.00135392 0.00000000
3.18550490 1.03610590 0.00054352 0.00000000
2.25711870 0.11484270 0.00393079 0.00000000
1.37697430 0.37089232 0.00022144 0.00000000
0.34390280 1.27524645 0.00565419 0.00000000
4.21609213 1.32590652 0.00252224 0.00000000
2.20841271 0.34224885 -0.00172714 0.00000000
4.25028167 0.23912457 -0.00229537 0.00000000
2.92890631 0.79268425 -0.00438118 0.00000000
3.09734217 0.31922043 -0.00302697 0.00000000
1.94935399 0.79621739 -0.00081307 0.00000000
0.83778335 0.24969280 0.00184298 0.00000000
3.45285204 1.52959153 -0.00079027 0.00000000
2.43992764 1.37561006 -0.00170306 0.00000000
2.63117069 0.49658632 0.00241286 0.00000000
0.18994016 1.39488603 -0.00426755 0.00000000
3.72074616 0.40584543 -0.00344513 0.00000000
1.63690092 0.02524857 0.00542580 0.00000000
2.99728594 0.01649892 0.00098522 0.00000000
4.04507240 1.32274345 -0.00193858 0.00000000
2.82582701 0.51878925 -0.00292292 0.00000000
2.23714443 0.01788092 0.00083585 0.00000000
2.28148763 0.18990449 -0.00041851 0.00000000
0.82403804 0.78488352 0.00013400 0.00000000
2.92335288 0.05111708 -0.00361076 0.00000000
1.77911446 0.31648479 -0.00083055 0.00000000
0.22636824 0.88540651 0.00367630 0.00000000
0.79460063 0.93370999 -0.00389941 0.00000000
3.36753807 0.51486133 -0.00415529 0.00000000
3.92662451 1.36306003 0.00021282 0.00000000
1.66726393 0.61356287 -0.00079170 0.00000000
4.24024061 1.40618872 -0.00040301 0.00000000
2.25597716 0.89221366 -0.00053799 0.00000000
0.45588932 0.25393280 0.00137091 0.00000000
2.14270460 1.30326827 -0.00109076 0.00000000
0.37711074 0.38012815 -0.00284401 0.00000000
3.60850112 0.38410618 -0.00111636 0.00000000
1.99399851 1.55591023 -0.00045536 0.00000000
2.63585284 0.28988486 -0.00009469 0.00000000
4.17048719 0.66323991 0.00081078 0.00000000
1.19467312 0.93297559 0.00061797 0.00000000
2.00520655 0.43197108 -0.00011134 0.00000000
1.80656076 0.74865637 -0.00045176 0.00000000
2.52103033 0.41604502 0.00195343 0.00000000
1.76929764 0.77358988 -0.00490622 0.00000000
4.04221069 0.82672300 0.00023382 0.00000000
3.51967676 1.27426928 -0.00059756 0.00000000
2.26704389 1.05728207 -0.00240698 0.00000000
2.17346746 0.57397253 0.00387513 0.00000000
2.66809228 0.25490546 0.00293530 0.00000000
0.43693413 0.93097207 -0.00080207 0.00000000
0.81060600 0.30651835 -0.00077673 0.00000000
0.02405676 1.20823567 -0.00356759 0.00000000
0.90576907 1.09266396 -0.00547188 0.00000000
1.79898999 0.85101862 0.00343430 0.00000000
1.60521105 0.00870793 0.00205679 0.00000000
0.97571782 0.88414140 0.00037490 0.00000000
4.16517017 0.43195410 0.00251722 0.00000000
0.24132585 0.18313843 0.00232064 0.00000000
3.83171937 1.29095452 -0.00003643 0.00000000
1.59051610 1.05501296 0.00313161 0.00000000
3.66291933 0.55563002 -0.00052731 0.00000000
2.61926379 0.20826589 -0.00030767 0.00000000
1.59500456 0.58501230 -0.00193603 0.00000000
0.65789405 0.86767884 -0.00178764 0.00000000
0.25055532 0.29423818 0.00050442 0.00000000
2.29692700 1.36294611 0.00208045 0.00000000
3.78058443 1.37165553 -0.00047284 0.00000000
0.46501167 0.55199544 -0.00400214 0.00000000
1.41902753 0.15762498 0.00298745 0.00000000
3.10151099 1.47885608 -0.00366625 0.00000000
0.69153659 0.29976452 0.00200178 0.00000000
2.21024469 1.29860409 0.00122797 0.00000000
3.31576114 0.38436000 0.00165115 0.00000000
3.31533348 0.41788501 0.00058346 0.00000000
4.08710909 0.58253929 0.00355049 0.00000000
2.80741030 1.43758419 -0.00073504 0.00000000
2.53688880 1.18643402 -0.00074296 0.00000000
3.06798529 0.07433763 -0.00001918 0.00000000
2.93567389 0.89137805 -0.00027316 0.00000000
2.79310773 0.29904725 -0.00314514 0.00000000
4.27445116 1.03693675 0.00201986 0.00000000
2.97841767 1.16059098 0.00048059 0.00000000
3.58305594 0.14261554 0.00240483 0.00000000
0.83058143 1.03468793 -0.00398552 0.00000000
1.43713152 0.96252137 0.00047317 0.00000000
2.48767118 0.00854404 0.00035938 0.00000000
3.58482835 0.07204388 -0.00019623 0.00000000
3.17266545 1.54751971 -0.00027375 0.00000000
1.43536539 1.22221292 -0.00511340 0.00000000
3.33774303 1.32617906 -0.00166779 0.00000000
3.64326284 0.84294471 -0.00170735 0.00000000
3.63437124 0.85464381 0.00316679 0.00000000
4.19672643 0.01067535 0.00385857 0.00000000
2.79296467 0.51755259 0.00156576 0.00000000
4.26721417 1.54612663 0.00360873 0.00000000
0.22086529 1.18207000 -0.00080761 0.00000000
1.39917043 0.64750181 0.00403183 0.00000000
3.43150652 0.90096095 -0.00392251 0.00000000
4.27389158 1.21372554 0.00167760 0.00000000
3.36819384 0.12120371 0.00043375 0.00000000
3.88024602 1.38014530 0.00121161 0.00000000
3.02084992 0.36754009 0.00225321 0.00000000
1.42422775 0.13743218 -0.00106209 0.00000000
0.26136793 0.72120804 -0.00421741 0.00000000
2.22485883 0.11096290 -0.00192537 0.00000000
2.05326048 0.66770924 0.00149320 0.00000000
3.83538261 0.56652388 -0.00540971 0.00000000
0.71066748 0.99771716 0.00053446 0.00000000
2.03159726 1.33699364 0.00223265 0.00000000
1.11673566 0.89511239 -0.00302424 0.00000000
1.01424429 1.23169824 0.00214569 0.00000000
3.56028098 0.05363888 -0.00276602 0.00000000
2.08051383 0.30947584 0.00095886 0.00000000
2.21928937 0.29988941 -0.00283701 0.00000000
4.05585486 0.05589281 0.00057980 0.00000000
4.18693863 0.30175239 -0.00032920 0.00000000
1.05681376 0.43668731 -0.00473491 0.00000000
2.86908419 1.23588308 -0.00180060 0.00000000
1.62958607 0.72119684 -0.00404495 0.00000000
2.82062330 0.04680261 0.00066787 0.00000000
1.59303752 1.00833171 0.00049961 0.00000000
2.59681348 1.57688638 -0.00374923 0.00000000
3.79330252 0.35813469 -0.00064097 0.00000000
0.73994986 0.44910767 0.00440460 0.00000000
1.11981007 1.44835870 0.00454570 0.00000000
0.77936276 0.98882252 0.00140618 0.00000000
1.60576338 1.54887333 -0.00291450 0.00000000
0.46618412 0.22650824 0.00021562 0.00000000
1.57957540 0.34375281 -0.00137026 0.00000000
3.52514676 0.90656384 -0.00178945 0.00000000
0.57930994 0.74871771 0.00151518 0.00000000
0.32315006 0.41850689 -0.00196088 0.00000000
4.23270813 0.02847699 -0.00152347 0.00000000
1.81338917 0.20269856 0.00119007 0.00000000
2.48046918 0.42708789 0.00158968 0.00000000
0.67696200 1.30183985 -0.00104804 0.00000000
1.06521900 0.08784163 0.00036186 0.00000000
3.01053272 0.78760038 -0.00529586 0.00000000
3.57848891 0.44449498 0.00086614 0.00000000
0.27432917 0.20752231 0.00378872 0.00000000
1.50559745 0.42290188 -0.00424092 0.00000000
1.78325287 0.68312785 0.00014770 0.00000000
1.42239645 0.63018002 -0.00080671 0.00000000
3.27429104 1.40702676 -0.00373843 0.00000000
1.65116620 1.39246507 0.00211084 0.00000000
3.65356418 0.17059958 0.00251191 0.00000000
3.82653682 0.97470948 0.00034028 0.00000000
1.26759023 1.53208806 0.00421858 0.00000000
0.71731013 1.20215054 -0.00455955 0.00000000
3.14987279 0.83259178 -0.00314499 0.00000000
2.88635734 1.14471461 -0.00058476 0.00000000
4.00846021 1.25648464 -0.00166323 0.00000000
1.05088244 0.17179599 -0.00635159 0.00000000
1.53135931 0.45727886 -0.00018594 0.00000000
0.23069498 0.15927144 -0.00072954 0.00000000
1.17433659 0.36532454 -0.00276150 0.00000000
1.16902157 0.45726109 0.00126584 0.00000000
3.35553439 0.14106949 -0.00007972 0.00000000
0.35499978 0.18967324 -0.00184639 0.00000000
3.44182713 1.35675033 -0.00199005 0.00000000
3.90113505 0.72571547 0.00138430 0.00000000
0.57289924 0.47754530 0.00184360 0.00000000
2.74619607 1.27170879 -0.00155112 0.00000000
3.60054118 1.00181064 -0.00090842 0.00000000
0.33595398 0.89830914 -0.00366416 0.00000000
2.04303823 0.74767388 0.00408137 0.00000000
0.79368423 0.90922377 0.00096072 0.00000000
0.20835314 0.73147162 -0.00085377 0.00000000
2.55111894 1.26169304 0.00280836 0.00000000
2.87255370 0.11477848 0.00013769 0.00000000
2.38883116 0.07602121 0.00214927 0.00000000
0.81907903 0.88788176 0.00363783 0.00000000
3.58961961 1.05477478 -0.00107621 0.00000000
3.50149439 0.91890430 -0.00001707 0.00000000
3.47596111 0.94882262 -0.00108100 0.00000000
2.05538950 1.00772214 -0.00419779 0.00000000
2.43867066 0.76890491 -0.00207422 0.00000000
0.75693993 0.32426177 -0.00007156 0.00000000
1.47922751 0.40866130 -0.00204814 0.00000000
2.75767738 0.39889784 0.00163792 0.00000000
4.12250042 1.47009118 -0.00046626 0.00000000
2.35816462 1.42333916 -0.00044395 0.00000000
2.49600985 0.74593318 -0.00038149 0.00000000
0.84353687 0.17991275 0.00225004 0.00000000
2.55680870 0.99325416 0.00491456 0.00000000
1.02133800 0.53870567 0.00049519 0.00000000
0.40989239 1.16112098 -0.00517514 0.00000000
1.03187199 1.02066545 -0.00041399 0.00000000
2.33223460 1.02968646 -0.00421197 0.00000000
2.17083863 0.64975324 -0.00276265 0.00000000
4.05296357 0.57407080 0.00095787 0.00000000
2.55521051 0.04484640 -0.00176343 0.00000000
3.22944774 0.50224344 0.00094278 0.00000000
3.53813982 0.05388304 -0.00157326 0.00000000
2.10058965 0.25065536 -0.00021796 0.00000000
2.09451868 1.26115813 0.00111977 0.00000000
0.92298651 0.58167395 -0.00295537 0.00000000
4.20220164 0.25760297 -0.00329715 0.00000000
2.74803605 1.39202338 -0.00226870 0.00000000
4.12355539 1.29863824 0.00072430 0.00000000
3.87510635 1.46256419 -0.00255808 0.00000000
1.21390399 0.30275021 -0.00487501 0.00000000
3.59579568 1.54740687 0.00173342 0.00000000
4.20580090 0.11530274 0.00114848 0.00000000
3.57496810 1.32565281 -0.00271683 0.00000000
3.88496069 1.22420152 -0.00029967 0.00000000
0.97737912 0.05855208 -0.00198316 0.00000000
1.70376901 1.44451160 -0.00129424 0.00000000
2.28746085 0.92898924 0.00044534 0.00000000
3.36165611 1.46779372 0.00054821 0.00000000
1.69555964 0.11083479 -0.00364109 0.00000000
0.82915119 0.49519789 0.00112302 0.00000000
2.10432760 0.26214219 -0.00293286 0.00000000
2.45629125 0.82798668 0.00087791 0.00000000
1.60253103 0.15155065 0.00201906 0.00000000
3.41277071 0.57705082 0.00242611 0.00000000
2.98078482 1.51699137 -0.00277562 0.00000000
0.10762043 0.56853600 -0.00351964 0.00000000
0.21001413 0.18197084 -0.00285803 0.00000000
2.78626492 0.85555706 -0.00062126 0.00000000
4.05600373 1.23635927 0.00061700 0.00000000
3.73168251 0.14812408 0.00024878 0.00000000
3.33196641 0.84313831 -0.00018681 0.00000000
1.16014277 0.22873522 -0.00107969 0.00000000
3.08245330 0.33999977 0.00093555 0.00000000
2.38371463 0.15225730 -0.00131348 0.00000000
2.56441390 0.29998636 -0.00095990 0.00000000
2.27463841 0.82736639 0.00120868 0.00000000
2.78919149 0.38583018 -0.00072991 0.00000000
1.35469609 1.03602632 0.00322691 0.00000000
2.39935701 1.01120821 0.00046146 0.00000000
1.92669646 0.13559604 0.00181896 0.00000000
1.70835182 0.36731967 -0.00040317 0.00000000
1.07121512 0.50570024 -0.00387708 0.00000000
3.05577382 0.80757476 -0.00076310 0.00000000
3.45815046 0.85272872 -0.00269754 0.00000000
0.31718685 1.44925531 0.00227326 0.00000000
0.63154344 0.49744098 0.00091649 0.00000000
2.93142957 1.01245513 0.00004059 0.00000000
1.90401190 0.92913189 -0.00351167 0.00000000
2.92353956 0.02514064 -0.00130275 0.00000000
3.44584617 0.53281246 -0.00380514 0.00000000
0.49689231 1.53088232 -0.00600101 0.00000000
0.16127690 1.46890898 -0.00104005 0.00000000
1.20693262 0.53589673 0.00027458 0.00000000
2.44526942 0.83530243 0.00229197 0.00000000
3.58672557 0.95669611 -0.00003665 0.00000000
0.10203615 1.43972776 -0.00052135 0.00000000
1.25979311 0.81086263 0.00274876 0.00000000
4.24346657 1.52498556 -0.00027628 0.00000000
4.24140338 1.56912240 0.00176786 0.00000000
0.85593114 0.40804381 0.00030099 0.00000000
4.11798764 0.53259562 -0.00294602 0.00000000
1.38894799 0.87538886 0.00033196 0.00000000
3.27845224 0.72970193 0.00119496 0.00000000
2.65413019 0.45099076 0.00430911 0.00000000
3.61244343 1.39685326 -0.00071658 0.00000000
1.96130674 1.19888060 0.00230112 0.00000000
2.37957859 0.62205251 -0.00258256 0.00000000
2.89694748 1.11685528 -0.00026548 0.00000000
0.11725095 0.47526028 -0.00038494 0.00000000
2.89701089 1.27542543 0.00198684 0.00000000
2.80765452 1.03730392 0.00259955 0.00000000
0.90163883 1.09220833 -0.00314342 0.00000000
3.71931294 0.68280093 0.00385878 0.00000000
1.22812106 1.16719033 0.00639324 0.00000000
0.51534549 1.16279314 0.00157438 0.00000000
2.35659998 1.48972187 -0.00477466 0.00000000
3.07382362 1.45532373 -0.00269852 0.00000000
3.84729951 1.21715547 -0.00078957 0.00000000
3.40490859 0.58564708 -0.00177042 0.00000000
1.63335754 0.61477060 -0.00469276 0.00000000
4.13293788 0.85732390 -0.00324472 0.00000000
1.53708672 1.11287353 -0.00095512 0.00000000
2.82522423 0.30041278 -0.00005141 0.00000000
3.03957588 1.08150430 -0.00175485 0.00000000
2.61543465 0.44364079 0.00083645 0.00000000
0.70473773 1.54666799 0.00406443 0.00000000
3.65326135 0.11789933 0.00135089 0.00000000
2.03724902 0.01808195 -0.00114445 0.00000000
0.16800180 1.38170285 -0.00184944 0.00000000
1.00200054 1.38783046 0.00451725 0.00000000
2.18475574 1.57647286 -0.00058202 0.00000000
1.38919624 0.03590093 -0.00165098 0.00000000
0.02768350 0.74441555 0.00416076 0.00000000
