3.19921909 0.30363721 -0.00019560 0.00000000
0.35829298 1.12186094 -0.00271448 0.00000000
4.14269789 1.23194633 -0.00603006 0.00000000
3.94170054 0.08360823 -0.00150753 0.00000000
1.63668356 0.76599238 -0.00092872 0.00000000
1.46031810 1.62331296 0.00434283 0.00000000
2.55896632 0.92433039 -0.00245962 0.00000000
3.52007491 0.88175941 0.00077879 0.00000000
2.95428662 1.73760173 0.00186565 0.00000000
2.76289406 0.68936274 0.00158037 0.00000000
1.75410444 0.51344780 0.00072440 0.00000000
2.19848248 0.96551364 0.00189584 0.00000000
4.32552792 1.41568237 0.00056453 0.00000000
3.44713979 1.39412164 -0.00473868 0.00000000
4.46263955 0.12221840 -0.00333205 0.00000000
4.17002973 0.04790199 0.00283173 0.00000000
2.39822366 0.05582107 -0.00342696 0.00000000
0.82145690 1.49955900 0.00152188 0.00000000
0.75296942 0.43914183 0.00042708 0.00000000
2.23865979 1.28179597 -0.00171194 0.00000000
3.71050714 1.48660674 0.00248855 0.00000000
2.44922891 0.11278387 -0.00221265 0.00000000
2.81585365 1.38125377 -0.00150573 0.00000000
1.25167446 0.28521707 -0.00347401 0.00000000
0.35405495 1.76863304 -0.00043080 0.00000000
1.27233942 1.17871279 -0.00060894 0.00000000
2.94266792 1.42520092 -0.00384434 0.00000000
4.51913109 1.00257693 -0.00138699 0.00000000
3.87675950 0.88350741 0.00341716 0.00000000
2.10428840 1.32999013 0.00458095 0.00000000
0.57447197 0.68406278 0.00004667 0.00000000
4.21986686 0.71972145 0.00081494 0.00000000
0.76788309 1.76586119 -0.00162937 0.00000000
3.63995924 1.05094023 0.00054620 0.00000000
4.19815894 0.69786157 0.00388651 0.00000000
0.59744089 0.34793597 0.00432195 0.00000000
2.24678706 0.70466616 0.00550839 0.00000000
4.29825171 0.57110799 -0.00089539 0.00000000
2.47292434 0.21187261 0.00208519 0.00000000
3.64879699 0.78203186 -0.00063358 0.00000000
1.32442866 1.06660429 0.00263200 0.00000000
1.13589286 1.31578315 -0.00084354 0.00000000
3.99065657 1.21738011 0.00030526 0.00000000
2.82185928 0.27679689 0.00198635 0.00000000
2.74524998 0.14337926 0.00291462 0.00000000
4.46224682 1.17420950 -0.00223915 0.00000000
1.57913077 0.39440073 -0.00324626 0.00000000
0.07570923 0.12843382 0.00205159 0.00000000
3.57619512 1.56338163 -0.00538597 0.00000000
2.79399462 1.16433015 0.00282589 0.00000000
3.51214789 1.39548801 -0.00195747 0.00000000
1.37795006 1.33376448 -0.00152025 0.00000000
3.49464571 1.51865148 0.00045327 0.00000000
4.31639884 1.45599948 -0.00075669 0.00000000
1.17871850 0.78300011 0.00068386 0.00000000
3.98958144 0.08996611 0.00594992 0.00000000
0.61367275 1.64446922 -0.00092819 0.00000000
2.27478569 1.04479375 -0.00232522 0.00000000
2.09039069 0.74671760 -0.00039102 0.00000000
2.16232341 0.01844781 0.00178590 0.00000000
1.76683941 1.70708095 0.00032562 0.00000000
1.75275141 0.35553881 -0.00060161 0.00000000
2.84309937 0.27283219 -0.00215558 0.00000000
1.90004478 0.35040615 0.00104377 0.00000000
1.72300833 1.17857245 -0.00011573 0.00000000
1.34594220 0.37938266 0.00126199 0.00000000
4.34507526 0.89356323 0.00428096 0.00000000
3.15307208 0.21005628 -0.00314715 0.00000000
3.40589482 0.06532431 0.00134717 0.00000000
0.28822441 0.26257995 -0.00256487 0.00000000
1.94539514 1.26418445 -0.00490318 0.00000000
0.26448049 0.60553227 0.00001825 0.00000000
3.95972116 0.66824343 0.00041309 0.00000000
4.48121755 1.09215001 -0.00353560 0.00000000
1.91291200 0.56698161 0.00072771 0.00000000
0.53983275 1.42078616 0.00033247 0.00000000
4.04983921 1.36493005 0.00411185 0.00000000
4.40542358 0.60906200 0.00187394 0.00000000
0.05615958 1.16803101 0.00026264 0.00000000
3.28418338 1.58234487 0.00316937 0.00000000
1.98582810 1.34528455 -0.00311682 0.00000000
3.19930331 1.47712878 0.00071984 0.00000000
1.11183870 1.32637405 0.00223178 0.00000000
2.99927281 0.87340468 -0.00371398 0.00000000
3.00078821 0.05800708 0.00025587 0.00000000
2.97431770 1.78410355 0.00115337 0.00000000
4.14566744 0.15482656 -0.00148107 0.00000000
1.77864579 1.05097816 -0.00608821 0.00000000
3.36771846 0.21881950 -0.00337981 0.00000000
1.94110832 1.40621320 -0.00314126 0.00000000
1.72857947 0.53174709 0.00363303 0.00000000
1.74640145 0.12832340 -0.00037072 0.00000000
3.47406465 1.35750400 -0.00026464 0.00000000
3.66255370 1.04009172 -0.00096826 0.00000000
2.70986682 0.73167823 -0.00121263 0.00000000
2.36941357 0.37291606 0.00250583 0.00000000
0.00939640 0.50931904 -0.00147573 0.00000000
2.05337357 0.49510107 0.00424161 0.00000000
3.05103847 1.05503121 -0.00402539 0.00000000
2.09274126 0.48697909 0.00314379 0.00000000
3.61794167 1.03512197 0.00529192 0.00000000
3.99939623 1.59643277 -0.00123321 0.00000000
1.15723347 0.50662352 -0.00361640 0.00000000
2.63454407 1.42012480 -0.00194658 0.00000000
3.01194900 1.49214225 -0.00332295 0.00000000
0.76561033 0.85977191 0.00051501 0.00000000
2.74874529 0.50323525 0.00067280 0.00000000
0.48691270 1.16562223 -0.00393065 0.00000000
2.25883301 0.52105191 -0.00008807 0.00000000
2.88116330 1.65801909 -0.00179677 0.00000000
2.02271723 0.47340117 -0.00141025 0.00000000
2.61371086 0.18307270 -0.00070898 0.00000000
3.81198930 0.80373263 0.00212786 0.00000000
2.83241879 1.66094132 0.00151018 0.00000000
4.15321105 0.89221634 0.00232752 0.00000000
1.20376283 0.94981388 0.00237612 0.00000000
0.00068166 0.56922089 0.00004907 0.00000000
0.61002376 0.61954311 -0.00335909 0.00000000
2.99295844 0.97863807 0.00230921 0.00000000
4.07151800 1.03988121 -0.00153927 0.00000000
1.26129656 1.76131379 -0.00212025 0.00000000
2.68808270 1.57821707 0.00123257 0.00000000
0.80395938 0.15167616 0.00287902 0.00000000
2.38882605 0.35477706 -0.00057651 0.00000000
4.12248576 0.51684538 -0.00062331 0.00000000
0.07551223 0.84086717 -0.00222659 0.00000000
3.94650215 0.73924834 -0.00233281 0.00000000
1.50719508 1.27443428 0.00190459 0.00000000
2.70595693 1.15206860 0.00357453 0.00000000
3.75240777 1.23531307 -0.00179105 0.00000000
1.88706184 1.78840092 -0.00172671 0.00000000
2.54026103 0.33886424 0.00183042 0.00000000
2.88604774 1.02852902 -0.00362724 0.00000000
2.42564893 1.22540400 -0.00033847 0.00000000
0.17146786 1.18221623 -0.00141291 0.00000000
0.36492600 0.90397645 0.00386293 0.00000000
4.10295246 0.80849264 0.00398573 0.00000000
4.49633328 1.11738421 -0.00289818 0.00000000
2.09465444 0.12826314 0.00154520 0.00000000
0.92665564 0.81711988 -0.00386826 0.00000000
1.47919543 0.57365626 -0.00280765 0.00000000
1.12869902 0.80710141 -0.00276981 0.00000000
0.56782964 0.90006523 -0.00009870 0.00000000
1.35592507 1.14746164 0.00153607 0.00000000
4.07207215 1.27826336 -0.00313502 0.00000000
2.91050933 1.13334665 -0.00348206 0.00000000
0.92577175 0.64690782 -0.00333312 0.00000000
1.65801775 0.43501797 0.00112950 0.00000000
2.63952771 1.66007497 0.00277417 0.00000000
0.80812593 0.14940092 -0.00145579 0.00000000
0.62889593 0.93426762 0.00049951 0.00000000
0.16112006 1.57239235 -0.00213985 0.00000000
1.84982851 0.51244562 -0.00001157 0.00000000
3.11692987 0.19349682 0.00106425 0.00000000
0.81761818 0.96702227 -0.00218931 0.00000000
4.47585394 0.67013364 0.00089374 0.00000000
4.25422025 1.11966483 0.00024712 0.00000000
2.07853725 1.76425066 0.00207104 0.00000000
2.31142999 0.68168673 -0.00501589 0.00000000
2.96160941 1.49898383 -0.00239427 0.00000000
0.26201858 1.71228091 0.00195003 0.00000000
0.23738708 0.61185128 -0.00125205 0.00000000
3.56422974 0.44822667 -0.00522863 0.00000000
2.18482684 0.06684489 -0.00168629 0.00000000
3.64166237 0.42212708 -0.00111235 0.00000000
0.52487279 0.61254616 -0.00122561 0.00000000
1.56446923 1.45563150 0.00120422 0.00000000
3.16039174 0.19806770 -0.00076139 0.00000000
0.15196936 1.62846189 -0.00007100 0.00000000
2.03807734 0.35532217 0.00235852 0.00000000
1.82468547 0.87611272 -0.00186731 0.00000000
0.77521134 1.18630277 0.00025039 0.00000000
0.92577606 0.17523254 -0.00380703 0.00000000
1.01695193 1.37040005 0.00193549 0.00000000
0.35466364 1.69079169 0.00255810 0.00000000
3.76726438 1.09043299 -0.00326338 0.00000000
4.20216218 1.12797544 -0.00011107 0.00000000
0.24884197 0.41270691 -0.00071697 0.00000000
1.57501851 1.31124581 0.00302704 0.00000000
1.08251316 1.19686828 -0.00198658 0.00000000
0.50899833 0.00670647 -0.00110233 0.00000000
0.16200494 0.36789113 -0.00162356 0.00000000
0.33148735 0.47997906 -0.00564031 0.00000000
2.55217314 1.78978548 -0.00227571 0.00000000
4.20473680 0.36340974 -0.00117180 0.00000000
3.81079146 1.52224657 -0.00228952 0.00000000
3.08090658 0.16061054 -0.00171586 0.00000000
3.62557182 1.74223954 0.00083846 0.00000000
0.97069310 1.24055484 -0.00230054 0.00000000
3.33702300 0.11753790 -0.00092418 0.00000000
3.19141246 0.03614640 0.00391161 0.00000000
2.10141353 0.64388770 -0.00051977 0.00000000
1.95854186 1.56812859 -0.00089883 0.00000000
2.46135353 0.54148597 -0.00672947 0.00000000
3.33987204 0.55834135 0.00353766 0.00000000
1.85688351 0.10292556 -0.00376724 0.00000000
0.97370922 1.59425644 -0.00099756 0.00000000
0.13457709 1.50813146 0.00198168 0.00000000
2.71959669 0.54831878 -0.00273493 0.00000000
4.26327746 0.46535680 0.00274364 0.00000000
1.44407119 1.14134127 0.00231626 0.00000000
4.36245973 0.28749862 -0.00050621 0.00000000
3.73870354 1.53904430 0.00445304 0.00000000
4.27829782 1.60536735 0.00095529 0.00000000
1.11167590 1.79762511 -0.00002690 0.00000000
3.75661708 0.67032426 0.00267319 0.00000000
3.08689714 0.22410041 0.00066648 0.00000000
0.53518518 1.35825381 0.00060331 0.00000000
4.16579550 1.24939514 -0.00106015 0.00000000
2.91845324 0.99287943 -0.00128507 0.00000000
0.61954512 0.04481804 0.00125386 0.00000000
4.27301409 0.11057990 0.00277265 0.00000000
3.77220511 1.58694055 0.00200215 0.00000000
2.94490332 1.25738238 -0.00032275 0.00000000
3.59215049 0.65529449 0.00075131 0.00000000
2.43032761 0.88578097 -0.00044784 0.00000000
3.06557951 1.61905005 -0.00078562 0.00000000
0.77895949 1.34534857 0.00044206 0.00000000
4.26257276 0.36359379 0.00215637 0.00000000
4.37101442 1.34086626 -0.00004563 0.00000000
4.52084032 0.84525422 -0.00020646 0.00000000
1.41783023 0.19242878 -0.00146043 0.00000000
2.36805057 1.72910821 0.00022058 0.00000000
2.96690043 0.79248690 0.00038306 0.00000000
1.61664328 0.54642616 -0.00163610 0.00000000
0.32862768 0.23235987 -0.00070387 0.00000000
3.67139495 0.46142900 0.00322245 0.00000000
3.30552665 0.51847466 -0.00078981 0.00000000
3.53643307 1.76191179 -0.00194039 0.00000000
3.99664251 0.57452292 0.00124289 0.00000000
3.95536584 0.33025662 0.00564733 0.00000000
0.07967816 1.04620242 0.00196971 0.00000000
4.24536724 0.49557997 0.00186472 0.00000000
0.68468087 0.90499850 0.00106659 0.00000000
3.09396482 0.93440122 -0.00352153 0.00000000
0.54502117 0.21134863 -0.00063964 0.00000000
1.75890044 0.14742151 -0.00249579 0.00000000
2.76916969 1.19672986 -0.00248896 0.00000000
1.76961509 1.61969733 0.00276257 0.00000000
0.02906363 1.73309828 -0.00313052 0.00000000
4.17306659 1.04307731 0.00221059 0.00000000
1.77085358 0.54596910 0.00436501 0.00000000
4.00602363 0.50735676 0.00349158 0.00000000
3.27565786 0.75190982 -0.00048263 0.00000000
2.50534797 1.43084159 -0.00112758 0.00000000
3.56049959 0.97566310 -0.00112774 0.00000000
0.57808376 1.32004023 0.00057995 0.00000000
2.57568306 0.56584335 -0.00015445 0.00000000
1.49888004 0.33212017 0.00099703 0.00000000
3.51851880 0.08839048 0.00380093 0.00000000
1.95479903 0.62691679 0.00224762 0.00000000
4.34469190 0.26800665 0.00484158 0.00000000
3.94487678 0.81304104 -0.00260972 0.00000000
3.34531979 0.60842580 -0.00138970 0.00000000
1.36605151 0.51604701 0.00050479 0.00000000
2.56995413 1.04995530 0.00221238 0.00000000
1.57582851 1.27760882 0.00274074 0.00000000
3.43041512 0.74012651 -0.00155906 0.00000000
0.98762435 0.97650710 -0.00172092 0.00000000
3.12251551 1.36448141 -0.00198558 0.00000000
1.79905921 0.88412948 0.00150703 0.00000000
3.56757403 0.80355459 0.00027301 0.00000000
0.91713371 1.26458988 0.00134469 0.00000000
0.45200195 0.36857225 -0.00051159 0.00000000
2.45571770 1.16066783 0.00088827 0.00000000
0.15352937 1.75506737 0.00297728 0.00000000
3.66111967 0.73329059 0.00504356 0.00000000
3.51025446 1.71988443 0.00054747 0.00000000
3.63026874 1.23748803 0.00194286 0.00000000
1.51591795 0.55345768 -0.00340795 0.00000000
1.09183962 0.13055161 0.00306254 0.00000000
2.83091111 1.38259793 -0.00365090 0.00000000
2.39056767 0.33813200 0.00188894 0.00000000
3.71845676 0.37054133 0.00195709 0.00000000
2.83732269 0.95514232 -0.00024942 0.00000000
0.38640382 0.34237932 0.00431041 0.00000000
0.58395465 0.11681503 0.00207644 0.00000000
4.50883967 0.05020818 0.00257195 0.00000000
2.77835902 1.79987930 -0.00106551 0.00000000
0.00365113 1.34648108 -0.00036682 0.00000000
2.13647661 0.43544821 -0.00019042 0.00000000
0.10189519 0.12726311 0.00127515 0.00000000
1.95474863 0.31457803 -0.00029200 0.00000000
3.41774074 1.56926679 0.00207369 0.00000000
0.34025463 0.40229048 0.00152054 0.00000000
3.99549427 1.00102617 -0.00320157 0.00000000
2.35295649 0.46630053 0.00076210 0.00000000
3.27476959 0.00158585 0.00340362 0.00000000
4.03518673 0.77624086 0.00181819 0.00000000
3.62101033 1.16250997 0.00099421 0.00000000
2.67747341 1.08310781 -0.00147021 0.00000000
4.47881281 0.64512485 -0.00495025 0.00000000
2.38056844 0.51912119 0.00165236 0.00000000
0.03211775 1.41960108 0.00144717 0.00000000
2.05903361 1.08445768 -0.00523239 0.00000000
2.59262071 0.06508175 -0.00178094 0.00000000
1.58347867 1.06814132 -0.00415657 0.00000000
2.95554772 1.54769074 -0.00250440 0.00000000
2.37923641 1.10739879 0.00296692 0.00000000
3.78766190 0.14511469 -0.00093023 0.00000000
2.35332678 0.07308484 0.00070863 0.00000000
2.99532999 1.21006945 0.00548620 0.00000000
1.66806459 1.60483408 -0.00154516 0.00000000
1.06730489 1.29339412 -0.00154622 0.00000000
0.44354749 0.15517866 0.00174180 0.00000000
2.61449469 1.40180721 -0.00176429 0.00000000
3.81232397 1.61713128 -0.00137210 0.00000000
0.38341920 0.06558638 -0.00472760 0.00000000
2.97208182 1.58815473 0.00186530 0.00000000
0.28054287 0.83245449 0.00061959 0.00000000
3.63065201 0.19557083 0.00114297 0.00000000
3.50716630 1.70057790 0.00251018 0.00000000
0.70948407 0.14180694 0.00118595 0.00000000
0.98435054 0.54004067 -0.00135007 0.00000000
0.26484739 1.77523994 -0.00375213 0.00000000
0.60455029 1.41813193 -0.00191204 0.00000000
0.10253401 0.76227829 0.00134871 0.00000000
2.37192345 1.80140218 0.00058905 0.00000000
3.79165442 0.85667802 -0.00057734 0.00000000
0.07852156 0.01458431 0.00048200 0.00000000
0.73645362 1.69448764 -0.00103489 0.00000000
2.99988891 0.21224724 -0.00088445 0.00000000
3.21264641 0.57436532 -0.00168287 0.00000000
3.43004698 1.57229752 0.00106228 0.00000000
0.77742314 1.20490470 -0.00372223 0.00000000
0.41288281 0.82828057 0.00129858 0.00000000
1.38538842 0.99116139 -0.00178697 0.00000000
0.33765338 1.50071427 0.00093306 0.00000000
0.53020543 1.16711868 0.00247360 0.00000000
1.02377683 1.19112396 0.00092030 0.00000000
1.04369576 1.00816887 -0.00011562 0.00000000
0.60894522 1.12375696 0.00295619 0.00000000
2.92476863 1.38286771 0.00099829 0.00000000
2.26466274 1.25035402 0.00147610 0.00000000
1.90403976 0.13035927 0.00032253 0.00000000
1.97403738 0.68052117 -0.00345129 0.00000000
1.12077781 0.48150916 0.00115355 0.00000000
0.27217825 1.77293533 -0.00279804 0.00000000
2.93305087 0.18700827 0.00128358 0.00000000
4.35258406 0.02138506 -0.00104500 0.00000000
1.01165935 0.52575795 0.00393764 0.00000000
2.92207376 1.25290109 -0.00165839 0.00000000
0.48392511 1.74980966 0.00122484 0.00000000
0.31397203 0.35831008 -0.00377714 0.00000000
2.05113154 1.74430201 0.00149808 0.00000000
4.32956197 0.48743209 -0.00190414 0.00000000
4.45207291 0.34078465 -0.00063740 0.00000000
3.46078637 0.12714216 0.00327214 0.00000000
2.71133746 1.28371430 -0.00084179 0.00000000
0.51230810 0.26352732 -0.00135741 0.00000000
4.04008233 1.20391078 0.00306109 0.00000000
3.60231061 0.14288081 0.00022004 0.00000000
0.78930739 1.21263379 0.00055813 0.00000000
1.22687692 0.36448842 0.00307932 0.00000000
2.30185446 1.32578321 -0.00042966 0.00000000
0.51152554 1.39808455 0.00115138 0.00000000
4.43121802 1.70535344 0.00139560 0.00000000
1.57334011 1.54517393 0.00109119 0.00000000
1.43540271 1.46678455 -0.00082394 0.00000000
3.29225415 1.15245668 0.00424602 0.00000000
0.20549312 0.43229398 0.00005432 0.00000000
0.82601131 1.69182453 0.00030645 0.00000000
0.61316395 1.37986265 0.00238070 0.00000000
0.54877545 0.78458793 -0.00137804 0.00000000
0.55161573 0.69099361 0.00174661 0.00000000
4.31054594 1.65682070 -0.00502544 0.00000000
0.84024155 0.40779356 -0.00130104 0.00000000
4.01462873 1.63494152 -0.00067836 0.00000000
0.61773795 0.66685138 -0.00135615 0.00000000
4.22028195 0.73862876 0.00266801 0.00000000
0.50509281 1.72200978 0.00558464 0.00000000
2.30010965 0.73034420 -0.00025107 0.00000000
4.53930911 1.72042631 -0.00207213 0.00000000
2.94099385 0.90446418 0.00277659 0.00000000
2.73169616 1.26045587 -0.00143728 0.00000000
4.23001689 0.77975273 0.00010850 0.00000000
2.50228968 0.82353978 0.00040466 0.00000000
1.24241746 0.72044732 0.00216137 0.00000000
3.87244501 0.69582086 0.00097631 0.00000000
1.32823219 1.55358307 -0.00564228 0.00000000
4.49050309 0.12864057 0.00005947 0.00000000
3.16821473 0.19063759 -0.00068553 0.00000000
0.70052422 1.49684067 0.00407532 0.00000000
1.19944093 0.03504220 -0.00324765 0.00000000
2.10232742 0.88337885 -0.00194731 0.00000000
3.20255502 1.05648439 0.00393958 0.00000000
2.21141297 1.16142827 -0.00032779 0.00000000
4.03242213 1.29898983 0.00138307 0.00000000
4.12098415 0.31562385 -0.00131358 0.00000000
2.99897935 0.09159105 0.00152951 0.00000000
1.64610971 0.61593525 0.00021028 0.00000000
0.96306905 1.31806370 -0.00870384 0.00000000
2.61934978 0.99114107 -0.00074493 0.00000000
1.23755536 1.19212302 -0.00048960 0.00000000
3.60386772 0.76466880 0.00033053 0.00000000
1.44291947 1.02221199 0.00015519 0.00000000
3.02955654 1.21197906 0.00223259 0.00000000
2.78905245 0.83754871 -0.00036834 0.00000000
0.52001888 0.42541287 -0.00087309 0.00000000
0.85880674 0.00626636 0.00066186 0.00000000
1.32678828 0.75703538 0.00120804 0.00000000
2.47225152 0.81564988 -0.00157198 0.00000000
1.32588477 1.48335723 -0.00125873 0.00000000
1.99674177 1.38619366 -0.00146530 0.00000000
3.65533808 1.05519862 -0.00039965 0.00000000
1.32270976 1.19949379 -0.00091090 0.00000000
0.11163686 1.17390957 0.00157414 0.00000000
0.30471918 1.50015634 -0.00555216 0.00000000
2.95215913 0.63994051 -0.00259056 0.00000000
0.82029611 0.77354512 0.00180614 0.00000000
3.42912264 1.11537944 0.00106197 0.00000000
0.25719983 1.70364865 0.00174543 0.00000000
1.61028434 0.22608694 -0.00214725 0.00000000
1.19900053 0.78950507 -0.00327179 0.00000000
3.01237981 0.90684280 -0.00137906 0.00000000
0.25706497 1.78993915 -0.00216175 0.00000000
2.66715660 1.71353322 0.00262866 0.00000000
3.73253567 1.13413582 -0.00313852 0.00000000
4.38831150 0.34773897 0.00190892 0.00000000
1.30605700 0.16979390 -0.00272560 0.00000000
3.59732874 0.66433589 0.00084875 0.00000000
0.12988843 1.11238793 -0.00335184 0.00000000
3.42319204 1.04129377 0.00031353 0.00000000
1.59365201 0.95487579 0.00162383 0.00000000
3.96128503 0.39634469 0.00307295 0.00000000
2.08542729 1.71999398 -0.00688106 0.00000000
2.31220684 1.50117967 -0.00141233 0.00000000
1.13233742 0.19644704 -0.00190627 0.00000000
0.38207676 1.00621527 0.00115510 0.00000000
2.21569470 1.03698343 -0.00343072 0.00000000
4.47141829 0.07429405 0.00149224 0.00000000
0.57720932 0.71202316 0.00512267 0.00000000
1.17206168 0.81696106 0.00111114 0.00000000
3.84877966 0.10884962 0.00005320 0.00000000
1.51348426 0.54292329 -0.00165997 0.00000000
3.74255436 1.67258934 0.00348124 0.00000000
4.40510135 0.60161949 -0.00209814 0.00000000
2.08132634 0.07496064 0.00219674 0.00000000
3.49744091 1.14369246 -0.00102851 0.00000000
1.26347205 0.25705863 -0.00308166 0.00000000
1.70470972 0.41699305 0.00140766 0.00000000
2.69258213 1.08901327 -0.00058423 0.00000000
4.00073055 1.77000533 0.00100639 0.00000000
1.97771373 0.75785478 0.00133836 0.00000000
0.76842174 1.23054087 -0.00006944 0.00000000
3.03343853 0.18843453 -0.00113735 0.00000000
4.32523808 0.23757525 0.00118104 0.00000000
3.57435040 1.26026942 -0.00253858 0.00000000
2.97718272 0.00373077 0.00050117 0.00000000
2.36964928 0.30444898 0.00087362 0.00000000
3.16914076 0.96663355 -0.00335446 0.00000000
4.05525920 0.98806782 0.00189660 0.00000000
1.67358410 0.00753345 -0.00232873 0.00000000
1.61160912 0.11211481 0.00276052 0.00000000
4.24005888 0.48087709 0.00148167 0.00000000
2.20347631 0.26752324 0.00403653 0.00000000
1.96593230 0.19447812 -0.00186033 0.00000000
0.70971083 0.64017649 -0.00111635 0.00000000
2.76584471 1.52803184 0.00399580 0.00000000
3.63920437 0.28655395 0.00032362 0.00000000
2.01971976 0.88696710 0.00602590 0.00000000
0.14854339 1.43036979 -0.00233298 0.00000000
3.52343320 1.48257640 0.00044779 0.00000000
0.55313495 0.03686316 -0.00257905 0.00000000
1.33350313 1.53342461 0.00109967 0.00000000
3.50392345 1.08162269 0.00204738 0.00000000
2.22776812 0.43883950 -0.00141741 0.00000000
3.48372643 1.06606654 -0.00104814 0.00000000
1.15490061 0.54354614 0.00081543 0.00000000
3.73425015 0.13309757 -0.00423556 0.00000000
0.29198558 0.66676251 0.00045424 0.00000000
0.96539572 1.27448662 0.00185161 0.00000000
3.64839928 1.46920831 -0.00369149 0.00000000
1.82401239 1.17896578 -0.00044924 0.00000000
3.17274756 0.82682134 -0.00252862 0.00000000
0.74835705 0.17730159 -0.00053269 0.00000000
3.74903197 1.41875311 0.00464977 0.00000000
0.98948365 0.28865248 -0.00169585 0.00000000
3.30301943 0.61558191 -0.00550816 0.00000000
1.11438307 1.50990226 0.00395811 0.00000000
3.26689102 1.62930410 0.00333757 0.00000000
3.48716746 0.25795301 -0.00226097 0.00000000
3.23652697 1.36531271 0.00130728 0.00000000
1.22446176 1.38305600 0.00366806 0.00000000
1.27738254 1.31952876 -0.00052439 0.00000000
0.48465438 1.41111911 0.00010682 0.00000000
4.05535878 0.81699476 0.00376964 0.00000000
0.32459762 0.36877507 -0.00165549 0.00000000
1.49356132 0.79354294 0.00273339 0.00000000
3.88884060 1.38702716 0.00105911 0.00000000
2.92911574 1.46892050 -0.00083066 0.00000000
2.92333325 1.75596355 0.00205808 0.00000000
0.12365425 0.90309536 0.00140420 0.00000000
3.10429115 0.87632143 0.00251415 0.00000000
1.08718211 0.87768856 0.00502283 0.00000000
4.42609700 1.71124788 -0.00109746 0.00000000
2.69050238 1.38820389 0.00264547 0.00000000
2.35513678 0.33958480 -0.00172608 0.00000000
4.48452113 1.56602502 -0.00162490 0.00000000
4.52502922 0.18306150 0.00166238 0.00000000
4.22067441 1.51816266 0.00227776 0.00000000
3.22664127 1.31020268 0.00225455 0.00000000
3.70806331 0.82580788 0.00126806 0.00000000
1.79472942 0.03438573 -0.00431581 0.00000000
0.64440073 1.37997455 0.00282781 0.00000000
1.18181504 1.60682792 0.00006824 0.00000000
1.25350008 1.45938187 -0.00110683 0.00000000
0.69054812 1.15094811 0.00203721 0.00000000
0.20274046 1.68252670 -0.00258948 0.00000000
3.32953531 1.21688178 -0.00165644 0.00000000
4.50148413 1.65795967 0.00562570 0.00000000
1.00571368 0.76658632 -0.00295841 0.00000000
0.82972068 1.29258025 0.00272408 0.00000000
1.18408589 1.72973532 0.00066230 0.00000000
1.93891053 1.37350433 -0.00019040 0.00000000
3.93125570 1.09240230 0.00197266 0.00000000
4.54651971 1.47886848 0.00215645 0.00000000
1.87702051 1.20313113 0.00228557 0.00000000
0.17024220 0.40173668 0.00066554 0.00000000
2.86617574 0.03858669 0.00029858 0.00000000
0.89194240 0.03236082 0.00095207 0.00000000
1.16250183 0.20339179 0.00387963 0.00000000
0.86127325 1.36677996 0.00107027 0.00000000
0.92145973 0.00600858 0.00080164 0.00000000
3.30500002 0.86944883 0.00011179 0.00000000
1.92143135 0.07913690 0.00102152 0.00000000
3.33452047 1.00213428 -0.00032838 0.00000000
2.74834166 0.28834754 -0.00008819 0.00000000
3.24479369 0.34760722 0.00257538 0.00000000
0.63061774 0.15463415 -0.00041479 0.00000000
1.63747312 0.56233134 0.00170226 0.00000000
2.14151709 0.72515338 -0.00232334 0.00000000
4.46399219 1.16173154 0.00002510 0.00000000
3.94372860 1.33635928 0.00111163 0.00000000
3.57652855 1.44760808 0.00117122 0.00000000
3.46763855 0.74586439 -0.00216694 0.00000000
0.40339548 1.45226048 0.00149197 0.00000000
2.65959830 0.63640018 -0.00060126 0.00000000
2.39720259 0.01546957 0.00287603 0.00000000
1.17626932 1.18456338 0.00000520 0.00000000
4.31554876 1.65734804 0.00059166 0.00000000
1.66525797 1.79107171 0.00319573 0.00000000
0.72301139 1.71385193 0.00003114 0.00000000
3.97017810 1.32119073 0.00330764 0.00000000
1.50568696 1.17478474 -0.00102251 0.00000000
1.35902992 0.38433214 -0.00034277 0.00000000
1.28673496 0.11589480 -0.00427113 0.00000000
4.48136708 1.57815982 0.00032795 0.00000000
4.27197379 1.07210053 -0.00109788 0.00000000
3.86418205 1.33334995 0.00196611 0.00000000
2.52169514 0.67621578 -0.00216302 0.00000000
3.21881439 1.34706374 -0.00010836 0.00000000
4.35089745 1.74989711 -0.00107424 0.00000000
2.69403827 0.49542965 0.00037378 0.00000000
1.17002513 1.62600752 -0.00007598 0.00000000
0.53773312 1.34298102 -0.00617652 0.00000000
1.34197842 0.36952396 -0.00411688 0.00000000
4.47620478 0.75887516 -0.00307298 0.00000000
1.14376964 0.84069515 -0.00037692 0.00000000
2.13085453 0.31306719 -0.00130303 0.00000000
0.26356844 0.16032235 -0.00506308 0.00000000
3.95388045 0.89464716 0.00066089 0.00000000
1.50999599 1.59293800 0.00060856 0.00000000
3.66540274 0.93511777 0.00040659 0.00000000
2.07107796 1.64112973 0.00093574 0.00000000
1.38158444 0.00042070 0.00142106 0.00000000
1.31725241 0.32088141 0.00219236 0.00000000
2.21007390 0.65760294 0.00230144 0.00000000
3.62351787 0.68406889 -0.00267919 0.00000000
1.25591889 0.69074207 -0.00099563 0.00000000
1.11722683 0.39380312 -0.00018566 0.00000000
0.21360648 1.20719496 0.00104550 0.00000000
0.55268954 1.56925435 -0.00093155 0.00000000
3.00256315 0.86490400 0.00238309 0.00000000
2.18298908 0.26631987 0.00045782 0.00000000
2.13203769 1.72417652 -0.00349400 0.00000000
4.17225039 1.79681749 -0.00024239 0.00000000
3.18442385 0.97088156 0.00225643 0.00000000
1.12021939 0.02323591 -0.00116806 0.00000000
3.03940507 0.19180771 0.00268460 0.00000000
0.67122601 1.30442830 -0.00242447 0.00000000
0.05503312 1.27330374 -0.00199171 0.00000000
3.01289215 0.19094047 -0.00376692 0.00000000
4.50233598 1.19242652 0.00304314 0.00000000
0.40305956 0.34105451 0.00001374 0.00000000
1.76550361 0.57403655 -0.00296950 0.00000000
1.48761571 0.26379333 0.00445587 0.00000000
3.09549860 1.12608207 0.00142638 0.00000000
3.57048310 1.03730615 -0.00193031 0.00000000
1.36041549 1.07567256 0.00046018 0.00000000
4.39527131 0.21800776 -0.00457285 0.00000000
0.49896481 0.44012570 -0.00347501 0.00000000
0.06921231 0.45985065 -0.00115950 0.00000000
0.54314234 0.02386692 0.00179560 0.00000000
4.03494963 1.31473769 0.00006183 0.00000000
2.75413946 1.74990179 0.00084979 0.00000000
1.84344205 0.04652926 -0.00219726 0.00000000
1.87082448 1.05079845 -0.00264036 0.00000000
3.45628615 0.99605544 0.00705727 0.00000000
1.05689125 0.78362114 0.00006421 0.00000000
4.50371140 0.81337646 -0.00048803 0.00000000
1.27897593 1.45153368 -0.00210534 0.00000000
1.82197939 0.38089982 0.00535113 0.00000000
3.06829620 1.65094377 -0.00095775 0.00000000
0.08067387 0.78174486 0.00207976 0.00000000
4.10740214 1.40980843 0.00210465 0.00000000
2.52557872 0.72021380 0.00055670 0.00000000
3.51700279 0.02856031 0.00166879 0.00000000
3.32135178 0.21284877 -0.00041487 0.00000000
1.31797351 0.27280226 -0.00035273 0.00000000
1.34014720 0.73379188 -0.00461197 0.00000000
4.10332812 1.03990535 0.00045984 0.00000000
0.91343024 1.54197100 -0.00090185 0.00000000
4.01314681 1.38391605 0.00246214 0.00000000
2.59089966 0.78734139 0.00242200 0.00000000
4.12118606 0.08638590 0.00069679 0.00000000
2.08492884 0.48980079 0.00259460 0.00000000
2.95526847 0.05576972 -0.00051251 0.00000000
3.94615014 1.52708265 0.00165275 0.00000000
4.40041025 0.12023305 0.00124304 0.00000000
4.15012868 1.76567426 0.00537469 0.00000000
0.22250038 0.66194642 -0.00028150 0.00000000
2.90966432 0.58542378 -0.00010444 0.00000000
1.43183136 1.11639694 -0.00002196 0.00000000
0.22468461 0.45719323 -0.00281339 0.00000000
2.71533481 0.03755373 -0.00831649 0.00000000
1.49199054 1.38520675 0.00174187 0.00000000
2.39695075 1.25497426 0.00074686 0.00000000
2.05366044 0.36220385 0.00255869 0.00000000
1.35938825 0.98313184 0.00257224 0.00000000
2.54305519 1.72612369 -0.00282653 0.00000000
1.55219871 0.88379648 -0.00184568 0.00000000
0.41445948 0.10842255 -0.00131005 0.00000000
0.41043797 0.98071917 -0.00243840 0.00000000
3.98359188 0.77362617 0.00288588 0.00000000
1.55845862 1.17103732 -0.00158020 0.00000000
1.75546365 0.91439109 0.00606835 0.00000000
4.49349346 1.71258180 -0.00113121 0.00000000
0.89063065 1.79892346 -0.00114377 0.00000000
3.29278551 0.20217533 -0.00215028 0.00000000
2.76846559 1.48859046 0.00370324 0.00000000
4.47185914 1.24725164 0.00074201 0.00000000
1.42035364 0.12915641 -0.00015324 0.00000000
0.75546532 0.09141208 0.00373628 0.00000000
3.34976156 1.52685960 0.00238685 0.00000000
2.91687081 1.35825916 0.00205384 0.00000000
1.29502500 0.79020308 -0.00310022 0.00000000
3.13771839 1.63355366 0.00083571 0.00000000
0.27300818 0.11567001 -0.00001271 0.00000000
0.94791141 0.73289517 -0.00277452 0.00000000
2.86081872 1.13416127 0.00118143 0.00000000
0.43079705 0.41198647 -0.00234748 0.00000000
3.37868927 1.54962453 0.00012627 0.00000000
1.68128077 1.26495549 0.00025779 0.00000000
3.54414976 0.26725010 0.00095183 0.00000000
1.91222134 0.20441227 0.00229482 0.00000000
0.63504715 1.76517223 -0.00257631 0.00000000
1.29327612 0.43060309 -0.00031585 0.00000000
1.66437576 1.75160684 -0.00027339 0.00000000
2.92647910 0.04284303 -0.00245789 0.00000000
0.46908391 0.52794397 -0.00049393 0.00000000
0.10021202 0.77687730 0.00131548 0.00000000
0.57784063 0.96975755 -0.00329829 0.00000000
3.57318449 0.33829153 -0.00097020 0.00000000
0.53299550 1.10034542 0.00083855 0.00000000
0.54432225 1.43175448 -0.00287364 0.00000000
2.26057113 1.38480866 0.00483033 0.00000000
0.56262614 0.51257674 -0.00102460 0.00000000
0.75947511 1.32330821 0.00257529 0.00000000
3.60648945 0.64649773 0.00101212 0.00000000
2.71687691 0.44930865 0.00125396 0.00000000
1.71579460 1.21047095 -0.00324036 0.00000000
2.95325716 0.63542505 -0.00033470 0.00000000
4.45699049 1.00294501 -0.00079432 0.00000000
1.68529825 1.61520625 -0.00142304 0.00000000
1.38698269 0.40834661 0.00401867 0.00000000
0.17656203 1.37821369 -0.00015805 0.00000000
1.98378449 0.78234852 0.00109695 0.00000000
3.72064943 1.17488776 0.00092152 0.00000000
2.00449580 0.36090194 -0.00136281 0.00000000
2.82553796 0.70590286 0.00059608 0.00000000
0.19722903 1.71904609 -0.00187419 0.00000000
2.05698355 0.13523214 0.00438840 0.00000000
2.06804408 1.36964432 -0.00393658 0.00000000
4.15169941 1.33567817 -0.00223191 0.00000000
3.46530432 0.90252901 0.00044793 0.00000000
2.78670947 0.79939112 0.00157095 0.00000000
1.53831694 1.25845368 0.00092919 0.00000000
1.13672956 0.92649659 -0.00680194 0.00000000
4.46991356 0.99988365 -0.00496653 0.00000000
0.30350416 1.34683746 -0.00427441 0.00000000
0.64466742 1.48818683 0.00209622 0.00000000
1.87607603 1.02489123 -0.00055168 0.00000000
0.99882357 0.79428089 -0.00037640 0.00000000
2.95960013 0.14922191 0.00070054 0.00000000
4.51395983 0.81117659 0.00190198 0.00000000
2.79174298 0.71521670 0.00470766 0.00000000
1.35134070 1.21970158 -0.00213985 0.00000000
0.23551297 0.37062671 -0.00074402 0.00000000
0.61466333 1.69540621 0.00177051 0.00000000
3.65721410 0.89203591 -0.00534588 0.00000000
0.81209269 1.06688720 -0.00132094 0.00000000
3.37182594 0.33993391 -0.00073622 0.00000000
1.01158713 0.71289991 -0.00088377 0.00000000
3.77889118 1.68826877 0.00224061 0.00000000
0.37120392 1.66801383 -0.00274309 0.00000000
0.69202628 0.10363903 0.00451996 0.00000000
1.76785937 1.29424533 0.00070058 0.00000000
2.23655028 0.42326696 -0.00167637 0.00000000
2.67097522 0.30786927 0.00204646 0.00000000
0.88620744 0.04617948 0.00208889 0.00000000
2.09792066 0.40514686 0.00095931 0.00000000
3.91658031 1.15981475 -0.00689084 0.00000000
2.42178513 0.89524254 -0.00169534 0.00000000
1.73548774 0.52777183 0.00243174 0.00000000
1.75809381 1.04050309 -0.00287747 0.00000000
1.46153078 1.15991914 -0.00219967 0.00000000
2.38725509 0.36715841 -0.00032895 0.00000000
2.51549546 1.65218844 0.00323805 0.00000000
0.82481796 0.69379710 -0.00005353 0.00000000
0.09088846 1.17857037 0.00136050 0.00000000
1.00367587 1.64463605 0.00071158 0.00000000
2.17141672 0.89799732 0.00190213 0.00000000
4.26477451 1.66632654 0.00200767 0.00000000
1.52894574 0.67218270 0.00006520 0.00000000
1.27452725 0.10255924 -0.00324029 0.00000000
2.52034470 0.00486384 -0.00388647 0.00000000
0.79232507 0.97020133 -0.00167899 0.00000000
4.43382158 0.08584302 0.00056656 0.00000000
2.22454291 0.74562469 -0.00274804 0.00000000
0.10609303 0.48841409 -0.00399387 0.00000000
2.90659616 1.55401577 -0.00043252 0.00000000
0.41115035 1.80687010 -0.00045313 0.00000000
1.06012207 1.49438552 -0.00190116 0.00000000
4.11535709 1.54575162 -0.00202674 0.00000000
0.59746802 1.23563362 -0.00252423 0.00000000
2.98593476 1.11238078 -0.00241512 0.00000000
1.29185878 1.35148757 -0.00205204 0.00000000
2.91636570 1.57836094 -0.00227514 0.00000000
1.55535816 1.11976816 0.00327445 0.00000000
2.16204268 0.65835084 0.00625593 0.00000000
0.73175888 0.11507358 0.00122313 0.00000000
0.36993908 1.57431713 -0.00273708 0.00000000
1.74914438 1.30911308 0.00044403 0.00000000
4.19966783 1.00893986 0.00459689 0.00000000
0.30864504 0.24652004 0.00018354 0.00000000
0.72256383 0.92853511 0.00443990 0.00000000
1.66029748 1.69281599 -0.00066411 0.00000000
4.42871530 0.84031407 0.00006917 0.00000000
4.01755909 0.23093159 0.00105852 0.00000000
0.72537262 0.37764952 -0.00237050 0.00000000
2.38859357 1.79216709 -0.00708973 0.00000000
3.39285546 1.14732193 0.00397691 0.00000000
1.03163344 1.74837947 0.00376260 0.00000000
3.98677218 1.41435191 -0.00108079 0.00000000
1.07420031 0.49608191 0.00193315 0.00000000
4.09526044 0.47965592 0.00205326 0.00000000
0.04448972 1.42032527 -0.00194781 0.00000000
2.39403368 0.11454228 -0.00289597 0.00000000
1.58258351 0.80145159 0.00065371 0.00000000
3.86985271 1.80306598 0.00351220 0.00000000
2.77676696 0.05875957 -0.00302172 0.00000000
4.13413339 0.52158864 0.00213228 0.00000000
1.53902134 0.60388946 -0.00353152 0.00000000
1.16951162 0.64648773 -0.00027034 0.00000000
4.13581243 0.68231089 -0.00374326 0.00000000
0.67847562 1.41065554 0.00022205 0.00000000
3.12450566 1.49658356 0.00198117 0.00000000
1.93046145 0.65662899 -0.00261207 0.00000000
0.34727185 0.85301909 -0.00069822 0.00000000
2.43467997 1.59200972 0.00076760 0.00000000
3.34503068 1.70701467 0.00082780 0.00000000
2.40825428 1.50646678 -0.00406719 0.00000000
2.12074474 1.46218781 -0.00161680 0.00000000
4.38471024 1.09082767 0.00396357 0.00000000
0.81861449 0.84669111 0.00028866 0.00000000
3.55282505 1.08465467 0.00128504 0.00000000
3.56912483 0.15323215 -0.00128717 0.00000000
4.11570778 0.96023585 -0.00252535 0.00000000
1.03293418 0.23154660 -0.00029072 0.00000000
0.57457520 0.00066178 -0.00260382 0.00000000
1.34760705 0.22509087 -0.00327410 0.00000000
0.80300785 1.10349775 0.00449114 0.00000000
0.93434983 1.20611262 0.00463458 0.00000000
3.56308629 1.07720565 0.00008931 0.00000000
0.40618386 0.29619939 -0.00390703 0.00000000
3.91516132 1.35069190 0.00430587 0.00000000
0.88047351 1.76879434 -0.00234014 0.00000000
0.68838457 1.34922264 0.00751076 0.00000000
3.19091067 0.26273384 0.00335731 0.00000000
0.52556393 0.10394465 -0.00058169 0.00000000
4.01161648 0.04877891 0.00125681 0.00000000
3.14400082 0.37649945 0.00152914 0.00000000
0.33689536 0.83176171 -0.00239024 0.00000000
1.60702807 0.98991163 -0.00417956 0.00000000
0.66133271 0.78186654 -0.00256379 0.00000000
1.05573587 1.10172628 -0.00066095 0.00000000
0.87373859 1.42030940 0.00145988 0.00000000
3.45033744 1.25968689 0.00363235 0.00000000
0.65464214 0.17586385 0.00153610 0.00000000
4.36423263 1.79396770 -0.00071541 0.00000000
0.34350936 0.64566790 0.00192966 0.00000000
1.83255167 0.53408986 0.00339329 0.00000000
3.17432985 0.40037977 -0.00148382 0.00000000
0.49076993 0.37362786 0.00172875 0.00000000
3.43677495 0.49548114 0.00313736 0.00000000
0.95648269 0.41223466 -0.00023098 0.00000000
0.86383575 0.40057078 0.00401437 0.00000000
1.83935264 0.55364442 0.00036358 0.00000000
0.19852715 0.80759143 -0.00283008 0.00000000
3.56720513 0.04349539 0.00655179 0.00000000
3.61595551 0.11108202 -0.00167412 0.00000000
0.86189679 0.50168343 0.00138336 0.00000000
0.44080375 1.09978496 -0.00324760 0.00000000
3.22238710 0.02891955 0.00102994 0.00000000
2.51868878 1.34926379 -0.00060828 0.00000000
0.52478938 0.16693573 -0.00009752 0.00000000
1.09464833 0.45560007 -0.00244071 0.00000000
4.41998213 1.00088146 -0.00168139 0.00000000
3.66450637 1.75456172 -0.00331500 0.00000000
3.02893197 1.10645133 -0.00516035 0.00000000
3.40451699 0.03290549 0.00552795 0.00000000
1.42675932 1.62700535 -0.00035277 0.00000000
4.31517484 0.11114025 -0.00190288 0.00000000
3.47038863 1.30157154 -0.00072204 0.00000000
0.41217520 1.34162350 0.00133145 0.00000000
1.81504216 0.81552647 0.00365889 0.00000000
0.28306656 0.70487146 -0.00097671 0.00000000
1.34014701 1.32225029 -0.00205553 0.00000000
1.18007142 0.57736026 -0.00180443 0.00000000
3.19340694 0.51988620 0.00661498 0.00000000
2.79208099 1.78335341 0.00014197 0.00000000
1.25285863 0.66913480 0.00096880 0.00000000
0.33288972 0.16666128 0.00059287 0.00000000
2.30287611 1.66294169 0.00060455 0.00000000
2.22826881 0.15874757 -0.00229999 0.00000000
4.06284127 1.21939823 -0.00175134 0.00000000
0.56525365 0.81326231 0.00217566 0.00000000
4.42245328 1.10939533 0.00269434 0.00000000
0.63093094 1.55902501 -0.00111080 0.00000000
0.52141504 0.53001364 -0.00019273 0.00000000
2.95860120 0.63279559 0.00001880 0.00000000
1.21656021 1.70303839 -0.00199006 0.00000000
2.40833986 1.47804396 0.00518766 0.00000000
1.08968384 0.48133844 -0.00273889 0.00000000
4.22127101 1.26840174 -0.00090316 0.00000000
1.54845563 1.50368811 -0.00449771 0.00000000
2.95644529 0.98323919 0.00307000 0.00000000
4.48945085 1.12675845 0.00116835 0.00000000
0.77476024 0.09341297 0.00197108 0.00000000
0.11109234 0.58255447 0.00145627 0.00000000
2.32657966 0.06841827 0.00166912 0.00000000
4.32132112 0.41641948 -0.00027429 0.00000000
2.00219604 0.93249937 0.00116107 0.00000000
1.99307883 0.29579562 0.00104907 0.00000000
2.35465941 0.22952870 0.00252489 0.00000000
2.03518274 0.42376958 -0.00096951 0.00000000
4.50427495 1.59286541 0.00063478 0.00000000
0.22527168 1.09335240 0.00320291 0.00000000
2.85552258 0.96434915 0.00160976 0.00000000
3.89127847 0.49351707 0.00163727 0.00000000
2.36077722 0.21242172 -0.00203332 0.00000000
1.10355891 0.03071179 0.00476369 0.00000000
0.32484678 0.66640624 0.00484585 0.00000000
0.83065131 0.06278611 -0.00089821 0.00000000
3.42282409 1.78104310 -0.00146367 0.00000000
2.98673121 0.43430445 0.00041194 0.00000000
1.69011259 1.36833152 0.00208194 0.00000000
2.37660907 0.01258206 0.00228527 0.00000000
1.19394046 1.41119150 -0.00269424 0.00000000
3.90858286 1.73278234 0.00080029 0.00000000
0.15186070 0.09097114 0.00171597 0.00000000
1.92963432 0.86557934 -0.00124842 0.00000000
1.25925347 1.56503905 0.00223248 0.00000000
0.46259770 1.29688117 0.00074129 0.00000000
1.30873766 0.49907943 0.00214252 0.00000000
1.09043951 0.68419509 -0.00132940 0.00000000
3.55395105 0.84789060 0.00239528 0.00000000
0.88539358 1.09356861 -0.00284872 0.00000000
2.38624837 0.08102626 -0.00273758 0.00000000
3.89053978 1.52691960 0.00049176 0.00000000
4.20569930 0.23993149 0.00128879 0.00000000
0.97037059 1.59595473 0.00145830 0.00000000
2.48835948 1.40378225 -0.00150794 0.00000000
1.55792974 0.73753547 0.00023924 0.00000000
2.47398174 0.83761649 0.00187627 0.00000000
4.31115516 0.00134977 -0.00065538 1.00000000
0.56757979 -0.00163271 0.00197317 1.00000000
2.45015255 0.00178651 -0.00004176 1.00000000
4.13336394 0.00350665 0.00083504 1.00000000
0.06073274 -0.00299596 0.00137930 1.00000000
4.11153126 -0.00269812 0.00072847 1.00000000
3.11176452 0.00197970 -0.00478326 1.00000000
3.12299156 0.00153531 0.00147212 1.00000000
4.42620749 -0.00102468 -0.00312158 1.00000000
1.35229024 -0.00051533 0.00272744 1.00000000
4.33343970 0.00365652 -0.00447130 1.00000000
2.03638911 0.00174821 -0.00193529 1.00000000
3.37330316 -0.00136574 -0.00086100 1.00000000
0.06565037 0.00393886 0.00380881 1.00000000
1.00464089 0.00168431 0.00411339 1.00000000
3.22995767 -0.00621053 -0.00161812 1.00000000
1.71733999 0.00101272 -0.00314769 1.00000000
0.76075965 0.00043240 0.00054515 1.00000000
4.00601397 -0.00103114 0.00228211 1.00000000
1.78519293 -0.00151219 -0.00186188 1.00000000
4.18096981 0.00118767 0.00287714 1.00000000
2.05360465 -0.00087435 -0.00527226 1.00000000
1.72549653 -0.00265051 -0.00255968 1.00000000
2.44664521 0.00178083 -0.00132312 1.00000000
2.71803300 -0.00366612 0.00552915 1.00000000
2.77584642 0.00001478 0.00209342 1.00000000
0.25329892 0.00002104 -0.00487227 1.00000000
1.95803736 -0.00233272 -0.00118153 1.00000000
4.28380895 0.00089549 0.00215812 1.00000000
3.31794970 -0.00263548 -0.00298911 1.00000000
4.51572789 0.00388895 -0.00201390 1.00000000
4.36833788 0.00219774 -0.00160471 1.00000000
2.41225376 -0.00056575 0.00062616 1.00000000
1.45265133 -0.00744235 -0.00192240 1.00000000
4.24296519 0.00172298 0.00244621 1.00000000
4.50353611 -0.00192581 0.00197220 1.00000000
3.83677702 0.00055955 -0.00229395 1.00000000
4.52402208 -0.00237894 0.00049584 1.00000000
1.51845547 0.00307152 0.00028909 1.00000000
2.95928170 -0.00015627 0.00266629 1.00000000
3.74571538 0.00263682 -0.00071506 1.00000000
2.23007024 -0.00286879 0.00063230 1.00000000
2.49869252 -0.00173165 -0.00131445 1.00000000
2.81765815 -0.00046778 -0.00226658 1.00000000
2.59224537 -0.00289314 -0.00562792 1.00000000
1.40795394 0.00413926 -0.00137777 1.00000000
1.12886380 0.00193514 0.00053121 1.00000000
4.31703958 0.00272517 0.00323810 1.00000000
2.72540938 -0.00001860 0.00043731 1.00000000
1.02919481 0.00423212 0.00062070 1.00000000
1.11895355 0.00054259 0.00087830 1.00000000
0.93789539 0.00476060 0.00194654 1.00000000
2.71483984 -0.00089405 -0.00043859 1.00000000
0.69710136 0.00554240 -0.00014885 1.00000000
2.58999041 -0.00022653 -0.00173115 1.00000000
3.78543493 -0.00344355 0.00084072 1.00000000
1.79777192 0.00050541 0.00150422 1.00000000
2.93225376 0.00109959 -0.00165433 1.00000000
0.13374498 -0.00375649 -0.00143053 1.00000000
0.19712611 0.00224069 -0.00096492 1.00000000
4.11800726 -0.00391145 -0.00157144 1.00000000
1.06834444 -0.00104218 -0.00072432 1.00000000
0.87749391 0.00087860 0.00215802 1.00000000
0.04640777 0.00174620 0.00653225 1.00000000
3.02411802 0.00232335 0.00120974 1.00000000
2.62441291 0.00106211 -0.00456164 1.00000000
4.33460027 -0.00367936 0.00111697 1.00000000
3.39595765 -0.00322309 -0.00358752 1.00000000
1.28653255 0.00057885 0.00375667 1.00000000
1.66556627 -0.00432128 0.00372408 1.00000000
2.17568591 -0.00664071 -0.00274678 1.00000000
0.57649399 -0.00478258 -0.00001233 1.00000000
2.37387491 0.00259754 -0.00319674 1.00000000
3.80912871 0.00091965 -0.00145617 1.00000000
3.35404812 0.00175305 0.00098635 1.00000000
1.24225561 -0.00264117 0.00150529 1.00000000
0.45705492 0.00072778 0.00060434 1.00000000
1.08330771 -0.00199402 0.00387782 1.00000000
1.75488065 -0.00014851 0.00229454 1.00000000
2.92591692 0.00405340 0.00232012 1.00000000
0.85710982 0.00131180 0.00169887 1.00000000
2.42618782 0.00193622 0.00360986 1.00000000
2.12646178 -0.00102977 0.00775770 1.00000000
4.25120748 -0.00134759 -0.00332229 1.00000000
4.07949181 -0.00545229 0.00002290 1.00000000
1.35689098 -0.00006864 0.00311723 1.00000000
3.57130196 -0.00031121 -0.00259009 1.00000000
1.80304168 0.00172999 0.00504562 1.00000000
1.69729247 -0.00157847 0.00237583 1.00000000
1.41344423 0.00007374 -0.00653952 1.00000000
2.86630494 -0.00164365 0.00378538 1.00000000
1.95690595 -0.00017727 -0.00285776 1.00000000
4.20722003 -0.00197300 0.00176532 1.00000000
4.45217802 0.00405496 0.00106540 1.00000000
1.28366376 -0.00051558 0.00243508 1.00000000
1.61844311 -0.00362646 -0.00522778 1.00000000
1.64401208 0.00089508 -0.00186003 1.00000000
2.15450518 -0.00220764 0.00378687 1.00000000
2.78179354 -0.00181986 -0.00083465 1.00000000
4.10751117 0.00101977 0.00006990 1.00000000
1.17274085 0.00057841 -0.00035945 1.00000000
4.22018414 0.00436890 -0.00126296 1.00000000
1.15273447 -0.00063337 -0.00197357 1.00000000
3.37666024 -0.00099095 -0.00199217 1.00000000
4.47514050 -0.00016093 -0.00016322 1.00000000
3.70722947 0.00015354 -0.00415102 1.00000000
0.14141505 -0.00195728 -0.00537452 1.00000000
1.34594283 -0.00076025 -0.00181763 1.00000000
4.51933142 -0.00181122 0.00082768 1.00000000
0.19478825 -0.00272958 0.00285566 1.00000000
0.67317953 0.00062921 0.00092758 1.00000000
1.75320218 -0.00103883 -0.00296211 1.00000000
1.96921429 0.00037962 -0.00072918 1.00000000
3.02726064 0.00061864 0.00339718 1.00000000
1.74435422 0.00056971 0.00192472 1.00000000
4.11029012 -0.00172001 -0.00037992 1.00000000
0.63411841 0.00086724 0.00449062 1.00000000
4.49209554 -0.00001724 0.00452746 1.00000000
1.66153299 0.00123851 -0.00318995 1.00000000
1.93912740 -0.00085182 -0.00058545 1.00000000
3.36999587 0.00051563 0.00098281 1.00000000
0.16648115 0.00233171 -0.00414499 1.00000000
2.99757059 0.00197558 0.00051677 1.00000000
2.26211054 0.00014007 -0.00064517 1.00000000
2.72510496 0.00060546 0.00221305 1.00000000
1.62898824 0.00186471 -0.00226644 1.00000000
3.63129448 0.00254628 -0.00335272 1.00000000
2.18347547 0.00364506 -0.00270250 1.00000000
4.23034201 -0.00353811 -0.00077308 1.00000000
1.81079965 0.00092067 -0.00442519 1.00000000
1.49831935 -0.00075877 -0.00405534 1.00000000
3.82074125 -0.00011939 -0.00170902 1.00000000
2.21960438 -0.00434903 0.00152370 1.00000000
2.36592540 0.00240371 0.00182191 1.00000000
0.70604303 0.00224864 -0.00445114 1.00000000
0.39736476 0.00071447 -0.00364340 1.00000000
1.39104578 -0.00138283 0.00023451 1.00000000
4.28580640 0.00069776 0.00028496 1.00000000
2.13639037 -0.00182348 0.00279836 1.00000000
3.38935886 0.00106592 0.00113406 1.00000000
4.24010734 -0.00494660 0.00192295 1.00000000
1.01580487 0.00064654 -0.00112467 1.00000000
3.16393725 0.00080495 0.00207588 1.00000000
1.27438286 0.00001828 -0.00122053 1.00000000
1.21579022 0.00192880 0.00094361 1.00000000
0.76598631 0.00131826 -0.00115217 1.00000000
2.94410040 -0.00268054 -0.00699800 1.00000000
3.22476734 -0.00087450 0.00258758 1.00000000
0.93946490 0.00066600 0.00337085 1.00000000
2.06144311 -0.00441882 0.00076015 1.00000000
4.20918172 -0.00113783 -0.00062310 1.00000000
4.00808092 -0.00007199 0.00264600 1.00000000
2.42092587 0.00221199 0.00309839 1.00000000
0.75819511 0.00257309 0.00136970 1.00000000
1.27758506 -0.00069231 -0.00047830 1.00000000
1.59637381 0.00082034 -0.00205343 1.00000000
2.50943293 0.00306026 -0.00073675 1.00000000
2.67481903 -0.00149946 0.00154663 1.00000000
1.92905194 0.00256358 -0.00251735 1.00000000
0.14318690 -0.00253043 0.00102826 1.00000000
2.52236840 -0.00297361 -0.00174985 1.00000000
4.41313636 0.00165518 0.00150472 1.00000000
2.85747434 -0.00482805 -0.00000034 1.00000000
4.39218484 0.00570512 0.00244451 1.00000000
4.20852946 -0.00159347 0.00100579 1.00000000
4.48443495 -0.00153249 0.00161730 1.00000000
4.36166055 0.00214118 -0.00018422 1.00000000
3.88321204 -0.00116861 -0.00116285 1.00000000
0.75375074 0.00394426 -0.00162962 1.00000000
1.51435505 0.00010132 -0.00170102 1.00000000
0.68427977 -0.00343065 -0.00166586 1.00000000
2.75986727 -0.00151508 -0.00059296 1.00000000
2.69058752 0.00099639 -0.00155559 1.00000000
0.33891257 -0.00625501 0.00209662 1.00000000
3.56238997 -0.00341757 -0.00390349 1.00000000
1.12941830 0.00195253 -0.00247713 1.00000000
0.54301790 0.00039627 -0.00180313 1.00000000
2.17364379 0.00407989 0.00341026 1.00000000
1.97660377 -0.00028067 -0.00384856 1.00000000
0.76577168 0.00284983 0.00035583 1.00000000
0.10945905 0.00190127 -0.00313392 1.00000000
1.27927118 0.00077304 0.00084685 1.00000000
1.46623736 0.00190819 0.00047508 1.00000000
1.79062103 0.00103309 0.00038189 1.00000000
3.86950257 -0.00629538 0.00373313 1.00000000
1.75460070 -0.00129825 0.00013713 1.00000000
0.99264381 -0.00329229 -0.05919024 0.00000000
3.08446316 0.00224018 -0.07313042 0.00000000
0.20751008 0.00227237 -0.04259995 0.00000000
2.95659199 0.00161876 -0.01792947 0.00000000
