1.342959 0.376417 0.000954 0.0
0.136343 0.452269 -0.000310 0.0
3.526715 1.398399 0.003464 0.0
2.613541 0.682997 -0.001001 0.0
2.407521 0.979964 0.000468 0.0
1.725187 0.604148 -0.004171 0.0
2.203250 0.303121 -0.000480 0.0
2.438139 0.881330 0.001761 0.0
1.767111 0.423158 -0.003432 0.0
3.129484 0.124338 -0.004455 0.0
3.569348 0.441885 0.000789 0.0
2.480559 1.667866 -0.000637 0.0
0.063501 1.548296 0.002012 0.0
3.667134 0.211881 0.004683 0.0
3.970293 0.103017 0.002051 0.0
1.180837 1.053703 -0.000446 0.0
3.893430 0.860445 -0.004245 0.0
0.000624 0.536165 -0.000446 0.0
1.147064 0.463655 -0.001244 0.0
2.781750 1.539844 -0.001252 0.0
0.076575 0.784220 -0.000410 0.0
2.660578 0.816419 0.001014 0.0
2.454275 1.601077 0.002244 0.0
3.867043 1.318336 -0.001570 0.0
2.435994 1.379693 -0.000256 0.0
2.589322 1.231842 0.000826 0.0
3.045323 1.041557 0.000146 0.0
1.028677 0.376756 -0.002289 0.0
3.497451 0.020511 0.000682 0.0
3.767169 0.366547 -0.001218 0.0
0.730500 0.301617 0.000116 0.0
2.417319 0.784308 0.002485 0.0
1.238535 0.673267 0.000892 0.0
3.871710 1.036439 -0.001960 0.0
4.216040 0.829544 0.001931 0.0
1.606549 0.445999 0.000537 0.0
1.652040 0.908292 0.003443 0.0
1.173908 0.377326 0.001948 0.0
4.489049 1.043688 0.000695 0.0
1.964637 1.092623 0.002484 0.0
1.428262 1.023635 0.000315 0.0
1.104517 1.176843 -0.003336 0.0
2.919334 0.342460 -0.001050 0.0
2.345406 0.643600 -0.006121 0.0
1.613381 0.193640 0.001075 0.0
2.062299 0.184768 -0.006824 0.0
1.735263 1.345072 -0.003547 0.0
1.927341 0.395655 -0.001583 0.0
0.455914 0.200558 0.003428 0.0
4.370652 1.363195 -0.001061 0.0
3.755513 0.816046 0.001796 0.0
2.621778 1.465037 0.001801 0.0
1.968891 0.297029 0.002733 0.0
2.745353 0.070273 0.003153 0.0
2.514713 0.546194 0.004139 0.0
3.117415 0.373542 0.000383 0.0
2.236262 1.644885 0.001087 0.0
1.880464 1.285925 0.001879 0.0
2.765254 0.456810 0.000992 0.0
1.614872 1.570733 0.006264 0.0
2.083284 0.161684 -0.001503 0.0
0.186887 1.629539 -0.001747 0.0
0.711101 0.350755 0.001453 0.0
2.433944 0.603416 -0.001068 0.0
1.330793 1.576078 -0.004488 0.0
0.582135 1.216953 -0.004143 0.0
3.946950 1.545377 0.000741 0.0
0.007111 1.415681 -0.001857 0.0
4.351791 0.150646 -0.001904 0.0
0.127484 0.954023 -0.000493 0.0
3.633714 0.244893 0.000056 0.0
4.213295 0.211073 0.000877 0.0
1.856886 0.193625 -0.002626 0.0
2.414178 0.647061 0.000577 0.0
2.875628 1.464505 0.001242 0.0
1.800278 1.549024 0.000731 0.0
2.886576 0.493927 0.002220 0.0
3.767492 0.723823 -0.000552 0.0
1.715918 1.440131 -0.000271 0.0
3.212923 0.255784 0.002529 0.0
3.947017 1.160372 0.001166 0.0
0.481203 1.562441 -0.002432 0.0
0.759394 0.346003 -0.002103 0.0
4.334694 0.123496 -0.001464 0.0
2.083635 1.047191 0.000341 0.0
2.650195 0.546584 0.000225 0.0
1.556358 1.095049 0.001729 0.0
2.065723 0.111225 0.002207 0.0
1.641149 1.136795 -0.003020 0.0
3.503978 0.841296 -0.000310 0.0
4.486955 1.303842 0.001791 0.0
3.995362 0.572552 0.000585 0.0
2.282233 0.948008 -0.000101 0.0
1.550817 0.670359 0.004921 0.0
1.156879 0.409835 -0.004958 0.0
2.024890 1.146702 -0.000872 0.0
1.535912 1.038074 0.001280 0.0
0.449065 0.957808 0.001026 0.0
3.160358 1.012908 0.003517 0.0
3.617591 0.460146 0.002137 0.0
4.180363 0.172955 -0.003223 0.0
1.697397 0.845364 -0.001250 0.0
1.436143 1.394967 0.002084 0.0
1.386052 1.643078 0.002335 0.0
1.742323 1.327065 0.001547 0.0
1.776429 0.764730 0.004006 0.0
2.310250 1.406874 0.000633 0.0
2.650599 0.368475 -0.000202 0.0
4.116923 0.325859 -0.001025 0.0
1.349850 0.037531 0.002121 0.0
1.059301 1.338142 -0.003895 0.0
1.299860 1.580479 0.000281 0.0
0.137876 0.288728 -0.001491 0.0
3.178660 0.084744 -0.001289 0.0
3.509063 1.442486 -0.001032 0.0
0.140802 0.832560 -0.003715 0.0
0.764924 0.985562 0.000057 0.0
0.450493 1.548011 0.002715 0.0
1.427370 1.003522 -0.003584 0.0
1.204023 1.279889 0.000992 0.0
1.291727 0.976561 -0.001198 0.0
1.929339 0.756839 -0.000162 0.0
4.308562 0.612765 -0.000027 0.0
2.257651 0.173318 0.002290 0.0
4.122227 1.605631 -0.003421 0.0
0.421300 0.920631 0.000853 0.0
3.921374 0.577002 0.001556 0.0
4.729801 1.297583 -0.000436 0.0
1.827411 0.049706 0.000773 0.0
3.334596 1.201127 0.002915 0.0
1.326020 1.440059 0.001099 0.0
2.509700 0.748649 0.002336 0.0
0.666411 0.185703 -0.002341 0.0
3.573206 0.850126 -0.002154 0.0
1.651665 0.732165 -0.002871 0.0
4.311058 0.751052 -0.001762 0.0
0.527338 0.683016 -0.005192 0.0
2.232894 1.200417 0.001495 0.0
3.874864 1.592212 -0.002426 0.0
2.421265 1.079113 -0.003527 0.0
2.799428 1.025892 -0.000162 0.0
1.307406 0.652176 -0.002895 0.0
3.507495 0.335830 -0.001051 0.0
2.876549 1.177461 0.000993 0.0
0.615189 1.388016 0.001115 0.0
3.535594 0.001406 -0.002345 0.0
0.281561 1.526321 -0.001750 0.0
4.505270 1.488353 0.002417 0.0
3.877225 0.205766 -0.002127 0.0
4.747495 1.007169 -0.000514 0.0
4.366691 1.316765 -0.002240 0.0
0.799629 1.301960 0.007166 0.0
1.342381 1.457279 0.004115 0.0
2.019151 1.195527 -0.000772 0.0
4.289251 1.253326 0.003130 0.0
2.057936 0.741937 -0.005513 0.0
4.693859 0.714914 0.003245 0.0
0.747701 1.354064 0.005685 0.0
2.724639 0.686556 0.002241 0.0
3.285104 1.446687 -0.000015 0.0
3.331264 0.248610 0.003902 0.0
4.717070 1.406889 -0.000760 0.0
4.197366 1.430691 -0.002334 0.0
3.122159 0.543440 -0.001266 0.0
0.480829 1.262458 -0.002767 0.0
3.026893 0.039196 -0.004614 0.0
2.314562 0.615538 0.000067 0.0
1.233115 0.393540 -0.000049 0.0
3.811628 1.527370 -0.000151 0.0
2.722012 1.388536 0.001092 0.0
3.914913 0.252892 0.001749 0.0
4.754166 1.659788 -0.000335 0.0
0.543060 0.051182 0.004667 0.0
4.319213 0.906763 0.000819 0.0
3.096471 0.565511 0.001632 0.0
0.368947 1.225935 0.000714 0.0
3.439813 1.222078 -0.000624 0.0
2.581260 0.332429 0.002436 0.0
0.415177 0.439998 -0.000972 0.0
1.327624 1.556482 0.001260 0.0
3.646181 1.430097 0.000442 0.0
2.343022 0.484599 0.001025 0.0
4.776618 1.389562 -0.003458 0.0
2.024812 1.150525 0.002821 0.0
0.109560 1.176847 -0.000042 0.0
1.677102 0.536302 -0.003000 0.0
2.283433 1.470390 0.002082 0.0
4.050008 1.409323 0.000452 0.0
2.718405 0.278888 -0.000817 0.0
2.031550 1.024120 -0.000068 0.0
1.783153 0.114842 -0.000634 0.0
3.621144 0.877091 0.002978 0.0
1.346531 0.408536 -0.002040 0.0
3.904447 0.273100 0.003747 0.0
3.463527 0.514766 0.001580 0.0
2.557041 0.842212 -0.005277 0.0
3.313955 1.418676 0.003252 0.0
2.384538 1.521019 0.001520 0.0
4.768030 0.881241 -0.001230 0.0
3.179968 0.552282 0.001921 0.0
3.065357 0.669279 0.000787 0.0
0.050787 1.086584 -0.002011 0.0
0.665354 0.800981 -0.001323 0.0
1.475192 0.590010 -0.001655 0.0
2.293647 1.093737 0.001538 0.0
1.753317 1.519017 0.002911 0.0
1.542198 0.570877 0.001034 0.0
2.705323 1.468565 0.002928 0.0
0.202301 1.567104 0.000291 0.0
0.869708 1.036091 -0.000810 0.0
0.170597 0.870241 -0.002960 0.0
0.225535 1.458806 -0.001507 0.0
4.443714 1.367779 -0.008361 0.0
3.261295 0.878649 -0.001091 0.0
1.877949 1.173065 -0.001072 0.0
4.266634 0.651007 -0.001331 0.0
1.581228 0.546102 0.000064 0.0
0.491664 1.581537 -0.000421 0.0
0.105057 0.390808 -0.001569 0.0
0.239252 1.108270 -0.001332 0.0
0.194670 1.435276 0.001434 0.0
4.186224 1.232587 -0.001471 0.0
2.650689 1.589347 0.001023 0.0
3.967915 1.178691 -0.002811 0.0
2.285076 0.602490 -0.002774 0.0
4.617022 0.042832 -0.001260 0.0
3.493950 0.890333 -0.003252 0.0
1.346840 1.362891 -0.000154 0.0
1.715681 0.007304 0.003792 0.0
4.407863 1.090198 -0.005224 0.0
1.092917 0.316800 0.000550 0.0
3.105677 0.193541 0.002076 0.0
1.930893 1.255402 0.000540 0.0
3.131385 0.802898 -0.002729 0.0
0.543890 1.420498 0.002238 0.0
1.482472 1.482786 -0.001593 0.0
3.043159 0.595070 0.001421 0.0
4.423257 0.126593 0.000512 0.0
1.519049 0.005297 -0.001115 0.0
2.751577 0.983653 -0.001519 0.0
3.489978 0.549327 -0.002022 0.0
0.072669 0.160434 0.003238 0.0
3.462873 1.247470 -0.000517 0.0
3.674987 1.641093 0.004672 0.0
1.698890 1.157186 0.000397 0.0
0.635878 1.040706 -0.002488 0.0
1.006170 1.088178 -0.002792 0.0
1.263174 1.278392 0.002200 0.0
1.581954 1.168157 0.001351 0.0
1.288407 0.365939 0.006259 0.0
2.809693 1.504382 0.000183 0.0
3.404161 0.271850 0.000260 0.0
1.105743 1.137379 0.000557 0.0
3.062536 0.232109 -0.000661 0.0
0.024655 0.623755 0.005370 0.0
0.411668 0.874512 -0.001095 0.0
4.098243 0.620430 -0.003224 0.0
2.282934 0.816353 0.001698 0.0
0.663893 0.561546 -0.006515 0.0
2.503225 1.472224 0.002753 0.0
0.731710 0.711369 0.004171 0.0
0.161536 0.096055 -0.003398 0.0
3.518117 0.467619 -0.001592 0.0
1.478976 1.410120 -0.002283 0.0
1.217369 1.303237 0.001394 0.0
0.404813 0.299525 -0.001150 0.0
3.482301 0.234526 0.002880 0.0
1.279826 0.817762 -0.000509 0.0
0.741619 0.784375 0.001933 0.0
2.330517 1.508687 0.001506 0.0
0.923024 1.603768 -0.001115 0.0
3.960566 0.472342 -0.001029 0.0
2.263433 0.569170 -0.002364 0.0
2.332709 1.247492 0.000092 0.0
2.124960 0.916010 -0.000181 0.0
0.517110 0.294316 0.001974 0.0
3.182180 0.928576 0.000808 0.0
0.728683 1.394972 -0.002088 0.0
1.203095 0.300889 0.001403 0.0
3.701797 1.545478 0.001422 0.0
3.492203 0.537784 0.001516 0.0
1.634106 1.580323 0.002465 0.0
3.889969 0.062165 -0.000852 0.0
2.859569 0.180291 -0.000006 0.0
3.103784 1.348406 0.001742 0.0
2.958011 0.351053 -0.003134 0.0
0.264133 0.539116 -0.003603 0.0
3.296443 0.738359 0.005403 0.0
0.385039 0.050632 -0.001775 0.0
0.249833 0.071929 -0.000261 0.0
3.794588 1.217411 -0.000223 0.0
4.546347 1.518478 -0.002319 0.0
4.538503 1.511364 -0.001589 0.0
3.208950 1.454660 -0.000839 0.0
1.708577 0.389391 -0.000994 0.0
2.187144 0.298353 -0.000184 0.0
0.125344 0.509463 0.000424 0.0
3.452638 1.302779 -0.000402 0.0
1.844414 1.037511 0.002172 0.0
4.617632 1.421602 -0.002502 0.0
4.130430 1.103680 -0.002300 0.0
0.292767 0.293273 0.001589 0.0
1.929612 0.735892 -0.001821 0.0
1.056130 0.545272 -0.002020 0.0
0.681444 1.234545 0.001105 0.0
2.074857 1.588448 -0.006930 0.0
3.935700 0.997926 0.007423 0.0
1.803830 0.405957 0.004074 0.0
2.049183 0.847235 -0.001563 0.0
4.250851 0.462318 -0.002087 0.0
2.318749 0.467969 -0.001013 0.0
2.240855 0.486787 -0.003512 0.0
4.118971 1.121147 -0.005330 0.0
0.923054 0.828387 -0.000213 0.0
3.569043 0.485359 0.001289 0.0
3.258427 0.129907 0.000325 0.0
3.527217 0.198604 -0.000470 0.0
3.698648 1.025074 -0.001201 0.0
1.828921 0.502469 -0.002774 0.0
1.523902 0.520687 -0.001310 0.0
2.570856 0.762723 0.001134 0.0
4.731336 0.442271 -0.003519 0.0
2.121130 1.481467 -0.003270 0.0
3.670070 0.335151 0.003724 0.0
4.195861 0.802756 -0.002321 0.0
3.822536 1.019010 0.003699 0.0
2.131092 0.111277 -0.001455 0.0
1.116346 1.583801 -0.000380 0.0
2.430723 0.383177 -0.000424 0.0
1.977768 0.968215 0.001969 0.0
4.305252 0.935525 0.000550 0.0
4.384641 0.766014 0.000724 0.0
3.670363 0.996726 0.001738 0.0
0.315282 1.303580 -0.003317 0.0
4.574988 1.650054 0.001952 0.0
0.425794 0.781912 -0.001143 0.0
4.046269 0.394113 -0.001216 0.0
2.728285 0.054103 -0.002050 0.0
4.624591 0.554256 0.002996 0.0
0.470195 1.534293 0.002184 0.0
0.940749 0.632418 -0.002611 0.0
4.175641 0.350071 -0.000967 0.0
2.268987 0.619217 0.001399 0.0
2.353082 0.774126 0.001448 0.0
2.166452 0.326967 -0.003794 0.0
2.645924 1.374389 0.002286 0.0
3.294940 0.727188 -0.001610 0.0
1.783258 1.414165 -0.000230 0.0
4.078858 0.272278 0.002964 0.0
3.296765 1.052389 0.006066 0.0
1.024057 0.816305 0.004036 0.0
0.714160 0.444257 0.002297 0.0
4.600431 1.284916 -0.004134 0.0
0.894433 1.533491 -0.001232 0.0
2.166214 1.515390 0.001803 0.0
4.002175 0.211007 0.001840 0.0
3.316915 1.633609 -0.002395 0.0
1.193461 1.316301 -0.004610 0.0
4.002814 0.357081 0.003671 0.0
4.257268 0.255157 0.004611 0.0
0.862248 1.315454 -0.000084 0.0
0.511692 0.374406 -0.002487 0.0
1.588843 0.317134 -0.001211 0.0
0.685739 1.405567 -0.000200 0.0
4.115116 0.677089 0.001115 0.0
4.181245 1.483961 -0.001326 0.0
0.446923 0.833761 -0.004000 0.0
1.216943 0.018159 0.000389 0.0
0.260412 1.529571 0.000656 0.0
1.061112 0.947640 0.000111 0.0
2.196293 0.520511 0.000721 0.0
0.611407 0.279044 0.001959 0.0
0.665738 0.451264 -0.002620 0.0
4.297375 1.047316 0.003712 0.0
0.869925 1.594817 0.001587 0.0
0.584834 1.150030 -0.001131 0.0
3.320928 0.566841 0.000434 0.0
3.023361 0.669871 -0.003946 0.0
0.919092 0.566930 -0.003085 0.0
3.256346 1.553251 0.002599 0.0
2.386583 1.190164 -0.001429 0.0
1.362445 1.072961 -0.000415 0.0
1.418675 0.906129 0.002736 0.0
3.630069 0.943997 -0.003220 0.0
3.003019 0.129662 0.002057 0.0
0.261240 0.445137 -0.000234 0.0
3.934430 0.940957 -0.001744 0.0
0.391597 0.840524 -0.001865 0.0
0.547915 0.243370 0.002450 0.0
4.653430 1.303054 0.000398 0.0
3.199310 1.308746 0.002348 0.0
2.293985 1.055012 -0.003072 0.0
4.637764 1.160504 0.004621 0.0
3.088646 0.071433 -0.000032 0.0
0.760110 0.477840 -0.000791 0.0
4.634943 0.912399 0.001882 0.0
2.232032 0.022740 0.003621 0.0
2.292377 1.071499 0.000502 0.0
4.224812 0.037395 0.000723 0.0
0.138166 0.142531 0.002157 0.0
1.189530 0.227842 -0.001484 0.0
0.151877 1.566874 0.000012 0.0
2.585739 1.113660 0.001657 0.0
3.289472 1.586585 -0.001197 0.0
1.741020 0.670964 0.002681 0.0
1.815043 0.686916 -0.002960 0.0
0.067114 0.090672 -0.001047 0.0
3.765250 1.364367 -0.002327 0.0
4.598490 1.585686 0.001444 0.0
2.588073 0.053946 0.002630 0.0
0.356000 1.010213 0.002331 0.0
1.568681 1.238430 -0.003432 0.0
3.913561 0.202860 -0.003009 0.0
4.782787 1.037420 -0.005511 0.0
2.227508 1.240390 -0.001240 0.0
3.313634 1.170499 0.000276 0.0
3.936532 1.591091 -0.000944 0.0
4.299041 1.598158 0.000204 0.0
2.166111 0.364929 0.003666 0.0
1.348938 1.148412 0.001855 0.0
4.474784 1.289248 0.003769 0.0
3.123726 1.046968 -0.000371 0.0
4.399425 0.919338 0.001501 0.0
3.544120 0.887600 0.004804 0.0
2.513921 0.416037 -0.002346 0.0
4.659358 0.637739 -0.001244 0.0
1.805978 1.659864 0.000171 0.0
2.551277 0.921712 -0.003516 0.0
3.353197 1.603472 0.001932 0.0
2.705274 0.502724 0.001720 0.0
1.600325 1.115521 -0.002802 0.0
1.292120 0.838601 0.000268 0.0
1.241685 1.501012 0.000986 0.0
2.008782 1.455368 -0.000224 0.0
3.008753 0.490504 -0.003449 0.0
1.597675 0.235891 -0.001071 0.0
0.202076 0.225762 -0.002744 0.0
3.317803 0.570722 -0.000336 0.0
4.407773 0.971774 -0.001244 0.0
3.657973 0.402715 0.003173 0.0
2.423492 1.471664 0.000501 0.0
3.491914 0.828032 0.002839 0.0
0.913070 1.603014 0.000741 0.0
3.316206 1.206889 -0.000372 0.0
0.155833 0.513119 -0.002796 0.0
2.361256 0.086077 -0.001892 0.0
4.181233 0.975298 0.003102 0.0
4.492098 0.847099 0.002092 0.0
3.133539 0.924292 0.003008 0.0
3.414832 0.969415 -0.001409 0.0
4.009071 0.136284 0.001600 0.0
4.291998 0.654659 0.003698 0.0
1.324811 0.067918 -0.001191 0.0
3.476392 1.222126 -0.003484 0.0
0.440649 0.400723 -0.000177 0.0
3.556827 1.032456 0.003772 0.0
3.839814 1.579719 -0.001688 0.0
2.267537 0.712476 -0.002386 0.0
4.495405 0.313237 -0.000889 0.0
2.647481 0.363235 0.004497 0.0
3.965630 0.657804 0.000643 0.0
0.522743 0.769419 0.005097 0.0
1.100758 1.418564 0.001486 0.0
3.929515 0.129373 -0.000996 0.0
3.599560 1.426929 0.000750 0.0
4.357538 0.165805 0.004434 0.0
0.065153 1.622093 -0.002815 0.0
2.641073 1.262789 -0.001164 0.0
2.419043 1.139764 -0.001869 0.0
0.209270 0.581440 -0.007218 0.0
1.305932 0.014465 0.000735 0.0
3.822278 1.139970 -0.003051 0.0
4.512083 1.551507 -0.002246 0.0
0.081941 1.218873 0.000946 0.0
2.200065 0.270764 0.000113 0.0
4.162633 1.606466 0.000582 0.0
3.250522 0.433266 -0.003957 0.0
1.283007 0.240184 -0.000322 0.0
0.705808 1.480192 -0.003291 0.0
0.771733 0.062651 0.005042 0.0
1.498431 0.666905 -0.001278 0.0
0.830492 1.153930 0.001709 0.0
2.647497 0.512578 -0.003691 0.0
0.457755 0.417672 0.003273 0.0
1.663045 0.057159 -0.001702 0.0
2.341984 1.220887 0.001632 0.0
0.297461 0.610293 0.006930 0.0
2.349965 1.634988 -0.001602 0.0
4.199150 0.053471 -0.000601 0.0
4.248058 0.633020 -0.001675 0.0
0.991211 0.468651 -0.000346 0.0
0.826599 1.616694 0.001436 0.0
1.487501 0.810232 0.000748 0.0
1.284336 0.028433 0.002189 0.0
1.045440 0.465899 -0.000300 0.0
0.993768 0.447610 -0.001010 0.0
2.625911 0.266541 -0.003873 0.0
1.098891 1.416175 -0.003039 0.0
1.929701 0.685081 -0.003117 0.0
4.658584 1.096010 0.000489 0.0
0.529924 0.368422 -0.001184 0.0
4.475151 1.477166 0.003093 0.0
4.614316 0.399597 0.002909 0.0
4.467239 0.477444 0.000661 0.0
0.750793 0.727275 -0.002166 0.0
3.928377 0.394875 -0.001356 0.0
3.276169 0.601694 0.001082 0.0
2.999310 1.276123 0.002650 0.0
2.587026 1.462825 -0.001214 0.0
3.024720 0.385056 -0.004205 0.0
3.658158 1.184104 -0.003904 0.0
3.376711 0.475078 0.000582 0.0
1.786359 0.447198 -0.000673 0.0
3.126954 0.842709 0.002245 0.0
1.003679 1.439634 -0.000856 0.0
1.001381 0.833174 0.004877 0.0
2.613582 0.717767 -0.001369 0.0
0.616787 0.902180 0.002053 0.0
3.022845 1.461051 -0.000615 0.0
0.351457 1.093900 -0.003995 0.0
3.458710 1.336453 0.000877 0.0
1.311115 1.312891 -0.004137 0.0
3.865360 0.232055 -0.002170 0.0
4.107002 0.174291 -0.003538 0.0
2.081417 0.404543 -0.005041 0.0
4.574350 1.275255 0.002713 0.0
1.349784 0.310915 -0.000065 0.0
2.814407 0.970815 -0.001188 0.0
4.038123 1.376454 -0.000886 0.0
3.583250 0.189059 0.003871 0.0
0.300528 0.726927 0.002174 0.0
2.013453 1.066911 0.000071 0.0
1.481399 1.663855 -0.000422 0.0
1.822324 1.115459 0.001492 0.0
2.847910 0.360015 0.000908 0.0
4.332942 0.446414 0.001368 0.0
2.937353 0.424923 -0.000439 0.0
2.386400 1.002441 0.002103 0.0
3.939496 0.652664 -0.002049 0.0
0.986544 1.506796 -0.002242 0.0
0.277350 1.626358 0.002494 0.0
2.125535 0.699849 0.003486 0.0
2.700505 0.502963 0.003554 0.0
3.644720 0.617170 -0.004075 0.0
3.704167 0.346873 0.001323 0.0
2.896761 1.058246 -0.000764 0.0
1.360922 1.145707 0.005078 0.0
0.318997 0.283856 0.001024 0.0
2.457390 0.713102 0.000839 0.0
3.658086 0.464963 -0.002347 0.0
0.770128 0.783357 0.000186 0.0
1.757639 1.367777 -0.000955 0.0
0.809747 1.147040 0.001290 0.0
2.204433 1.041598 0.000482 0.0
0.260784 0.520556 0.001429 0.0
4.305657 1.536122 0.002253 0.0
0.977583 0.725948 -0.002748 0.0
2.157442 0.750976 0.001786 0.0
2.844935 0.311685 0.001197 0.0
2.654449 1.172871 0.000791 0.0
2.495396 1.085557 -0.002578 0.0
0.101624 1.454521 -0.000212 0.0
0.187971 0.959196 0.003730 0.0
4.620515 0.122153 0.002699 0.0
0.789455 0.617469 -0.001055 0.0
1.672417 1.361531 -0.001418 0.0
3.606137 0.655339 0.002160 0.0
3.684188 1.536915 0.000472 0.0
0.226008 1.428336 -0.002017 0.0
0.842034 0.525985 -0.004971 0.0
0.622453 0.150442 -0.000324 0.0
3.800530 0.686968 -0.005199 0.0
0.571929 1.152435 0.001944 0.0
4.088996 0.537476 -0.001301 0.0
0.636421 0.724754 0.002933 0.0
1.364649 0.969098 -0.000918 0.0
1.095302 0.875611 -0.001081 0.0
0.804413 0.573320 0.002102 0.0
2.692071 0.229983 0.003333 0.0
4.768078 0.945895 0.001828 0.0
1.493789 0.161336 -0.003514 0.0
4.538386 0.759255 -0.000489 0.0
1.126591 0.175423 -0.002618 0.0
1.640929 1.113832 -0.004180 0.0
3.150724 0.021891 -0.004866 0.0
0.974288 1.361104 0.000697 0.0
3.435316 0.433991 0.002062 0.0
1.368242 0.588679 -0.000236 0.0
4.767472 1.019530 0.000154 0.0
3.882269 0.939400 0.000726 0.0
0.913988 1.528887 0.000974 0.0
4.195946 0.499843 0.000412 0.0
0.475696 1.004402 0.002374 0.0
1.092281 1.147911 0.000465 0.0
2.576871 0.371059 -0.000029 0.0
1.522867 1.073817 0.002135 0.0
4.145722 0.872244 -0.003038 0.0
3.957070 0.426584 0.006378 0.0
0.944854 0.746188 -0.002499 0.0
2.001730 1.416437 -0.002866 0.0
3.999796 1.473575 -0.003173 0.0
4.068044 0.939370 -0.003479 0.0
1.139038 0.166952 0.001553 0.0
2.254585 0.495494 0.001915 0.0
0.095314 1.187396 -0.000974 0.0
2.026025 0.721430 0.003319 0.0
1.579057 0.132189 0.002849 0.0
3.370771 1.182686 -0.004739 0.0
1.858509 1.065179 -0.000337 0.0
4.237744 0.415394 -0.000940 0.0
4.553448 0.649112 -0.002677 0.0
2.028074 0.992052 -0.000772 0.0
2.063661 0.388989 0.004056 0.0
3.444748 0.137197 0.002176 0.0
0.520734 0.815336 0.002196 0.0
1.403831 1.433358 -0.000205 0.0
1.202813 1.003482 0.002107 0.0
3.002637 0.054860 0.000113 0.0
3.278068 0.997170 0.001311 0.0
1.587038 0.378069 -0.003905 0.0
1.699734 0.406512 0.004600 0.0
4.555258 0.095048 -0.001778 0.0
1.595689 1.022262 -0.002951 0.0
0.239316 0.178634 0.005332 0.0
2.482220 0.168396 -0.001291 0.0
3.095384 1.452066 0.003635 0.0
2.198607 0.211250 0.004153 0.0
2.380232 0.153063 0.001277 0.0
4.219013 0.260750 0.002332 0.0
2.949223 1.571674 -0.004303 0.0
1.935215 0.488848 0.000483 0.0
4.419908 1.624356 -0.000105 0.0
1.585676 1.049426 -0.001030 0.0
2.648785 1.614307 0.001459 0.0
2.999722 0.828890 -0.001774 0.0
1.896500 0.787940 0.000446 0.0
4.626268 0.480187 -0.001246 0.0
1.557497 0.189583 -0.001270 0.0
4.201595 1.019710 0.003439 0.0
3.955488 1.230704 -0.000586 0.0
3.697790 0.286302 -0.001494 0.0
2.225708 1.549781 -0.003873 0.0
3.567131 0.351029 0.000319 0.0
4.334264 1.303711 0.001882 0.0
4.724260 0.094347 -0.002738 0.0
3.310898 0.907876 0.001848 0.0
2.538236 1.070548 0.003731 0.0
2.357777 1.567772 -0.002712 0.0
1.654181 0.216388 -0.001958 0.0
4.188119 0.616305 0.003556 0.0
2.101049 0.283402 0.000151 0.0
4.190745 0.023496 0.001245 0.0
1.830736 0.030494 0.000675 0.0
1.319956 0.192855 -0.002076 0.0
4.494106 1.391350 -0.001555 0.0
3.506209 0.768452 -0.001699 0.0
0.754558 1.060199 -0.000581 0.0
4.141481 1.591362 0.002473 0.0
0.259864 0.602189 0.000098 0.0
1.092251 1.563573 -0.000990 0.0
4.382585 0.913061 -0.002091 0.0
0.748441 0.237406 0.000975 0.0
1.954861 1.146597 -0.002871 0.0
1.772430 1.504589 -0.000893 0.0
2.264991 0.120983 -0.004275 0.0
2.622394 1.410235 -0.001964 0.0
0.307334 1.518804 -0.001050 0.0
4.674709 1.228226 -0.001588 0.0
3.602475 1.492267 0.004020 0.0
0.795246 0.894426 0.006244 0.0
4.153563 0.777529 0.000077 0.0
4.162233 1.118081 -0.001784 0.0
3.888777 1.455258 -0.000765 0.0
3.014573 1.252941 -0.000610 0.0
3.486664 1.016624 0.000984 0.0
0.798382 1.326885 0.003646 0.0
0.108647 1.638285 0.000332 0.0
1.057202 0.723299 -0.000941 0.0
1.782796 0.792787 0.000242 0.0
2.757662 1.557366 -0.000778 0.0
4.503900 0.222301 -0.000987 0.0
0.932261 1.148500 -0.000114 0.0
4.669688 0.511079 -0.001269 0.0
1.253770 0.227433 -0.003127 0.0
3.037710 1.389013 -0.002946 0.0
3.031464 0.904027 -0.000060 0.0
2.454063 1.191514 -0.002023 0.0
4.085467 1.235451 -0.004636 0.0
1.584867 0.221120 0.004270 0.0
4.020911 1.362778 -0.001609 0.0
1.397543 1.175830 0.001849 0.0
3.599485 0.453816 -0.002327 0.0
2.081009 0.123326 -0.002043 0.0
2.319202 0.019945 -0.000166 0.0
2.559883 1.178067 -0.004117 0.0
3.900402 1.077761 0.004491 0.0
2.735110 0.607433 0.003286 0.0
3.853338 0.095566 -0.002253 0.0
4.654371 0.351697 0.003892 0.0
2.408917 0.436292 -0.002395 0.0
3.904112 1.597464 -0.001545 0.0
1.546403 1.081856 0.004176 0.0
1.256884 1.461350 -0.000811 0.0
3.802306 0.544961 -0.001433 0.0
2.584557 0.153730 -0.001364 0.0
2.534160 1.285457 -0.000477 0.0
0.780068 0.094869 -0.002242 0.0
1.254657 1.590643 -0.002543 0.0
3.434563 1.231320 -0.000952 0.0
3.975980 0.648586 0.000143 0.0
4.602269 1.502973 0.001139 0.0
2.243623 0.732429 0.002616 0.0
0.879288 0.155801 0.004857 0.0
2.535329 0.852366 0.000507 0.0
0.189202 1.621031 0.004046 0.0
4.543959 1.187782 -0.000550 0.0
4.328641 0.755550 -0.001499 0.0
2.097305 0.968266 0.000040 0.0
4.373358 0.313419 0.003337 0.0
3.929742 1.507554 -0.001434 0.0
2.706536 1.361258 -0.000213 0.0
3.383544 1.479406 -0.003892 0.0
0.857532 1.577109 0.000376 0.0
1.176640 0.848303 -0.001143 0.0
2.243449 0.290404 0.003681 0.0
3.185021 0.051657 -0.002312 0.0
1.901702 1.124733 -0.000536 0.0
0.702901 1.248805 0.000862 0.0
2.574239 0.200780 -0.005055 0.0
3.370364 1.578825 -0.000755 0.0
1.982908 1.411910 0.000941 0.0
3.027164 0.660344 0.001394 0.0
0.542084 0.169371 0.000408 0.0
0.724678 0.147101 0.003181 0.0
0.958837 0.252052 -0.002131 0.0
3.018419 0.219005 0.002252 0.0
0.084005 1.395937 0.000645 0.0
2.231290 0.503738 -0.001154 0.0
1.970667 0.511224 0.004501 0.0
2.032114 1.026214 0.002425 0.0
2.417858 0.371547 0.004559 0.0
3.822116 1.241181 0.001144 0.0
0.198673 0.611560 -0.001774 0.0
0.853629 0.473295 0.000730 0.0
1.559172 0.903248 0.002550 0.0
1.485744 1.268487 -0.000122 0.0
1.545766 1.031006 -0.001620 0.0
1.212601 1.636952 -0.000713 0.0
0.491763 1.527231 0.002614 0.0
1.019282 0.285006 0.001814 0.0
1.966740 1.582708 0.002592 0.0
3.744827 0.718396 0.003581 0.0
3.920954 0.335394 -0.001772 0.0
3.399257 0.319164 0.000916 0.0
0.689940 1.633922 -0.001561 0.0
4.757155 1.061539 -0.000870 0.0
2.421100 0.810580 -0.003858 0.0
4.599504 0.396289 -0.004674 0.0
2.131537 1.239929 -0.000679 0.0
1.128613 0.695881 -0.000872 0.0
3.080609 0.469904 0.001847 0.0
2.960497 0.132986 0.004744 0.0
0.472802 0.837730 -0.002065 0.0
3.899242 0.103374 0.001184 0.0
4.304257 0.091682 -0.000090 0.0
3.891888 1.278587 0.002491 0.0
0.749223 0.860173 -0.000568 0.0
1.540339 0.705150 -0.002189 0.0
3.178398 0.721660 0.000763 0.0
3.097092 1.629651 -0.004858 0.0
2.997616 1.456826 0.001111 0.0
1.646086 0.488046 0.000743 0.0
3.365012 1.266678 -0.000384 0.0
4.002254 0.296819 -0.003012 0.0
0.784871 1.397484 -0.003228 0.0
1.370213 1.565633 0.000776 0.0
3.813927 1.423095 -0.000416 0.0
2.107166 0.373302 0.002411 0.0
4.763097 0.568636 0.005062 0.0
4.473410 1.027509 -0.001440 0.0
4.373893 1.103402 -0.000522 0.0
1.506250 1.132868 -0.001106 0.0
3.782839 1.667326 0.001368 0.0
3.678166 1.033973 -0.001345 0.0
1.577876 1.285607 -0.001640 0.0
4.021370 0.108373 0.001185 0.0
4.286609 0.096507 -0.001059 0.0
0.006957 1.544279 -0.000948 0.0
3.336163 1.533935 -0.002516 0.0
3.936189 0.134418 0.001351 0.0
0.459086 1.606464 0.006505 0.0
1.940741 1.016493 0.004305 0.0
4.510270 0.554636 0.002371 0.0
3.797858 1.138803 -0.000047 0.0
4.274901 1.482584 0.001657 0.0
1.527140 0.484039 -0.001795 0.0
0.397572 1.030479 -0.000624 0.0
3.200624 0.282553 -0.005126 0.0
4.332255 1.121146 -0.001547 0.0
2.879544 0.196445 0.001492 0.0
2.687430 0.504062 0.004725 0.0
4.226858 0.632761 0.002703 0.0
0.685331 0.093548 -0.000498 0.0
0.900496 1.377582 -0.002357 0.0
3.436538 1.376840 -0.000168 0.0
3.565085 1.271847 0.000937 0.0
2.705281 1.130255 0.000518 0.0
2.942232 0.106231 -0.003750 0.0
2.304965 1.200219 0.001528 0.0
2.523178 0.027630 0.001257 0.0
2.469068 0.272959 -0.003671 0.0
0.770186 1.612014 -0.001373 0.0
0.490561 1.245593 0.002849 0.0
0.519015 1.264084 -0.002372 0.0
1.817631 0.894419 0.001267 0.0
1.302472 0.000738 -0.001558 0.0
4.044522 1.084178 -0.001789 0.0
3.897416 1.664357 0.002781 0.0
3.367412 1.201053 -0.005345 0.0
4.601332 1.087473 -0.004356 0.0
4.326976 0.478929 0.001013 0.0
2.446815 0.552916 0.003722 0.0
0.024358 0.623756 -0.001158 0.0
1.479981 0.925284 -0.002781 0.0
4.134894 0.477740 -0.001449 0.0
2.480078 0.218915 -0.002451 0.0
1.865922 0.513154 0.001765 0.0
2.173745 0.741901 0.000655 0.0
4.685522 0.498550 -0.003863 0.0
2.674139 0.299349 -0.001586 0.0
0.956016 0.825171 -0.003757 0.0
2.397076 1.282573 -0.000308 0.0
4.759342 1.177966 0.000016 0.0
4.712623 0.440034 -0.003135 0.0
2.231710 1.267101 -0.001186 0.0
2.967612 0.338836 0.002611 0.0
4.230273 1.590346 0.001521 0.0
0.203262 0.177351 -0.002652 0.0
0.622989 1.579090 -0.002134 0.0
3.096232 1.563714 0.003464 0.0
3.045658 1.358156 0.000166 0.0
1.061780 1.272727 -0.000030 0.0
0.767486 1.182830 -0.002203 0.0
1.109461 1.309757 -0.001092 0.0
3.538484 0.861779 -0.001514 0.0
1.544007 0.171073 -0.000844 0.0
2.128491 1.406376 -0.000145 0.0
3.164461 0.688718 -0.001521 0.0
0.279957 1.569995 -0.004064 0.0
3.709470 1.172041 0.000110 0.0
0.468925 0.245775 -0.000708 0.0
0.419451 0.792714 0.001616 0.0
1.971218 0.262439 0.000109 0.0
2.609714 0.824859 -0.001220 0.0
2.755489 1.158682 0.002255 0.0
1.525538 1.260401 -0.000543 0.0
0.728840 0.966969 0.001267 0.0
1.097315 0.008210 0.002201 0.0
4.467825 0.400683 -0.001605 0.0
0.201936 1.641445 0.006816 0.0
1.893679 1.166058 0.002275 0.0
2.844027 1.560271 0.001913 0.0
0.510366 0.034783 -0.000561 0.0
2.932568 1.059265 -0.001079 0.0
3.802557 1.199582 -0.003669 0.0
3.089997 1.184077 0.001327 0.0
0.379268 1.623503 -0.001354 0.0
2.085834 1.276290 -0.001409 0.0
1.389171 1.054283 -0.000275 0.0
2.549159 1.075143 0.001745 0.0
2.514819 0.316208 0.000443 0.0
1.059284 0.408094 -0.000635 0.0
2.589506 0.357208 -0.001803 0.0
0.190950 0.231849 0.000108 0.0
4.785851 0.282868 0.004271 0.0
2.134035 0.615288 0.001471 0.0
1.167781 0.179103 -0.001401 0.0
3.373193 0.261856 -0.001994 0.0
0.012427 1.056915 -0.000449 0.0
0.825570 1.633856 0.000778 0.0
1.953831 0.808522 0.000646 0.0
4.090668 0.488890 -0.000174 0.0
2.026092 0.757718 -0.000256 0.0
3.256115 0.542601 -0.000788 0.0
0.772879 0.739754 0.003348 0.0
1.607587 0.982590 -0.001509 0.0
3.749591 1.525987 -0.002491 0.0
0.289144 1.069275 0.001714 0.0
1.770134 0.979305 -0.001439 0.0
0.752252 1.169733 -0.001664 0.0
0.065832 0.005995 -0.002764 0.0
2.297281 0.371092 0.002784 0.0
4.755455 0.955001 -0.004452 0.0
0.649574 1.443640 -0.002011 0.0
0.800890 0.014516 0.000115 0.0
1.827185 0.435496 0.000630 0.0
3.149143 0.331063 -0.003982 0.0
0.194734 1.289727 -0.001460 0.0
1.218579 1.502448 0.002632 0.0
1.670437 0.728531 -0.000309 0.0
1.528299 1.092908 -0.003969 0.0
1.550190 1.620321 0.001539 0.0
2.991588 0.033791 0.000485 0.0
3.046432 1.002847 -0.002245 0.0
2.336765 0.972652 0.005715 0.0
0.444959 0.278650 0.004964 0.0
1.572681 0.161439 0.001726 0.0
3.758590 0.437740 0.001548 0.0
0.332809 0.745471 -0.000396 0.0
2.916254 1.284802 0.003478 0.0
3.709503 0.585391 -0.004116 0.0
2.968422 0.480956 -0.000278 0.0
4.261537 1.329315 -0.000529 0.0
0.139826 -0.000500 0.001665 0.0
0.527281 0.492032 0.002472 0.0
0.322788 0.387844 -0.003577 0.0
1.500734 1.653940 0.002556 0.0
3.619227 1.089531 0.000291 0.0
1.192689 0.020628 0.000430 0.0
4.284689 1.589923 0.001619 0.0
0.637481 0.038448 0.001119 0.0
4.759413 0.961808 -0.004596 0.0
2.839911 0.832999 -0.005828 0.0
4.260921 0.974318 0.004826 0.0
0.214624 0.788806 0.002439 0.0
3.927648 0.786104 -0.005304 0.0
3.506590 0.809477 -0.002340 0.0
2.915245 1.008931 -0.002043 0.0
4.233298 1.540119 -0.005257 0.0
4.516591 0.300198 -0.003576 0.0
1.788104 0.817391 0.002895 0.0
1.503022 0.869163 -0.002748 0.0
3.229085 0.629831 0.000191 0.0
1.702174 0.256768 0.003232 0.0
2.614337 0.471679 -0.000631 0.0
4.137644 1.156778 -0.001021 0.0
2.348248 0.151325 0.001704 0.0
0.846600 0.070608 0.004404 0.0
2.206145 1.607216 -0.001280 0.0
1.537723 0.875376 -0.000487 0.0
0.620039 1.508242 -0.003897 0.0
3.130817 1.332983 0.002364 0.0
1.206606 0.763791 -0.001319 0.0
4.578715 0.991228 -0.001184 0.0
1.609243 0.912893 -0.000368 0.0
1.725278 1.240421 0.001083 0.0
2.776502 1.048155 0.003596 0.0
4.295710 1.152353 0.004060 0.0
4.638259 1.652723 -0.001528 0.0
2.108861 0.042509 -0.001216 0.0
3.523530 0.962125 0.002078 0.0
1.294000 0.700519 0.004213 0.0
2.789138 1.136659 -0.002256 0.0
2.936137 0.342513 -0.002434 0.0
2.842758 0.401490 -0.000967 0.0
3.941631 1.468370 0.002576 0.0
2.917594 1.450335 0.001342 0.0
1.232440 0.991184 0.006622 0.0
0.559425 1.424868 -0.001247 0.0
1.678163 0.161001 0.007690 0.0
2.099155 0.065586 0.001262 0.0
1.027934 0.046865 0.001635 0.0
0.579247 1.229447 -0.005542 0.0
1.908652 0.418850 0.007614 0.0
1.871615 1.144555 -0.005892 0.0
3.815515 0.792725 0.000881 0.0
0.139919 1.303086 0.000951 0.0
2.115781 0.388462 0.001592 0.0
4.179543 0.657765 -0.000602 0.0
2.986768 1.471787 -0.001972 0.0
3.155820 0.666812 -0.004286 0.0
4.466407 0.659421 -0.001794 0.0
3.070778 0.836909 -0.005938 0.0
2.664542 1.103587 0.003786 0.0
2.892623 0.654335 -0.001302 0.0
4.010261 0.257878 0.000746 0.0
1.037180 1.229637 0.001264 0.0
3.361257 0.867464 0.000887 0.0
0.988957 0.633110 -0.006719 0.0
0.502189 1.399839 0.002193 0.0
0.367619 1.630155 0.002141 0.0
3.162280 0.086430 0.001679 0.0
1.277489 1.628362 -0.000039 0.0
3.298314 0.401823 -0.001100 0.0
2.291840 1.454347 -0.003022 0.0
2.798224 1.662050 -0.000094 0.0
3.604653 1.304646 -0.000545 0.0
3.505553 0.109871 0.002052 0.0
4.559948 1.313222 0.003301 0.0
4.391488 0.094452 0.003135 0.0
1.297364 0.709585 -0.002190 0.0
0.556822 1.266278 0.003751 0.0
0.573139 1.565318 -0.000957 0.0
0.311026 0.266285 -0.005973 0.0
0.027726 0.661398 -0.004847 0.0
4.318502 0.293572 -0.001341 0.0
1.367682 0.940739 -0.004193 0.0
0.904477 0.661140 -0.001857 0.0
0.425350 0.390107 0.000784 0.0
2.988184 0.859504 0.004854 0.0
1.160272 1.518944 -0.002946 0.0
1.831543 0.479136 -0.000170 0.0
4.531100 0.391820 -0.002454 0.0
4.219112 0.017094 0.001750 0.0
2.212103 0.360270 0.003380 0.0
3.935107 0.619351 0.005165 0.0
3.025462 1.481909 -0.000147 0.0
3.472466 1.363432 -0.002619 0.0
3.064601 0.247751 0.003198 0.0
1.406233 1.354889 0.001550 0.0
0.149465 1.422138 -0.002244 0.0
2.001814 0.751160 -0.001102 0.0
4.482815 0.535297 0.001342 0.0
1.105797 0.807710 0.001520 0.0
4.328565 0.485681 0.004663 0.0
0.441215 1.005515 -0.000025 0.0
4.463683 1.289549 0.005073 0.0
2.242299 0.411722 -0.000785 0.0
4.095699 0.344050 0.000048 0.0
1.225601 0.636095 -0.003240 0.0
2.740342 0.846426 0.000155 0.0
0.580462 0.478969 0.003835 0.0
4.496237 1.018232 -0.001557 0.0
3.137872 1.088727 -0.000712 0.0
0.855959 0.760096 0.001115 0.0
0.814034 1.243890 0.002487 0.0
1.544557 0.840348 0.001998 0.0
1.340381 1.220356 0.004681 0.0
1.603452 0.230025 -0.001831 0.0
0.708567 0.144096 0.005151 0.0
3.638281 0.880894 -0.003286 0.0
4.224652 1.580965 0.002099 0.0
2.763655 0.345478 -0.000186 0.0
4.634019 0.515880 0.002340 0.0
0.147540 0.455478 -0.004029 0.0
0.454577 0.377289 -0.004306 0.0
2.826126 1.486524 -0.001478 0.0
0.350362 0.204102 -0.002167 0.0
3.199907 1.012560 -0.000836 0.0
0.352027 0.618521 -0.000060 0.0
1.955538 1.091030 0.002415 0.0
1.090901 0.029994 -0.001956 0.0
0.997622 0.613650 0.003018 0.0
4.306870 0.705132 0.000950 0.0
2.700472 0.826253 0.001416 0.0
3.319904 0.607457 -0.001282 0.0
3.774747 0.463167 -0.002648 0.0
1.817713 1.321987 -0.002631 0.0
4.281143 0.828727 0.004422 0.0
0.274885 0.284574 -0.000385 0.0
2.730828 0.834703 0.005220 0.0
1.097357 1.183707 0.000432 0.0
3.953208 0.888662 0.001216 0.0
1.263202 1.172537 0.000603 0.0
4.377821 0.216314 0.002357 0.0
4.523282 0.833265 0.003486 0.0
3.219898 1.047401 -0.002668 0.0
3.079261 0.517095 -0.003003 0.0
4.749239 1.577514 -0.000311 0.0
4.219129 1.298527 -0.003521 0.0
0.756116 0.256761 0.000296 0.0
1.062901 0.210153 0.003517 0.0
2.725889 1.412732 0.002176 0.0
3.684195 0.070066 0.000821 0.0
0.944943 0.109196 -0.000467 0.0
4.543014 1.211829 -0.001878 0.0
4.250558 1.271651 0.000992 0.0
1.109052 0.353085 -0.003871 0.0
2.378221 0.159858 -0.003285 0.0
1.600330 0.703552 0.000247 0.0
3.383193 1.243449 0.004596 0.0
2.286620 0.314382 0.000159 0.0
2.527748 0.170448 -0.001663 0.0
1.635462 0.103880 0.002448 0.0
3.382948 0.738866 -0.000761 0.0
4.043408 0.512035 0.000034 0.0
4.444205 0.314411 -0.003150 0.0
1.664949 0.001368 -0.002014 0.0
0.638540 0.708731 0.000702 0.0
0.162227 1.454355 -0.005088 0.0
3.162334 0.338108 -0.004844 0.0
2.903918 1.463569 0.001226 0.0
2.429565 0.969574 0.000551 0.0
3.829128 1.383219 -0.001066 0.0
1.651745 0.386450 0.001553 0.0
4.374192 0.523236 0.000155 0.0
3.502531 0.441531 0.002643 0.0
3.413017 0.787258 -0.003111 0.0
0.843432 0.258483 -0.002305 0.0
0.866334 0.039500 0.001564 0.0
0.851648 1.597152 -0.000547 0.0
1.734742 0.650869 0.000658 0.0
4.082553 0.920446 -0.003187 0.0
1.189447 0.615886 -0.003819 0.0
1.290689 1.012280 -0.000792 0.0
0.874737 1.488544 -0.000643 0.0
0.675243 0.177644 0.001164 0.0
4.530523 1.415499 -0.001705 0.0
1.660264 0.535404 -0.000024 0.0
0.808666 0.736332 -0.000293 0.0
2.798891 1.464444 0.003009 0.0
0.182898 1.059261 -0.002016 0.0
2.469517 1.102942 -0.000043 0.0
0.539800 1.172023 0.001975 0.0
4.644208 1.124679 0.003830 0.0
0.050509 0.737576 0.001754 0.0
4.045594 1.311803 -0.001468 0.0
3.444871 1.159786 -0.000879 0.0
2.834143 0.677263 0.001189 0.0
1.840747 1.056599 -0.001744 0.0
3.232443 0.737229 0.002813 0.0
3.304976 0.318839 -0.007122 0.0
1.206710 1.086482 0.000180 0.0
2.643945 1.114545 -0.003028 0.0
1.761318 0.510928 -0.003671 0.0
4.021215 1.242228 0.002100 0.0
1.332994 0.801748 0.000280 0.0
3.792998 0.983613 -0.004398 0.0
4.392921 0.703744 -0.002265 0.0
3.146578 1.337360 -0.000126 0.0
3.929594 1.210964 -0.001077 0.0
4.506975 0.370449 -0.004502 0.0
4.110678 0.526875 0.002579 0.0
4.428931 1.017319 0.004002 0.0
2.557682 0.697049 -0.004339 0.0
1.049938 0.114764 -0.000611 0.0
3.411543 1.358378 0.000061 0.0
0.669064 0.537289 -0.000061 0.0
1.438211 0.413993 -0.000239 0.0
4.259064 0.481144 -0.002805 0.0
2.459498 0.875432 0.000826 0.0
1.190543 0.613391 0.000459 0.0
2.125017 0.043771 0.000135 0.0
3.699487 0.653741 -0.000915 0.0
0.370800 1.111244 0.000145 0.0
0.303926 1.079612 -0.002509 0.0
4.070834 0.301941 -0.000250 0.0
2.950759 0.661634 0.000543 0.0
4.269787 1.168418 -0.003932 0.0
2.497096 0.811200 -0.000762 0.0
4.327707 0.553871 -0.002752 0.0
4.524155 1.061305 -0.001673 0.0
1.550756 0.978967 -0.002906 0.0
4.324901 0.291554 -0.004287 0.0
1.733189 0.630562 0.000700 0.0
1.439487 0.602595 0.000021 0.0
2.113252 1.299803 -0.001329 0.0
3.262979 1.613417 0.003566 0.0
1.194248 1.109454 -0.001376 0.0
0.560223 1.420609 -0.002519 0.0
0.722144 1.037327 0.001728 0.0
3.735615 0.159457 0.001078 0.0
0.314779 0.458710 -0.002302 0.0
2.660894 0.215090 -0.001938 0.0
3.719960 1.442228 0.002699 0.0
1.717691 0.507625 0.000351 0.0
1.070163 1.152365 -0.004252 0.0
4.651757 0.256275 0.001229 0.0
3.383557 1.647995 0.002749 0.0
3.500005 0.430467 0.004077 0.0
1.446461 1.050121 -0.002592 0.0
2.610216 0.740813 -0.002352 0.0
0.793051 1.203354 -0.001622 0.0
2.337413 0.817893 -0.002300 0.0
0.256317 1.614028 -0.001089 0.0
0.498895 0.231974 -0.001105 0.0
2.221373 1.553888 -0.001634 0.0
3.953133 1.380403 -0.000306 0.0
4.226844 0.558394 0.004931 0.0
0.644858 0.022220 0.000561 0.0
2.884574 0.946696 0.003402 0.0
3.740752 0.710682 -0.002762 0.0
0.905563 0.628977 -0.000315 0.0
1.691960 1.202914 -0.003816 0.0
3.049405 1.352286 0.004938 0.0
2.607007 0.510586 0.000207 0.0
0.161772 0.830949 -0.000639 0.0
0.669633 0.133904 0.000279 0.0
3.284272 0.688295 -0.000505 0.0
2.733958 0.409716 0.001711 0.0
3.161687 0.448984 -0.001321 0.0
1.693651 0.160609 -0.001660 0.0
1.885684 0.675772 -0.000556 0.0
0.072805 1.325256 0.000798 0.0
1.756023 1.087523 0.001153 0.0
1.618546 0.594390 0.001532 0.0
2.612753 0.584200 -0.000617 0.0
0.415920 1.039534 -0.003919 0.0
4.241457 1.041834 0.002068 0.0
2.145005 0.118136 0.001895 0.0
2.564843 1.371506 -0.001055 0.0
4.670653 1.046268 0.000061 0.0
2.291019 1.114475 -0.004461 0.0
1.930721 1.000165 0.002523 0.0
0.918765 1.157439 0.001020 0.0
3.309440 1.447506 0.001220 0.0
3.687038 0.513318 -0.000207 0.0
3.256425 0.142009 -0.001062 0.0
0.987629 0.354443 -0.000631 0.0
3.641290 0.167441 -0.002567 0.0
0.598828 0.489963 0.004680 0.0
4.454886 0.196914 0.001484 0.0
2.951365 0.697579 -0.000171 0.0
3.978682 0.694289 0.000108 0.0
0.810367 1.372299 -0.003204 0.0
0.848528 0.445840 0.002885 0.0
1.314462 0.170560 -0.000078 0.0
4.624955 0.662578 0.002140 0.0
3.869241 1.135213 0.000023 0.0
1.127462 0.323505 -0.006854 0.0
4.577504 0.899255 -0.003412 0.0
3.052506 0.629386 -0.006715 0.0
2.160037 1.487042 0.002663 0.0
2.772406 0.860089 -0.001198 0.0
3.682938 1.447696 -0.001791 0.0
2.326109 0.201332 -0.001286 0.0
2.681922 0.579096 -0.004397 0.0
3.215199 0.185703 0.000565 0.0
4.383345 0.439723 0.005343 0.0
3.537626 1.481044 -0.003518 0.0
1.045902 0.008550 -0.000401 0.0
1.710203 0.204689 0.002331 0.0
2.880230 0.340576 0.001009 0.0
0.900834 0.832840 0.002721 0.0
2.102847 0.624404 0.000630 0.0
1.511128 1.646166 0.001224 0.0
2.202221 0.160803 -0.002045 0.0
1.327561 0.331014 0.003122 0.0
3.161234 0.252836 -0.000492 0.0
1.916014 0.963338 0.003096 0.0
1.344721 0.679087 0.004095 0.0
3.608376 1.367708 0.001311 0.0
2.740891 0.554526 -0.002430 0.0
1.121562 1.302143 -0.000207 0.0
4.304282 0.617898 -0.002218 0.0
1.074809 1.606307 -0.001115 0.0
0.006385 0.152512 0.003106 0.0
4.737786 1.441309 0.000968 0.0
0.961250 0.846604 0.003636 0.0
4.694243 0.194505 0.000436 0.0
0.432170 0.086937 0.001110 0.0
4.219510 1.272328 -0.001593 0.0
1.878338 1.083112 0.004108 0.0
1.887777 0.198772 0.006212 0.0
3.697820 0.435450 0.000259 0.0
4.313632 0.746919 -0.001348 0.0
4.025337 1.044124 0.001002 0.0
2.308777 1.248994 -0.001110 0.0
4.687057 1.462632 -0.001059 0.0
1.850344 0.682635 -0.000272 0.0
3.244729 0.821653 0.001716 0.0
0.854834 1.518139 -0.000083 0.0
1.783589 0.329611 0.002613 0.0
1.911860 1.129734 0.000700 0.0
1.362955 0.818381 0.001438 0.0
2.099819 1.330385 -0.000639 0.0
3.022395 0.561628 -0.002294 0.0
3.230148 0.699469 0.001749 0.0
3.005417 0.402163 -0.001493 0.0
3.482245 0.503829 -0.001808 0.0
3.272841 0.400493 0.002141 0.0
1.336988 0.044702 0.000399 0.0
0.121669 1.648985 0.002957 0.0
1.481122 0.841410 -0.001812 0.0
3.355642 1.645966 -0.001052 0.0
2.581427 1.297589 0.005308 0.0
1.816802 0.489728 -0.002894 0.0
4.454065 1.243124 -0.000347 0.0
4.589245 1.638603 -0.000455 0.0
4.185393 0.729885 0.001149 0.0
4.769253 1.501572 -0.006493 0.0
0.063468 0.276128 -0.005323 0.0
3.780975 0.580638 0.002031 0.0
1.856932 1.446677 0.001199 0.0
0.872967 0.986875 0.000764 0.0
4.100662 1.532828 -0.000873 0.0
4.247659 1.520076 0.000534 0.0
3.540299 0.524559 -0.000942 0.0
1.366617 1.140993 -0.000917 0.0
0.059206 1.528988 0.003483 0.0
4.703296 0.568987 0.000139 0.0
3.555261 1.236054 -0.000720 0.0
3.933778 1.486058 -0.001149 0.0
2.930104 1.361948 0.001529 0.0
3.973147 0.549731 0.001339 0.0
2.462288 0.759985 -0.000775 0.0
1.343255 1.635800 -0.000970 0.0
4.525534 0.984752 -0.001064 0.0
2.656490 0.808055 0.000297 0.0
3.983871 1.469623 0.004270 0.0
2.831192 0.181673 0.000635 0.0
1.628208 1.057941 0.005316 0.0
1.523788 1.024471 0.002785 0.0
2.066185 0.362241 0.004256 0.0
0.172130 1.339670 0.001073 0.0
2.934356 1.450720 -0.002826 0.0
3.355947 1.409484 -0.004466 0.0
1.185683 0.504352 0.000976 0.0
0.061779 0.143250 -0.002402 0.0
1.265513 0.842020 0.000968 0.0
3.581109 1.402246 -0.000735 0.0
3.389855 0.300830 0.001091 0.0
2.966896 0.710983 0.007762 0.0
1.166473 0.677528 -0.002407 0.0
4.336012 0.449702 0.000410 0.0
1.835660 1.392604 -0.003417 0.0
4.380702 1.209564 0.005820 0.0
4.146787 1.153269 -0.000943 0.0
2.564079 1.438423 0.000305 0.0
1.862819 1.269678 0.001708 0.0
1.809223 0.258499 -0.000003 0.0
0.375352 1.427460 -0.003048 0.0
0.517379 1.103357 0.002390 0.0
4.101174 1.296387 -0.002347 0.0
2.163714 1.449437 0.000235 0.0
2.421169 1.280698 -0.001777 0.0
0.961405 0.232123 0.001427 0.0
1.719879 1.133584 -0.002326 0.0
0.114108 0.863349 -0.001330 0.0
1.779375 0.248760 -0.002844 0.0
3.340089 1.035411 -0.002576 0.0
3.658115 0.463536 -0.000257 0.0
4.567980 1.006278 -0.000841 0.0
2.287168 1.104232 -0.000272 0.0
1.999160 1.318278 0.002911 0.0
0.001538 1.312210 0.001509 0.0
0.762968 1.163609 0.002091 0.0
2.755291 1.516672 0.000604 0.0
1.111736 0.355375 -0.001338 0.0
3.586085 1.089350 -0.000263 0.0
2.030069 0.906678 -0.000542 0.0
0.507111 0.979728 -0.001774 0.0
4.165242 0.005284 0.004774 0.0
4.585323 0.004383 -0.006720 0.0
4.504139 1.109043 -0.003233 0.0
3.675832 1.391011 0.000355 0.0
2.567469 1.025447 0.000713 0.0
2.375231 0.546607 -0.002647 0.0
1.744197 0.176939 -0.002683 0.0
2.913374 1.036013 0.001341 0.0
2.390528 0.429472 -0.002331 0.0
1.570851 1.188425 -0.001241 0.0
1.494100 0.854249 -0.000285 0.0
0.071437 0.755653 0.001060 0.0
1.998515 0.892083 0.001953 0.0
1.170485 1.016495 0.002600 0.0
2.263765 0.742322 -0.003153 0.0
0.678765 0.023500 -0.002308 0.0
2.582539 0.133238 0.002758 0.0
0.746693 1.432503 -0.003072 0.0
1.300683 1.181088 0.000682 0.0
4.702590 0.565006 0.003599 0.0
1.152747 0.065094 -0.000806 0.0
4.293595 0.964269 -0.003259 0.0
1.160883 0.105306 -0.003360 0.0
1.197135 1.247380 0.002591 0.0
4.447411 1.293955 -0.001910 0.0
3.206260 1.188926 0.002022 0.0
3.166398 0.161301 -0.002384 0.0
4.018585 1.001051 0.001038 0.0
4.259793 1.261560 0.002544 0.0
1.002724 0.815391 0.003329 0.0
2.714493 0.828559 0.003243 0.0
1.933977 0.058673 -0.001462 0.0
1.115443 1.173854 0.001077 0.0
2.763291 1.484384 -0.000540 0.0
1.980542 1.455780 -0.003566 0.0
4.458879 0.537389 0.003061 0.0
1.831879 1.575828 -0.004562 0.0
0.430723 0.600706 -0.001248 0.0
1.688612 0.807952 -0.002538 0.0
4.583904 0.186967 0.001996 0.0
3.804743 0.761663 -0.003162 0.0
0.522927 1.040208 -0.002639 0.0
2.830651 0.364210 -0.004246 0.0
3.890203 1.201937 0.000072 0.0
2.070146 0.967168 0.002911 0.0
3.592193 0.824036 -0.000511 0.0
0.677646 0.169307 -0.001355 0.0
1.833235 0.725424 0.003443 0.0
4.367761 0.320879 -0.000928 0.0
4.552219 1.392813 0.000919 0.0
3.182523 1.226555 -0.001209 0.0
2.872178 0.455815 0.001190 0.0
0.368338 1.077820 -0.001049 0.0
4.342184 1.472100 -0.000773 0.0
2.605455 0.548676 -0.001065 0.0
1.384971 1.465314 -0.000137 0.0
2.941973 0.302183 0.000821 0.0
2.891241 0.828550 -0.003406 0.0
0.127729 0.070892 -0.000348 0.0
0.800588 0.755961 0.004565 0.0
3.304792 0.120896 -0.005484 0.0
0.667338 0.246507 -0.001279 0.0
2.836151 0.416786 0.001390 0.0
3.266687 1.620133 0.002667 0.0
2.458742 0.150305 0.002433 0.0
1.047658 0.749884 -0.001086 0.0
0.865610 0.541484 -0.000316 0.0
2.346279 0.427110 -0.001134 0.0
1.668087 0.357941 -0.002592 0.0
1.984602 0.759960 0.003361 0.0
3.949485 1.592313 0.002142 0.0
1.497587 1.131656 0.001176 0.0
3.337219 0.447435 -0.004087 0.0
1.627037 0.267997 0.000326 0.0
3.064759 0.628885 -0.001402 0.0
1.185606 0.748955 0.005885 0.0
0.450016 1.004365 0.003890 0.0
2.546643 1.097021 -0.000850 0.0
2.744789 0.355341 -0.003499 0.0
0.951702 0.728760 -0.001231 0.0
3.378762 0.815908 0.001225 0.0
4.521055 0.528537 -0.002761 0.0
1.761369 1.083938 -0.003043 0.0
2.544057 1.335467 0.000018 0.0
0.728016 0.859244 0.000678 0.0
0.570630 0.568425 0.002613 0.0
2.951826 1.571593 0.000372 0.0
0.199858 0.567197 -0.005525 0.0
3.100502 0.399558 -0.004295 0.0
0.788537 1.154654 0.001329 0.0
1.596882 0.669867 0.003092 0.0
1.892392 0.018607 -0.003107 0.0
3.871773 1.039015 0.003466 0.0
4.735706 0.695812 0.000482 0.0
0.198428 1.292099 0.000637 0.0
3.614443 0.357968 0.001288 0.0
3.844923 0.900883 -0.004367 0.0
3.961250 0.604436 0.001750 0.0
3.581694 0.870259 0.003713 0.0
1.052502 0.036870 0.000379 0.0
3.470327 0.205985 -0.000163 0.0
2.082473 1.611697 -0.002961 0.0
2.152350 0.817736 -0.002587 0.0
2.803200 0.917160 0.001064 0.0
2.383787 0.712487 0.004448 0.0
0.048397 0.566476 0.001131 0.0
4.727030 1.207387 0.000093 0.0
2.224250 0.345017 0.000408 0.0
1.099962 1.046708 -0.003987 0.0
4.131407 0.519837 -0.000453 0.0
3.336053 0.586062 0.002470 0.0
1.000744 0.453964 -0.000069 0.0
4.398341 1.434952 0.001729 0.0
3.838712 0.126388 -0.001667 0.0
4.170709 0.072785 -0.004434 0.0
3.077339 0.695548 -0.003705 0.0
1.054444 1.322388 -0.005268 0.0
1.083976 0.001717 -0.003906 0.0
2.804806 1.241652 -0.000783 0.0
4.649665 0.323240 -0.000041 0.0
2.709625 1.600775 0.003935 0.0
0.528799 1.146818 -0.001934 0.0
3.542892 0.134235 0.000377 0.0
2.126493 1.443421 0.001752 0.0
2.598987 1.262673 -0.001232 0.0
2.950065 0.813087 -0.000569 0.0
0.744396 1.118596 -0.000228 0.0
2.931117 0.072586 -0.002880 0.0
2.900354 1.449425 -0.000148 0.0
0.114006 0.193805 0.005168 0.0
3.918622 0.477492 0.001273 0.0
1.372714 0.378038 0.004017 0.0
2.538041 0.654807 0.002074 0.0
1.555722 0.330611 -0.001233 0.0
2.316910 1.034227 -0.000225 0.0
1.096626 0.245813 0.002138 0.0
4.769000 0.438703 0.002124 0.0
3.823582 0.020817 -0.000234 0.0
2.640890 0.089406 0.002825 0.0
2.494096 0.421839 0.002976 0.0
1.549870 0.439434 -0.000908 0.0
3.664613 0.349557 -0.003825 0.0
4.511693 0.068534 0.001094 0.0
4.433095 1.121889 0.000354 0.0
4.170794 0.725482 0.002250 0.0
2.109308 0.658004 0.000048 0.0
3.376133 1.217819 0.001445 0.0
3.415791 0.155931 -0.002861 0.0
2.418533 0.602689 -0.003774 0.0
2.541753 0.043502 0.002319 0.0
1.026215 1.207946 -0.003649 0.0
4.570413 1.630679 0.000826 0.0
2.823462 1.461020 -0.002720 0.0
0.516237 1.137274 -0.002536 0.0
2.228703 1.403887 -0.000937 0.0
3.529593 1.491058 0.003974 0.0
1.995533 0.832673 -0.001445 0.0
2.730253 0.466888 0.000864 0.0
1.902881 1.445074 0.001187 0.0
2.320089 1.316227 0.002826 0.0
2.342750 0.455500 0.001507 0.0
3.067978 0.325883 -0.000314 0.0
0.712225 0.315776 -0.001054 0.0
1.830354 1.444216 0.002985 0.0
0.680826 0.881322 -0.002464 0.0
1.907380 1.248159 -0.000587 0.0
3.713025 0.278932 0.000997 0.0
0.522912 0.374473 0.001048 0.0
1.828042 0.902221 -0.000209 0.0
1.368910 0.741185 -0.002747 0.0
3.205657 1.137476 0.000316 0.0
1.343905 0.939609 0.000212 0.0
0.416247 1.629016 -0.004499 0.0
2.861912 0.363337 -0.001945 0.0
3.352363 1.555604 -0.002055 0.0
1.278350 1.225195 0.001233 0.0
3.074574 0.790262 -0.005412 0.0
0.583579 1.641931 0.002564 0.0
1.216279 0.500121 -0.004233 0.0
1.190562 1.477469 -0.000951 0.0
1.258281 0.924922 -0.000890 0.0
2.752860 0.558172 -0.000563 0.0
3.393971 1.312480 0.001832 0.0
0.973680 1.502918 0.000583 0.0
2.322613 1.472548 -0.004253 0.0
4.766761 1.470529 0.001527 0.0
1.534212 0.887683 -0.001004 0.0
1.410931 1.265897 0.002589 0.0
2.008922 0.200891 -0.001611 0.0
2.643162 1.017396 0.003251 0.0
