3.63919769 0.09560669 -0.00088242 0.00000000
4.15231847 0.31215867 0.00474576 0.00000000
1.80711572 0.14525764 -0.00142870 0.00000000
3.29521406 0.79471625 -0.00152029 0.00000000
4.63392667 1.22657613 -0.00053536 0.00000000
2.29221621 1.47655091 0.00062632 0.00000000
1.75422156 1.08356585 0.00052652 0.00000000
2.51810814 0.63416141 -0.00133434 0.00000000
1.25532674 0.19442967 -0.00094980 0.00000000
4.54216186 0.42080891 -0.00277330 0.00000000
0.91577452 0.32159967 0.00064494 0.00000000
3.88990497 0.22970735 0.00482567 0.00000000
3.18977259 0.02130125 0.00162738 0.00000000
0.91847360 0.93417158 0.00071199 0.00000000
0.22752358 0.25124194 0.00061480 0.00000000
3.09149059 0.04770141 -0.00210248 0.00000000
2.20086082 0.15416732 -0.00009958 0.00000000
1.49295520 0.90061055 -0.00378744 0.00000000
1.73629339 1.52326514 -0.00100723 0.00000000
1.73834164 0.59771921 0.00001047 0.00000000
0.98797080 1.49649631 0.00129452 0.00000000
2.52986997 0.91308943 0.00057915 0.00000000
3.46858680 0.66867849 -0.00037814 0.00000000
4.30606169 1.14539575 -0.00230318 0.00000000
1.25382175 1.58528046 -0.00045214 0.00000000
3.14342022 1.48597167 0.00288999 0.00000000
3.31745646 0.85645866 0.00344030 0.00000000
0.80273614 1.43385514 0.00227262 0.00000000
3.07234382 0.45481016 -0.00090428 0.00000000
1.24434034 0.95813992 -0.00070697 0.00000000
1.88303059 0.96190765 0.00185327 0.00000000
3.94063614 1.59544917 -0.00204165 0.00000000
1.28439412 0.23168021 -0.00364498 0.00000000
3.92954624 1.05783146 0.00120266 0.00000000
0.34476536 0.80174972 0.00057942 0.00000000
3.09621265 0.32657051 -0.00002906 0.00000000
3.43513084 1.48485115 0.00161882 0.00000000
3.39160303 1.17856419 -0.00295377 0.00000000
0.30444181 0.01649107 -0.00258926 0.00000000
0.23564341 0.88887357 0.00213835 0.00000000
2.39738785 0.92444855 0.00272397 0.00000000
3.69754657 0.61401610 -0.00320464 0.00000000
2.13787674 1.19084411 -0.00133551 0.00000000
1.35085971 0.34168839 -0.00013118 0.00000000
2.53617278 0.75557867 -0.00323737 0.00000000
4.39355727 0.44471304 -0.00183108 0.00000000
3.65045567 1.03876493 -0.00042476 0.00000000
4.29213713 1.49057991 0.00012519 0.00000000
2.76669895 0.67589682 -0.00384788 0.00000000
2.64388828 0.81929283 -0.00153275 0.00000000
3.34232962 0.05396442 0.00060962 0.00000000
3.75740079 0.36310242 0.00190191 0.00000000
3.24415474 0.91027522 0.00226936 0.00000000
4.73903234 0.62962102 -0.00318178 0.00000000
4.45487345 0.92129577 -0.00021206 0.00000000
2.74267388 0.22442815 -0.00366271 0.00000000
3.05505976 0.72389195 0.00062713 0.00000000
2.12911113 0.98941810 -0.00162226 0.00000000
2.90164599 1.48782989 -0.00281319 0.00000000
3.17733493 1.24384419 0.00109873 0.00000000
0.20866002 0.78615842 -0.00164780 0.00000000
3.03841880 1.57873468 -0.00305475 0.00000000
3.45217642 0.68733152 0.00480151 0.00000000
4.69282965 1.28048377 0.00003732 0.00000000
3.11924537 1.08378358 0.00185166 0.00000000
2.00665504 0.54310384 -0.00483595 0.00000000
2.95849855 1.30484564 0.00227251 0.00000000
3.53706188 0.25754655 -0.00217062 0.00000000
3.94077357 0.08537481 -0.00164283 0.00000000
0.79465379 1.36319893 0.00254509 0.00000000
0.95885949 0.83585344 0.00191452 0.00000000
3.94434829 1.20499941 0.00335744 0.00000000
1.19635552 0.43923784 0.00219265 0.00000000
3.34643028 1.10973609 -0.00052370 0.00000000
3.20351086 1.06627714 -0.00031175 0.00000000
3.56100215 1.39259122 -0.00266600 0.00000000
2.49463867 1.39076429 0.00127201 0.00000000
3.79090198 1.56782642 0.00137716 0.00000000
3.88774947 1.57471568 0.00285796 0.00000000
3.61542501 0.45120346 0.00076847 0.00000000
1.56396669 1.08323775 -0.00023846 0.00000000
3.09518438 0.07942280 0.00000493 0.00000000
3.79209377 0.84339813 -0.00231368 0.00000000
3.24311163 0.31235608 0.00362310 0.00000000
4.48615327 0.28498123 -0.00035467 0.00000000
0.42209924 1.15832550 -0.00233216 0.00000000
4.16976677 1.45610294 -0.00058539 0.00000000
1.38179408 0.64815657 -0.00160800 0.00000000
4.53647084 1.54531366 0.00191368 0.00000000
2.94799735 0.81569050 0.00249107 0.00000000
1.16122171 1.52130508 -0.00301519 0.00000000
4.68427075 0.15100712 0.00115666 0.00000000
1.63338117 0.96994028 -0.00019297 0.00000000
2.91735715 0.28294242 -0.00140865 0.00000000
0.34103264 1.03622598 -0.00180423 0.00000000
1.34436957 0.19767806 -0.00018076 0.00000000
3.53263492 0.79145450 -0.00537089 0.00000000
1.02482925 0.03151147 -0.00005162 0.00000000
2.77667203 1.21135444 -0.00108410 0.00000000
4.79901082 1.44054184 0.00149362 0.00000000
3.96132164 0.70989897 -0.00116567 0.00000000
3.31135822 0.82618602 -0.00249807 0.00000000
2.16692855 0.86630230 -0.00101610 0.00000000
4.81748636 0.54543442 -0.00230030 0.00000000
0.60675322 0.57395399 0.00192942 0.00000000
4.67477538 0.29769897 0.00217465 0.00000000
4.25559908 0.96458377 -0.00020618 0.00000000
1.35291454 0.86304314 -0.00061450 0.00000000
1.66747254 0.74341309 -0.00294372 0.00000000
2.58732813 1.42141640 -0.00146404 0.00000000
4.30210203 0.82191764 -0.00593172 0.00000000
1.26886960 0.24720471 0.00410556 0.00000000
2.79906194 0.75426869 -0.00146544 0.00000000
2.03835135 0.77413235 -0.00154709 0.00000000
2.29741665 0.18200705 -0.00255098 0.00000000
2.06179577 0.33007747 0.00028819 0.00000000
0.07610041 1.18204027 0.00133582 0.00000000
2.30620161 1.44253571 -0.00096837 0.00000000
1.68167614 0.24000690 0.00303250 0.00000000
1.19122141 0.56619747 -0.00062829 0.00000000
3.42424613 1.08432631 -0.00192681 0.00000000
2.47413224 0.61931072 0.00218192 0.00000000
4.00656438 1.55375664 0.00167974 0.00000000
1.65717490 1.19918313 0.00257469 0.00000000
3.60788403 0.26794434 0.00137706 0.00000000
3.86809676 1.50928885 -0.00110984 0.00000000
2.64775650 0.52452728 0.00257091 0.00000000
4.28717635 1.06187751 -0.00352521 0.00000000
1.42870144 0.39885333 0.00096236 0.00000000
2.11848589 0.52184179 -0.00084404 0.00000000
3.15852781 1.61173230 -0.00255010 0.00000000
1.79092188 1.52874036 -0.00449194 0.00000000
1.49195512 1.48248059 0.00472031 0.00000000
1.34402136 1.06932453 0.00158016 0.00000000
3.18523808 1.37291536 -0.00228637 0.00000000
1.69942521 1.17167077 -0.00435324 0.00000000
0.92022227 1.21236863 -0.00362940 0.00000000
3.63009354 1.20953144 0.00057806 0.00000000
1.96800307 1.60852902 0.00120524 0.00000000
2.59106728 0.87838744 -0.00529270 0.00000000
0.86243192 0.59609511 0.00429405 0.00000000
0.52813834 1.19052465 -0.00457000 0.00000000
3.79615848 1.23348382 0.00518588 0.00000000
1.28427472 0.51259236 -0.00268674 0.00000000
1.58321212 0.25129622 -0.00390241 0.00000000
1.72852430 1.08954010 -0.00096048 0.00000000
4.65310280 0.71163186 -0.00212457 0.00000000
2.28392585 1.50345146 -0.00070661 0.00000000
4.66984333 1.48649131 -0.00130539 0.00000000
4.21710045 1.07979074 -0.00148528 0.00000000
0.35153150 0.17706028 0.00040909 0.00000000
0.05585921 0.20376916 -0.00156900 0.00000000
4.13447497 0.77200254 0.00412073 0.00000000
0.60930286 1.17970671 0.00549624 0.00000000
2.33705862 0.38871989 0.00317674 0.00000000
3.38208265 0.12568463 0.00083246 0.00000000
3.42957453 0.99703475 -0.00086033 0.00000000
4.18964739 1.49379947 -0.00262675 0.00000000
0.84629003 0.93213023 0.00753343 0.00000000
0.44842321 0.98534203 0.00079159 0.00000000
1.97525118 0.25199713 -0.00221268 0.00000000
0.98690350 1.61253367 -0.00064562 0.00000000
0.14151688 0.63004363 -0.00454320 0.00000000
1.40077708 1.18619188 0.00017250 0.00000000
0.61198184 1.41939517 0.00175945 0.00000000
0.00368378 1.49436321 0.00035562 0.00000000
2.82481648 0.50492194 0.00121020 0.00000000
1.49837073 0.06489681 0.00098998 0.00000000
1.07694689 1.29628061 -0.00315568 0.00000000
2.23166452 1.33372208 0.00107339 0.00000000
1.59967232 0.42960580 -0.00225401 0.00000000
2.38443004 0.48519977 -0.00167349 0.00000000
1.52992095 0.66084217 -0.00257848 0.00000000
3.32026870 1.08547766 0.00257617 0.00000000
0.36311767 1.18699122 -0.00022717 0.00000000
0.64339530 0.45330002 -0.00452134 0.00000000
3.68579227 1.00355825 0.00186089 0.00000000
0.23078487 0.81272313 -0.00285783 0.00000000
4.47670169 1.08728212 -0.00134923 0.00000000
0.65583307 0.48892177 -0.00038215 0.00000000
3.28126040 0.15798497 0.00214234 0.00000000
0.79315103 1.08690053 -0.00022398 0.00000000
4.50264488 1.02989960 -0.00099071 0.00000000
3.30841962 0.22786180 0.00062580 0.00000000
0.65085934 0.63596091 0.00202926 0.00000000
3.80387375 1.08966554 0.00525194 0.00000000
2.82714788 0.02127969 -0.00138175 0.00000000
3.77647836 1.50094540 -0.00313535 0.00000000
1.54877473 0.31062813 -0.00152391 0.00000000
3.00111217 1.15847650 -0.00220446 0.00000000
0.51401996 1.13448772 -0.00002699 0.00000000
2.44063281 1.25412610 0.00177403 0.00000000
4.55047718 1.45790406 -0.00224206 0.00000000
3.81635974 1.31229066 0.00111627 0.00000000
3.92292781 1.03012806 -0.00068889 0.00000000
1.93988445 0.64847629 -0.00373432 0.00000000
1.78683280 1.47281212 -0.00008169 0.00000000
0.05354127 1.36640497 -0.00396399 0.00000000
1.05524440 0.93447206 -0.00133547 0.00000000
3.26337298 1.58874737 0.00135976 0.00000000
3.89043452 1.31723976 -0.00031038 0.00000000
3.37455210 0.20953051 -0.00054330 0.00000000
0.66657444 1.27125014 -0.00660443 0.00000000
2.36553667 0.73958502 0.00447189 0.00000000
0.41228422 1.07784358 0.00364893 0.00000000
4.80219496 0.29372088 0.00242179 0.00000000
1.32818921 0.65995869 0.00151235 0.00000000
0.99434726 0.81792794 0.00267531 0.00000000
2.58099610 1.29209145 0.00079164 0.00000000
0.81709693 1.57695118 -0.00114577 0.00000000
3.95567043 0.67632880 -0.00099430 0.00000000
2.78288159 1.18394164 0.00229451 0.00000000
0.21540617 0.41979266 0.00155866 0.00000000
1.75368562 1.03056014 0.00369734 0.00000000
0.98276005 1.33629943 0.00217518 0.00000000
4.06010452 0.71724297 0.00015682 0.00000000
1.11092543 1.52357023 0.00098024 0.00000000
3.32032247 0.91241491 0.00123182 0.00000000
0.59475156 0.45086333 -0.00216099 0.00000000
2.11201962 1.24523325 -0.00210673 0.00000000
4.37586281 1.01452246 0.00035936 0.00000000
4.56275069 0.06980506 -0.00119317 0.00000000
0.10718214 0.69405758 -0.00082597 0.00000000
0.44360719 1.05844566 -0.00235374 0.00000000
4.21600635 0.24080951 -0.00309265 0.00000000
1.06998251 0.14978859 -0.00461394 0.00000000
2.00317769 1.56318831 0.00354857 0.00000000
2.53732164 0.23364885 -0.00376768 0.00000000
3.37005801 0.25036929 0.00026136 0.00000000
2.02258420 0.75997946 0.00120757 0.00000000
3.11525595 1.54232582 -0.00059691 0.00000000
1.77874643 0.73145342 0.00442902 0.00000000
3.78738368 0.24953371 0.00114779 0.00000000
1.32854030 1.10868017 0.00238396 0.00000000
3.22784800 0.12474253 -0.00380368 0.00000000
0.72669675 0.09149563 0.00168632 0.00000000
2.79520824 0.95500504 0.00335147 0.00000000
3.49196359 1.45794550 -0.00246554 0.00000000
0.33521708 0.85083156 -0.00051165 0.00000000
1.24392747 0.51166882 -0.00024657 0.00000000
2.14102101 1.32607341 0.00207463 0.00000000
3.48038376 0.11410205 0.00140342 0.00000000
3.22781269 0.71802876 -0.00335033 0.00000000
0.26318954 1.12500079 0.00095631 0.00000000
0.71974313 0.95288734 -0.00129734 0.00000000
4.47798322 0.36387992 -0.00077058 0.00000000
2.58324523 0.21888895 -0.00009704 0.00000000
0.44062785 0.86129814 0.00232459 0.00000000
0.18997427 1.15873207 -0.00375470 0.00000000
3.58076546 0.54995664 0.00020555 0.00000000
2.37114874 1.23510828 0.00133300 0.00000000
1.72372057 1.47964909 -0.00295709 0.00000000
2.81464382 0.13644774 -0.00041901 0.00000000
1.74995407 0.46565735 0.00033746 0.00000000
2.58050419 1.35302935 -0.00444347 0.00000000
3.48005052 0.80221022 -0.00447312 0.00000000
3.15281489 0.70935705 0.00314472 0.00000000
0.75091791 1.46439807 0.00267126 0.00000000
1.92341963 1.44158632 0.00174403 0.00000000
3.10945063 0.03247155 -0.00191054 0.00000000
1.64907323 0.42090803 -0.00183449 0.00000000
0.24310061 0.71441147 -0.00082348 0.00000000
0.28443081 0.07211673 0.00011602 0.00000000
4.63933714 1.61496413 0.00381361 0.00000000
1.24286462 0.73095797 0.00133697 0.00000000
0.10962048 0.81543274 0.00368410 0.00000000
3.23711610 1.28452938 0.00369544 0.00000000
4.37740888 1.26815962 -0.00140406 0.00000000
0.41573014 0.59664397 0.00004459 0.00000000
0.12977550 0.61824533 -0.00109687 0.00000000
2.51295749 1.41346660 0.00118005 0.00000000
0.79886772 0.64182809 0.00405371 0.00000000
4.25939889 1.10427033 0.00882920 0.00000000
3.14774563 1.41492584 -0.00163618 0.00000000
3.07545810 0.71316128 -0.00036964 0.00000000
4.13218453 1.54366378 -0.00007542 0.00000000
1.81749469 0.87466045 -0.00403569 0.00000000
2.33862065 0.62293829 0.00289041 0.00000000
3.82331539 1.42639459 0.00142574 0.00000000
3.78885174 0.47029377 0.00047565 0.00000000
2.36296889 0.42071953 0.00166014 0.00000000
3.07943028 1.16857765 -0.00270638 0.00000000
3.08536560 0.04633902 -0.00025949 0.00000000
3.68079612 1.14769001 -0.00038265 0.00000000
2.07730569 1.58443931 0.00096426 0.00000000
1.32190285 0.47081137 0.00037190 0.00000000
0.06621571 0.82389540 0.00485773 0.00000000
0.17535191 0.16449577 0.00070108 0.00000000
4.07968784 0.55660415 -0.00416001 0.00000000
0.94781721 0.80525715 -0.00070932 0.00000000
0.14980620 0.26670242 -0.00054965 0.00000000
4.37072003 1.25080603 -0.00093153 0.00000000
0.06573845 0.21672968 0.00013911 0.00000000
1.45667482 0.96301771 0.00272707 0.00000000
0.18812355 0.18612834 -0.00083014 0.00000000
2.90301226 1.34279792 -0.00031792 0.00000000
4.04084875 0.90181375 -0.00166527 0.00000000
0.98956381 0.14065584 -0.00333761 0.00000000
1.60922248 0.13786789 -0.00162418 0.00000000
3.08692335 0.13185465 0.00161792 0.00000000
3.13332268 1.46807065 -0.00080679 0.00000000
4.61900249 0.55171108 0.00143974 0.00000000
1.65632736 0.53689752 -0.00107360 0.00000000
2.27626809 1.16095584 0.00412986 0.00000000
1.12145171 0.91911043 0.00065412 0.00000000
0.22149506 1.50201988 -0.00291195 0.00000000
4.28467711 0.68565613 0.00400750 0.00000000
0.35036706 0.52252078 0.00440253 0.00000000
1.94865974 0.51275368 0.00280361 0.00000000
4.51515170 1.54883358 0.00603592 0.00000000
3.05436034 0.13696470 0.00710575 0.00000000
2.99350488 0.85057695 0.00067614 0.00000000
3.60550256 1.36418161 0.00109854 0.00000000
0.08132324 1.22138682 -0.00330949 0.00000000
3.31633735 1.48746542 0.00749159 0.00000000
3.13164442 0.00686703 -0.00068604 0.00000000
3.50639881 0.57341926 0.00361530 0.00000000
1.92303871 1.18293059 -0.00286440 0.00000000
3.16099454 1.33843699 -0.00393859 0.00000000
0.10390763 1.43609971 0.00088327 0.00000000
4.31528919 0.35040369 0.00083938 0.00000000
0.46509927 1.00841423 0.00356960 0.00000000
4.52938854 0.11999217 -0.00327016 0.00000000
3.77526969 0.79730354 0.00186938 0.00000000
2.63730938 0.40115486 -0.00242661 0.00000000
2.52045171 0.04893950 0.00079638 0.00000000
2.89324480 1.37195725 -0.00309874 0.00000000
4.10378265 0.86448866 -0.00010732 0.00000000
1.68192914 1.51415681 -0.00218632 0.00000000
1.24156269 0.60386991 -0.00293049 0.00000000
0.78067825 1.32605783 -0.00171354 0.00000000
0.00562237 1.40428952 0.00033594 0.00000000
4.43664139 0.54535185 -0.00013423 0.00000000
0.77162561 0.50346853 0.00136842 0.00000000
2.66431355 0.15289077 -0.00243636 0.00000000
4.54498054 1.40398675 0.00267965 0.00000000
0.68366636 0.66061856 0.00314053 0.00000000
2.75687918 0.36279754 0.00139286 0.00000000
3.31706093 0.77570115 0.00223310 0.00000000
0.38969476 1.14359107 0.00606832 0.00000000
2.31641415 0.24371854 -0.00191922 0.00000000
2.77006762 0.75075693 -0.00122439 0.00000000
1.14425615 0.80189374 -0.00189379 0.00000000
2.96161652 0.54034676 -0.00065794 0.00000000
3.31996320 0.64100777 0.00130238 0.00000000
3.02711144 0.70909869 0.00305380 0.00000000
0.12654715 1.25206798 0.00432368 0.00000000
2.91175256 0.81544628 -0.00180781 0.00000000
3.46028317 0.35949236 -0.00230185 0.00000000
0.53987565 0.45710449 0.00312040 0.00000000
3.87573574 0.89811486 0.00003648 0.00000000
2.32884437 0.39423420 0.00288760 0.00000000
0.41965292 1.43152750 0.00082837 0.00000000
3.74012887 0.61142259 -0.00273238 0.00000000
2.39347536 0.93576639 0.00455837 0.00000000
1.01395409 1.59302346 -0.00130693 0.00000000
2.40924162 1.15519476 -0.00119052 0.00000000
1.32506165 1.49118745 0.00484966 0.00000000
4.82691223 0.84263280 -0.00208672 0.00000000
1.86259686 0.52401213 -0.00276790 0.00000000
4.84827726 1.23354196 -0.00291688 0.00000000
1.05537356 1.01001337 -0.00363338 0.00000000
1.07606662 0.99380063 -0.00190674 0.00000000
2.28718473 0.86493799 0.00004115 0.00000000
0.02476388 1.01197064 -0.00227821 0.00000000
1.65255540 1.28449928 -0.00477404 0.00000000
1.91611342 0.95503071 -0.00045651 0.00000000
1.78830411 0.97876860 0.00535100 0.00000000
1.08494703 0.55737360 0.00378323 0.00000000
4.29147191 0.23168253 -0.00170797 0.00000000
0.84762057 0.02473460 -0.01099059 0.00000000
0.84488282 0.05180374 0.00292025 0.00000000
2.49838038 0.68107801 0.00033511 0.00000000
0.89865608 1.08225629 0.00315669 0.00000000
0.53980879 0.04401716 0.00237328 0.00000000
3.46006419 0.89029682 -0.00259893 0.00000000
4.40884630 0.66690946 -0.00240184 0.00000000
4.32035445 0.58009031 -0.00024083 0.00000000
3.74359444 1.02470669 -0.00213881 0.00000000
2.66607324 0.75705142 -0.00184949 0.00000000
2.38701740 1.28308089 0.00093200 0.00000000
4.04910357 0.63203419 -0.00162700 0.00000000
0.70887751 0.90604793 -0.00463035 0.00000000
4.42852762 0.37974269 0.00292297 0.00000000
3.11428236 0.11140478 -0.00171694 0.00000000
4.43416261 0.24384212 0.00102866 0.00000000
0.78674651 0.39744877 0.00005625 0.00000000
0.79425641 0.49215203 0.00232215 0.00000000
1.16928461 0.80779095 -0.00121725 0.00000000
3.00243976 1.48098829 0.00239921 0.00000000
4.18502438 0.45810907 0.00252672 0.00000000
1.89665494 1.01104195 -0.00374917 0.00000000
0.60305810 1.14920070 0.00100777 0.00000000
2.94549029 0.47361000 -0.00018639 0.00000000
0.00721276 1.26922451 0.00039430 0.00000000
0.13397538 0.78863052 0.00166466 0.00000000
4.60620173 1.35623307 0.00122881 0.00000000
1.83683893 1.53562435 -0.00075355 0.00000000
4.37508937 0.57799934 -0.00257627 0.00000000
4.74089066 0.15017350 0.00125953 0.00000000
3.18266667 0.63637979 0.00510932 0.00000000
2.67331786 0.70840209 -0.00114633 0.00000000
0.32815347 0.40432165 -0.00084858 0.00000000
2.02072866 1.14423133 -0.00446857 0.00000000
2.54260250 0.97082757 0.00382272 0.00000000
1.61834507 0.85116545 -0.00302878 0.00000000
2.26718733 0.46537065 -0.00211258 0.00000000
2.63183430 0.15206120 -0.00140641 0.00000000
1.78143540 0.82983178 0.00111685 0.00000000
0.35859771 0.72456458 -0.00278862 0.00000000
2.17875162 0.79917862 -0.00473832 0.00000000
4.07858957 1.33996323 -0.00038258 0.00000000
2.81536753 1.08059175 0.00178318 0.00000000
2.30749894 0.63075615 -0.00250754 0.00000000
0.13023964 1.51156464 -0.00049075 0.00000000
3.57890761 0.85411756 -0.00227316 0.00000000
4.44420544 1.45414951 -0.00181391 0.00000000
2.20553216 1.21793087 0.00098998 0.00000000
2.53117498 1.19090787 -0.00142200 0.00000000
3.59587617 0.46633897 -0.00061981 0.00000000
1.88803266 1.50775726 -0.00258774 0.00000000
4.16024827 1.52110729 0.00265194 0.00000000
1.28307003 0.53997006 -0.00462716 0.00000000
3.48657215 0.81597020 -0.00048774 0.00000000
3.96710704 0.34182865 0.00463376 0.00000000
1.30001308 1.11815995 0.00145834 0.00000000
3.26150357 1.21626543 -0.00402321 0.00000000
0.19795350 0.46095645 -0.00328009 0.00000000
2.21019245 0.53529255 -0.00107061 0.00000000
3.97678225 0.35030706 0.00273119 0.00000000
3.96175331 0.15347397 0.00306754 0.00000000
0.88804254 0.21628487 -0.00281820 0.00000000
4.49742554 0.60520732 0.00261076 0.00000000
0.58025744 0.18923950 -0.00242782 0.00000000
4.19718977 0.43238494 -0.00241901 0.00000000
4.19943212 1.37568329 0.00056499 0.00000000
2.21478944 0.84546226 0.00305898 0.00000000
2.76708619 1.05175060 0.00031294 0.00000000
1.29619712 1.21999049 0.00170192 0.00000000
1.82467387 0.93924146 -0.00026868 0.00000000
0.03884555 0.40976275 0.00242917 0.00000000
1.94317209 0.30531096 -0.00048448 0.00000000
3.87107956 1.15620381 0.00297020 0.00000000
1.12183177 0.86900000 -0.00465197 0.00000000
1.08664398 0.89389679 0.00109581 0.00000000
4.41980375 1.57563239 0.00393989 0.00000000
3.75809273 0.29272926 0.00142806 0.00000000
1.60198004 0.32784600 0.00281851 0.00000000
0.11074630 0.81745424 0.00079845 0.00000000
4.73392800 0.91380637 0.00245397 0.00000000
4.57541388 0.55894812 0.00103934 0.00000000
3.64385371 0.26303029 -0.00209848 0.00000000
0.89688271 1.61388033 -0.00290072 0.00000000
2.97820443 0.60662157 0.00479363 0.00000000
0.02325709 0.44643538 -0.00288159 0.00000000
1.96555064 0.06115857 0.00435413 0.00000000
0.37523779 1.48558287 -0.00116208 0.00000000
3.04323468 0.26068364 0.00197844 0.00000000
4.36956822 1.23040952 0.00125715 0.00000000
2.48246266 0.19983916 -0.00328002 0.00000000
3.81498283 1.52077800 -0.00021521 0.00000000
1.27763847 0.55675042 0.00093219 0.00000000
0.67301492 0.45023322 -0.00173195 0.00000000
4.10150794 1.47989189 0.00161311 0.00000000
0.97170187 0.37286751 -0.00473917 0.00000000
2.75332381 1.57883005 -0.00173773 0.00000000
4.04462311 0.09507590 0.00066207 0.00000000
2.75967591 0.18353303 0.00270411 0.00000000
2.58213767 0.35916952 -0.00015249 0.00000000
3.41539308 0.95598563 0.00078568 0.00000000
0.93856551 1.60555210 -0.00131171 0.00000000
1.12280962 0.74786616 0.00097855 0.00000000
1.85278307 0.17685759 -0.00262093 0.00000000
4.61327573 1.44492814 -0.00384088 0.00000000
2.33496292 0.88507832 0.00010067 0.00000000
1.13231656 0.83981966 0.00163662 0.00000000
3.18644036 1.05180481 -0.00152949 0.00000000
4.50316418 1.44883058 -0.00100166 0.00000000
2.71656316 0.94490140 0.00141006 0.00000000
0.13370122 0.90171213 -0.00142961 0.00000000
3.11144659 0.62737447 -0.00170352 0.00000000
3.11488480 1.24679915 -0.00106487 0.00000000
1.62182714 1.41212779 0.00167416 0.00000000
1.80059761 0.38565233 0.00282559 0.00000000
3.30474418 0.98360798 -0.00048701 0.00000000
4.59496837 0.87235904 -0.00147855 0.00000000
2.35264598 1.55083443 -0.00063213 0.00000000
0.48832973 0.27852585 -0.00123050 0.00000000
2.80261182 1.37332101 -0.00091277 0.00000000
0.21211009 0.37609155 0.00392772 0.00000000
0.64232403 0.32521573 0.00004091 0.00000000
2.84155813 1.52754795 0.00370796 0.00000000
4.66913855 0.38141650 -0.00119716 0.00000000
4.73341252 0.81648658 -0.00030890 0.00000000
0.35748117 0.82291232 -0.00017957 0.00000000
0.22347395 0.80147821 0.00373282 0.00000000
4.83051449 0.22595772 -0.00276169 0.00000000
4.80011656 1.11256684 0.00200702 0.00000000
4.31467487 1.34831687 -0.00198874 0.00000000
1.88317193 0.67973555 -0.00505326 0.00000000
1.20950039 0.48967876 -0.00164933 0.00000000
0.84863763 1.55237673 0.00195988 0.00000000
3.92603617 1.28960346 0.00090141 0.00000000
2.03294244 1.03817051 0.00096649 0.00000000
2.67307822 1.23820340 -0.00544519 0.00000000
1.88611540 1.50776819 -0.00445832 0.00000000
0.10266715 1.56414387 -0.00239099 0.00000000
0.80025350 0.37976711 -0.00215140 0.00000000
0.85741634 1.18003814 0.00445956 0.00000000
1.02626040 0.62627641 -0.00201158 0.00000000
2.11614704 0.13070638 0.00087081 0.00000000
0.39443833 1.19958321 0.00204063 0.00000000
1.75368849 0.49426324 -0.00057346 0.00000000
3.63944512 0.33906792 0.00089705 0.00000000
1.30157928 1.01299654 0.00069079 0.00000000
3.27107683 0.37311138 0.00032421 0.00000000
4.20701850 1.42650024 -0.00418769 0.00000000
0.66045882 1.50410616 0.00049383 0.00000000
0.39487201 0.38258547 -0.00203185 0.00000000
3.30332517 1.23959317 -0.00189627 0.00000000
3.44021467 0.12591955 -0.00196384 0.00000000
2.67376850 0.74568335 0.00154027 0.00000000
1.81482220 0.77476208 0.00002131 0.00000000
2.91089361 1.46183749 -0.00220698 0.00000000
1.48793211 1.51067137 -0.00237528 0.00000000
2.84133908 0.41573385 0.00146699 0.00000000
2.88045349 1.52654980 -0.00140963 0.00000000
3.65653811 1.14473119 -0.00273068 0.00000000
2.56821059 0.45321809 -0.00119359 0.00000000
1.87527772 0.43490950 0.00303433 0.00000000
4.02318979 0.53659634 0.00188800 0.00000000
2.10356114 0.54897576 0.00402302 0.00000000
0.56166024 1.12174577 0.00175445 0.00000000
1.69597645 1.13303014 -0.00260602 0.00000000
0.43700326 0.17454521 0.00158411 0.00000000
0.35387292 0.31205408 -0.00066765 0.00000000
4.34319200 0.42383244 -0.00031617 0.00000000
0.39957365 0.88250329 0.00243612 0.00000000
0.79852192 1.21849055 -0.00357091 0.00000000
2.49085658 0.20146134 0.00109836 0.00000000
4.12241493 1.61278343 0.00376522 0.00000000
1.32668998 0.74061280 0.00353814 0.00000000
3.48920088 1.42814677 0.00462841 0.00000000
1.66393899 1.32508081 0.00159367 0.00000000
1.30092532 0.29263112 0.00477426 0.00000000
4.53365329 0.97218502 0.00353513 0.00000000
0.68306614 1.00416106 0.00375774 0.00000000
2.36099156 0.33980749 -0.00294561 0.00000000
1.76049886 1.24219450 -0.00219551 0.00000000
1.68522747 0.64041548 -0.00326626 0.00000000
4.16675006 1.19989365 -0.00608046 0.00000000
4.20403014 0.65955937 -0.00055104 0.00000000
0.90459556 1.24538286 0.00103298 0.00000000
1.98529485 0.15171050 -0.00033540 0.00000000
0.79993870 1.13619605 -0.00107061 0.00000000
3.47640728 0.16043724 -0.00081351 0.00000000
3.87380910 1.40823928 -0.00269120 0.00000000
2.82856477 1.05019921 -0.00243715 0.00000000
1.13867337 0.27151391 0.00011202 0.00000000
1.57236517 1.10386842 -0.00293200 0.00000000
0.27455823 0.86356769 -0.00279213 0.00000000
3.77987029 0.91693158 -0.00083405 0.00000000
1.67443674 0.30722411 0.00164983 0.00000000
1.22937170 0.11090832 0.00254373 0.00000000
0.05211230 0.23002138 0.00129022 0.00000000
1.89637373 1.11491822 -0.00061258 0.00000000
1.64505676 1.38222448 0.00225323 0.00000000
1.47658952 0.17214779 -0.00265377 0.00000000
0.68935708 0.30418225 0.00095725 0.00000000
3.32169187 1.51754742 0.00009176 0.00000000
1.92960360 0.45826349 -0.00243929 0.00000000
3.85982400 1.24942110 0.00042226 0.00000000
3.58112893 0.72183087 -0.00095200 0.00000000
0.89522390 1.46003714 0.00150684 0.00000000
2.79233861 0.92950031 -0.00131191 0.00000000
2.42083695 0.52044986 -0.00046739 0.00000000
0.13811393 0.36206832 -0.00088021 0.00000000
1.37727653 0.91479033 -0.00046315 0.00000000
1.98158557 1.09167312 -0.00249240 0.00000000
0.88652935 1.17440926 -0.00242523 0.00000000
3.02687548 0.59519299 -0.00167020 0.00000000
2.61643420 1.56612536 0.00309201 0.00000000
2.57027213 0.04559126 -0.00243265 0.00000000
0.29655846 1.54246372 0.00094342 0.00000000
3.19172518 1.54527427 -0.00382337 0.00000000
1.67110428 0.46600115 -0.00064330 0.00000000
3.62284082 0.37330275 -0.00368963 0.00000000
1.38078209 1.52378018 0.00354256 0.00000000
4.38274908 0.46824394 -0.00167246 0.00000000
1.05625347 1.41939951 0.00545836 0.00000000
4.84497911 1.28349281 0.00202712 0.00000000
1.39160193 0.49999598 -0.00416719 0.00000000
2.76907506 1.57565680 -0.00313989 0.00000000
4.30668434 0.62834611 0.00079538 0.00000000
1.74348172 1.09915724 0.00271297 0.00000000
0.74514595 1.15362428 -0.00344582 0.00000000
4.71241500 1.02175416 -0.00088535 0.00000000
4.46526831 1.10603681 -0.00159990 0.00000000
1.52131202 1.18100831 0.00234284 0.00000000
0.48314120 0.46570728 -0.00406280 0.00000000
4.28298583 0.92800493 -0.00218252 0.00000000
3.80725732 0.42063468 0.00175679 0.00000000
2.99028985 0.56685006 -0.00153438 0.00000000
4.32005603 1.40773950 -0.00083044 0.00000000
2.45081321 0.20977136 -0.00338061 0.00000000
1.21070945 0.82787380 0.00387401 0.00000000
0.31982427 0.48662899 -0.00055983 0.00000000
1.85237548 0.14220878 -0.00072419 0.00000000
0.20517870 0.96537433 0.00217961 0.00000000
3.43125699 1.56309852 -0.00192862 0.00000000
4.06597028 0.54796809 0.00274564 0.00000000
0.44967834 1.58241637 0.00070492 0.00000000
1.76356060 0.28459955 -0.00111469 0.00000000
4.07996446 0.67236977 -0.00405457 0.00000000
0.99551208 0.79836534 -0.00396189 0.00000000
2.40241560 0.37280614 -0.00030630 0.00000000
1.39628970 0.00820090 0.00287383 0.00000000
0.22501891 1.20350736 -0.00219321 0.00000000
4.09884058 1.08566337 -0.00084378 0.00000000
0.57107980 0.38435172 -0.00009765 0.00000000
0.62102713 1.54875096 -0.00281840 0.00000000
3.75785348 0.65158230 0.00372448 0.00000000
1.67624674 0.72677740 0.00128236 0.00000000
1.81674770 0.83424966 0.00181126 0.00000000
1.82293980 1.20050485 -0.00044694 0.00000000
3.59387368 0.77267894 -0.00019160 0.00000000
0.26587719 0.63632953 -0.00140991 0.00000000
2.71901869 1.45898207 -0.00520729 0.00000000
4.13762289 0.70615649 0.00027778 0.00000000
1.98323907 1.12938456 0.00236613 0.00000000
2.13321087 0.71022515 -0.00198098 0.00000000
2.81325475 0.56326060 -0.00042868 0.00000000
0.94434454 0.72338968 0.00128107 0.00000000
2.75171003 1.09041090 0.00057020 0.00000000
3.02778762 0.77377272 0.00145663 0.00000000
0.37724130 1.29719079 0.00112117 0.00000000
4.66427099 0.30345466 -0.00048267 0.00000000
0.10540866 0.49484276 0.00037279 0.00000000
0.57225879 0.73371891 -0.00283264 0.00000000
1.84526641 0.10775822 0.00025369 0.00000000
3.65020901 0.28237934 -0.00195699 0.00000000
3.95773039 0.42502532 -0.00336747 0.00000000
4.32946467 1.43379943 -0.00337812 0.00000000
2.11311423 0.68379706 -0.00147814 0.00000000
1.83296060 1.20017059 0.00117351 0.00000000
2.97505317 1.58559368 0.00197794 0.00000000
4.70411563 1.49040183 -0.00571756 0.00000000
0.44373145 0.83771415 -0.00056387 0.00000000
3.28180508 0.89319645 -0.00395159 0.00000000
3.01632684 0.07904082 0.00267294 0.00000000
1.28495098 1.16203755 -0.00517129 0.00000000
1.60695201 1.30639918 -0.00038959 0.00000000
3.84693341 0.87468298 -0.00033123 0.00000000
3.89274880 0.41168177 0.00459543 0.00000000
3.56446355 0.25147723 0.00644555 0.00000000
0.97534270 1.51911616 -0.00198358 0.00000000
4.37758672 1.28480117 -0.00132723 0.00000000
4.82349363 1.47805124 0.00238177 0.00000000
0.38387957 0.66591136 -0.00217891 0.00000000
1.39356065 0.33853736 -0.00409978 0.00000000
2.55435204 0.86759892 0.00066404 0.00000000
3.63092468 0.51193577 0.00184678 0.00000000
1.23633841 1.59991612 -0.00366261 0.00000000
3.18599983 0.01341530 0.00193210 0.00000000
3.06098977 0.38775203 -0.00119645 0.00000000
4.83527694 0.72064418 -0.00090464 0.00000000
1.24834972 1.40550110 -0.00528101 0.00000000
2.87347208 1.36879915 0.00095598 0.00000000
2.77141144 0.15983265 0.00559186 0.00000000
4.45127028 0.80540351 -0.00097899 0.00000000
4.58997789 1.54760138 -0.00403970 0.00000000
0.49790252 0.55339187 -0.00098281 0.00000000
3.77628476 0.52989678 0.00058306 0.00000000
3.72413256 0.05156345 -0.00034539 0.00000000
0.62533611 1.04185096 0.00144921 0.00000000
3.11373195 0.06726145 0.00139443 0.00000000
2.60155729 1.28530722 0.00032874 0.00000000
4.61936924 0.14932093 -0.00019499 0.00000000
1.81514602 0.23251587 0.00038906 0.00000000
4.02588433 0.06802565 -0.00568488 0.00000000
0.86487455 1.33298791 0.00042621 0.00000000
1.34329284 1.10259438 0.00378911 0.00000000
3.00424746 1.02448207 -0.00011173 0.00000000
3.95433428 1.43979199 -0.00128881 0.00000000
1.86357599 0.23776084 -0.00107305 0.00000000
3.23894194 1.36252095 -0.00055704 0.00000000
2.71473888 0.62280630 -0.00109054 0.00000000
3.50578148 1.35669314 -0.00049652 0.00000000
3.55789435 0.28241470 -0.00097819 0.00000000
1.50888767 1.53292591 -0.00358137 0.00000000
0.14073753 0.45597230 -0.00021537 0.00000000
0.23967100 1.53255595 -0.00181985 0.00000000
4.10700041 0.06096916 0.00051102 0.00000000
1.26109578 0.39343218 0.00360158 0.00000000
3.49847069 0.44606766 0.00031759 0.00000000
1.00592330 0.40313135 0.00266639 0.00000000
2.86481629 0.07131659 0.00134476 0.00000000
3.66746477 0.09985694 0.00030871 0.00000000
4.29734922 0.87969246 -0.00108015 0.00000000
3.76198038 0.14887200 -0.00202345 0.00000000
1.82878795 1.34909458 -0.00366058 0.00000000
0.68275594 0.82268791 0.00134995 0.00000000
4.23404198 0.72606997 0.00000715 0.00000000
2.77100735 1.32186880 0.00436515 0.00000000
0.50798852 0.84317277 -0.00115234 0.00000000
1.33795002 0.55388690 0.00083460 0.00000000
0.19288878 1.12960960 -0.00030624 0.00000000
3.73863812 1.16449562 -0.00265027 0.00000000
1.23212611 1.31077868 0.00059578 0.00000000
2.96953828 1.15028425 -0.00198854 0.00000000
1.30482672 0.15897712 -0.00350386 0.00000000
0.82007315 0.83843614 -0.00133244 0.00000000
1.05327577 1.57738651 -0.00213466 0.00000000
4.03755001 0.10354933 0.00230092 0.00000000
3.10995185 1.20924083 0.00331967 0.00000000
2.15256246 1.41585806 -0.00642020 0.00000000
0.45474858 0.66872365 0.00094655 0.00000000
1.15506290 0.50926471 0.00110172 0.00000000
1.80979708 0.63798492 -0.00026589 0.00000000
2.71192945 0.04463565 0.00186103 0.00000000
2.83223156 1.29798718 -0.00096436 0.00000000
1.82526060 0.23155311 0.00331586 0.00000000
2.18201502 1.35907585 0.00080720 0.00000000
4.74771530 1.16703933 -0.00077484 0.00000000
2.29022198 0.34991369 0.00021030 0.00000000
3.30087696 0.99686513 -0.00167490 0.00000000
1.37126284 1.09523546 0.00354414 0.00000000
0.27308080 0.00557671 0.00241569 0.00000000
1.03104623 0.54049136 0.00191743 0.00000000
0.87159578 1.33001923 -0.00166388 0.00000000
1.55070316 1.05402682 -0.00187086 0.00000000
2.20788213 0.29587539 0.00292115 0.00000000
4.18417015 0.04836652 -0.00247502 0.00000000
4.33317078 0.27215006 -0.00608261 0.00000000
0.81039713 1.30460337 0.00140467 0.00000000
2.11592192 0.55874153 0.00123705 0.00000000
2.80031962 0.99850751 0.00337242 0.00000000
3.75970814 1.33072639 0.00346391 0.00000000
4.66498872 0.63325345 -0.00352996 0.00000000
2.93921886 1.26505567 0.00027098 0.00000000
1.76348813 0.99402508 -0.00210952 0.00000000
3.57175385 0.27646536 0.00175901 0.00000000
3.11859581 0.30358153 -0.00093085 0.00000000
4.62978574 1.24624964 0.00162853 0.00000000
4.53101606 0.20757587 -0.00393693 0.00000000
3.85227884 0.53787795 0.00286185 0.00000000
4.83630122 1.05440824 0.00145691 0.00000000
4.29307355 1.09278270 0.00059619 0.00000000
2.40560169 1.52287021 -0.00272800 0.00000000
3.42632249 0.26605975 0.00259078 0.00000000
1.45846036 0.18672525 0.00266469 0.00000000
2.03863850 0.65194947 0.00029896 0.00000000
3.03522526 0.22718563 0.00126175 0.00000000
1.91984717 0.99902222 0.00011936 0.00000000
4.37636521 1.55909315 -0.00195974 0.00000000
0.09829491 0.80669293 -0.00081134 0.00000000
1.30390147 0.75085229 0.00318353 0.00000000
3.24104363 0.15653223 0.00211370 0.00000000
0.82537157 0.80199420 0.00320862 0.00000000
0.67480787 1.49740232 -0.00136542 0.00000000
0.18421298 0.03558203 0.00114612 0.00000000
3.85314980 1.32829235 0.00192747 0.00000000
0.42227421 1.01222263 0.00381149 0.00000000
0.27127462 1.38072853 0.00067031 0.00000000
0.28034008 1.56756812 0.00115701 0.00000000
0.87456640 0.04037635 -0.00003424 0.00000000
3.87449791 1.20434154 -0.00216636 0.00000000
0.28887444 1.15066749 -0.00202639 0.00000000
1.55702346 0.90486436 -0.00304670 0.00000000
1.12041530 0.25581292 0.00116050 0.00000000
1.76769937 0.86352513 -0.00628981 0.00000000
3.36217082 1.14908036 -0.00396551 0.00000000
3.19130783 0.89598122 0.00341357 0.00000000
1.68286612 0.72782500 -0.00080189 0.00000000
2.09215123 1.48164938 -0.00314735 0.00000000
1.56255038 0.15158476 0.00393587 0.00000000
2.90447802 0.60508274 -0.00065002 0.00000000
3.28649780 1.48349602 -0.00206807 0.00000000
3.16321766 0.62756272 -0.00339499 0.00000000
0.06135147 1.49893439 0.00378028 0.00000000
0.25202356 1.18442160 -0.00258819 0.00000000
4.50836038 0.66352816 0.00208517 0.00000000
0.18225834 1.30831187 -0.00023868 0.00000000
2.35610991 0.70345511 0.00144778 0.00000000
1.97230872 0.53416418 0.00185773 0.00000000
3.28902355 1.46567975 -0.00048527 0.00000000
3.64371350 0.17282437 0.00095369 0.00000000
1.59982999 0.04432045 -0.00074851 0.00000000
1.58902280 1.53889066 0.00039746 0.00000000
4.04613000 0.63294606 -0.00041832 0.00000000
0.13906362 1.07183796 -0.00042966 0.00000000
3.54629831 0.72203869 -0.00196822 0.00000000
3.79144398 0.80677257 -0.00131580 0.00000000
0.78009876 0.40628797 -0.00173684 0.00000000
3.45294895 0.23870886 -0.00120764 0.00000000
2.70833564 0.22590726 0.00313068 0.00000000
4.08979271 1.17907643 0.00157740 0.00000000
3.09581027 1.51383821 0.00004340 0.00000000
0.79607827 0.01578694 0.00545513 0.00000000
0.14575615 0.12860449 0.00128684 0.00000000
1.05290568 0.87988392 -0.00384454 0.00000000
1.43814198 0.97440467 0.00192323 0.00000000
1.09508606 0.96616976 -0.00193686 0.00000000
0.15158732 0.91534454 -0.00084561 0.00000000
1.16973661 0.53046415 -0.00178837 0.00000000
3.85960871 0.23298798 0.00095526 0.00000000
0.34834142 1.54571552 0.00094210 0.00000000
0.23249287 0.76360932 -0.00202742 0.00000000
0.32740188 0.52537104 0.00151878 0.00000000
3.13953706 1.20101805 0.00031410 0.00000000
4.03373864 0.60194193 -0.00017713 0.00000000
2.33113632 0.56774191 -0.00117748 0.00000000
4.14033026 0.35993611 -0.00372387 0.00000000
3.44343013 0.08894014 -0.00027890 0.00000000
1.32475902 0.24405170 0.00189446 0.00000000
3.85863955 0.65182337 -0.00019988 0.00000000
4.38314258 0.48137384 0.00144578 0.00000000
2.66450231 1.26157901 0.00224439 0.00000000
4.59751687 0.86584280 0.00039152 0.00000000
4.67092565 0.33693684 -0.00154223 0.00000000
3.55871071 1.09493363 0.00126395 0.00000000
1.57442734 0.46593424 0.00133641 0.00000000
2.27088907 0.68598682 -0.00005663 0.00000000
1.49552636 1.19878861 0.00059093 0.00000000
3.54910021 1.27921762 0.00389418 0.00000000
3.47628671 1.14345507 0.00236099 0.00000000
4.43403455 1.02556751 0.00173673 0.00000000
2.71990653 1.56653467 -0.00019818 0.00000000
2.31032833 1.15837883 -0.00168911 0.00000000
0.79453562 0.61101884 0.00288156 0.00000000
1.35248813 0.01174448 -0.00389467 0.00000000
2.60852706 0.79870868 0.00005389 0.00000000
3.17410302 0.97308123 -0.00324455 0.00000000
4.70604802 0.52520780 0.00247481 0.00000000
4.43464190 1.59386495 0.00184287 0.00000000
2.47129530 0.03698313 -0.00105939 0.00000000
1.14390014 1.43808718 -0.00226013 0.00000000
1.85594074 1.13215016 0.00066456 0.00000000
0.19999641 1.59218076 -0.00159297 0.00000000
2.22017583 0.52973365 -0.00328408 0.00000000
1.04453786 0.75183664 -0.00369281 0.00000000
1.33900786 0.00535336 0.00286367 0.00000000
0.30251069 1.38156688 -0.00018666 0.00000000
3.02207520 0.77697963 -0.00017251 0.00000000
1.02858215 0.46925103 -0.00269226 0.00000000
3.74929257 1.22200258 0.00160940 0.00000000
0.83331257 0.29248347 0.00096748 0.00000000
2.70585407 1.33770016 0.00025871 0.00000000
1.98522242 0.76069428 -0.00127730 0.00000000
2.14147228 1.48537869 -0.00061485 0.00000000
2.82501046 0.39099188 -0.00010968 0.00000000
2.74375712 1.43050463 -0.00374416 0.00000000
1.16627187 0.73617719 -0.00197701 0.00000000
1.28733590 0.33677243 0.00238012 0.00000000
2.89109715 0.52719263 0.00223794 0.00000000
2.87541104 1.41317561 0.00103324 0.00000000
4.67276176 0.90167557 0.00454011 0.00000000
3.14656716 1.20428769 0.00079186 0.00000000
1.25188437 1.25034214 0.00612245 0.00000000
3.16286834 0.81871291 -0.00345033 0.00000000
4.14978657 0.18478227 -0.00182045 0.00000000
2.62692406 1.05399626 0.00175350 0.00000000
3.76457034 0.20582515 0.00682923 0.00000000
1.56789221 0.69020009 0.00040375 0.00000000
0.68974308 0.17309971 0.00014199 0.00000000
3.00005730 0.74359217 -0.00191528 0.00000000
2.07850990 0.67386179 0.00153306 0.00000000
1.48603194 1.30463712 0.00308505 0.00000000
0.14786901 0.10005790 0.00177871 0.00000000
0.08369519 0.36774784 0.00325369 0.00000000
1.57053008 0.54409008 -0.00156624 0.00000000
4.41812010 1.09942076 -0.00228010 0.00000000
2.11790729 0.23506459 0.00268804 0.00000000
3.70109831 1.03562753 0.00217776 0.00000000
4.29176435 1.58061414 0.00037476 0.00000000
0.63946681 1.41484960 -0.00479299 0.00000000
0.62059379 0.41133837 0.00109161 0.00000000
4.37615232 1.38390171 -0.00228953 0.00000000
3.80388571 1.51125410 0.00113562 0.00000000
4.63351660 0.68018079 -0.00056334 0.00000000
2.37896677 0.74799801 0.00226492 0.00000000
3.70716473 0.22095235 -0.00091756 0.00000000
2.13021622 0.33360564 -0.00091047 0.00000000
2.27058947 1.04841455 -0.00133881 0.00000000
2.48060364 0.25179996 -0.00092652 0.00000000
1.80403094 0.19014250 0.00184671 0.00000000
3.44889455 1.55585652 -0.00286619 0.00000000
3.71698059 0.58956574 -0.00234116 0.00000000
1.55110668 1.26377567 -0.00240788 0.00000000
0.06413841 0.54129922 0.00030982 0.00000000
2.08972604 0.49266785 0.00318841 0.00000000
3.41694455 0.89094780 0.00267067 0.00000000
1.41412716 0.09381314 0.00224315 0.00000000
3.47481345 1.58017501 -0.00029314 0.00000000
0.43334333 1.55730687 0.00059914 0.00000000
3.32643097 1.39613829 0.00300501 0.00000000
1.63701802 1.15140612 -0.00023748 0.00000000
4.00768988 0.09197291 -0.00092576 0.00000000
3.94024917 0.18761178 -0.00196583 0.00000000
3.44616857 0.12973171 -0.00187890 0.00000000
2.68345724 0.72725832 -0.00145163 0.00000000
3.40804062 0.76731262 -0.00118505 0.00000000
1.73525141 1.48185545 0.00323182 0.00000000
4.40928430 0.32127621 -0.00104411 0.00000000
4.19784544 0.44610999 -0.00110550 0.00000000
2.58744097 0.17464923 0.00258470 0.00000000
4.72822129 1.08237910 -0.00133223 0.00000000
0.30799962 0.50587740 -0.00194914 0.00000000
0.20679990 0.77471228 -0.00169517 0.00000000
2.92793177 0.86185302 0.00388567 0.00000000
2.01875970 0.19799008 0.00170762 0.00000000
3.64167030 0.07271683 0.00099269 0.00000000
0.86675521 0.09365555 0.00235915 0.00000000
0.72456941 0.48714307 0.00285501 0.00000000
3.76599604 0.81811128 0.00112519 0.00000000
4.16901366 0.74163367 0.00066674 0.00000000
1.15001356 1.38111017 0.00201705 0.00000000
2.72989393 1.53833022 0.00240514 0.00000000
4.60547041 0.48246257 -0.00366287 0.00000000
3.01321439 0.46530310 0.00107920 0.00000000
2.33734183 0.86392906 0.00055610 0.00000000
0.25269223 0.70341691 -0.00357341 0.00000000
2.37355555 0.29658673 -0.00044959 0.00000000
2.17991150 0.50505118 -0.00261943 0.00000000
4.54953333 1.15226905 -0.00212938 0.00000000
1.76399447 0.13028646 -0.00657882 0.00000000
4.07111479 1.01176080 0.00015231 0.00000000
3.85800185 0.01339548 -0.00329322 0.00000000
2.53484773 0.33651579 0.00261350 0.00000000
1.87515771 1.11442228 0.00104691 0.00000000
0.80697763 1.10761851 -0.00303652 0.00000000
1.77274153 0.79167025 -0.00251438 0.00000000
1.13428895 0.07996232 -0.00081150 0.00000000
4.33366380 0.82827320 0.00241519 0.00000000
1.72757226 0.73681298 0.00395616 0.00000000
4.35815078 0.31696427 -0.00397843 0.00000000
1.18738562 0.99914947 0.00501593 0.00000000
0.55503073 0.60112342 -0.00189985 0.00000000
2.81613454 1.36884942 0.00137317 0.00000000
1.87729187 0.94592963 0.00075730 0.00000000
1.70090151 0.51313639 0.00448661 0.00000000
1.72028830 0.30155118 0.00409807 0.00000000
1.60590632 0.62107002 0.00287507 0.00000000
0.55159637 1.46152785 -0.00108998 0.00000000
4.49570391 0.83787506 0.00322940 0.00000000
3.46184814 1.20329808 0.00178578 0.00000000
2.33868203 0.35542021 0.00132175 0.00000000
0.24672198 1.33968147 0.00064161 0.00000000
2.60292925 1.13146919 -0.00487555 0.00000000
3.33479414 0.12629567 0.00127579 0.00000000
2.11654731 0.17628138 -0.00221852 0.00000000
1.33434290 0.04892775 -0.00157108 0.00000000
3.06891208 1.16240555 0.00542470 0.00000000
2.28762812 1.42909414 0.00451681 0.00000000
4.77244761 1.42205538 -0.00101091 0.00000000
0.47060975 1.09769178 -0.00193098 0.00000000
4.26866375 0.22385166 0.00091754 0.00000000
2.46566600 1.21822795 0.00128639 0.00000000
2.66085772 0.46797403 -0.00090552 0.00000000
4.13139809 0.69562200 -0.00129153 0.00000000
3.87653397 1.42598459 -0.00042975 0.00000000
2.60813022 1.31409963 -0.00421471 0.00000000
0.78445409 0.45852316 0.00317072 0.00000000
0.90828786 0.53806667 -0.00074758 0.00000000
2.58727980 0.45882423 0.00122171 0.00000000
1.82090482 0.13313005 0.00173035 0.00000000
0.61425066 0.84367320 -0.00012205 0.00000000
4.10589685 0.44296996 0.00192386 0.00000000
4.30091320 0.55601181 -0.00159334 0.00000000
1.62799010 1.06338090 -0.00126856 0.00000000
3.13990725 0.41020493 -0.00276959 0.00000000
4.19319044 1.21643026 0.00274177 0.00000000
4.59782035 1.47357870 -0.00539853 0.00000000
1.44484393 0.42978678 -0.00015427 0.00000000
2.02425837 0.41209036 -0.00472124 0.00000000
4.26587892 0.08924438 0.00184349 0.00000000
4.07754520 0.37347918 0.00279317 0.00000000
3.78139533 0.60809605 0.00268227 0.00000000
1.90024282 0.57315363 0.00072512 0.00000000
1.68636856 1.54940605 0.00330913 0.00000000
0.13467810 1.15358116 -0.00291060 0.00000000
0.00905909 1.06201601 -0.00703168 0.00000000
0.13452375 0.73209645 -0.00709400 0.00000000
1.82749309 1.17397991 -0.00516903 0.00000000
3.01425352 1.37539057 -0.00183755 0.00000000
4.71906434 1.07913601 0.00407243 0.00000000
3.48564942 1.15163996 0.00174388 0.00000000
0.98709716 1.01397811 0.00054949 0.00000000
2.16396616 0.25670510 -0.00263773 0.00000000
0.62772916 1.28176330 0.00002663 0.00000000
3.51103497 0.63676702 0.00146318 0.00000000
4.68528776 0.56682280 0.00392062 0.00000000
2.25390417 0.36691607 -0.00204922 0.00000000
3.92964467 1.04315577 0.00550254 0.00000000
4.23391808 0.89019830 -0.00444728 0.00000000
2.37553674 0.46829869 -0.00004258 0.00000000
3.52836998 0.21714905 -0.00036865 0.00000000
0.99151618 0.70127781 0.00207858 0.00000000
2.60096490 0.66925058 -0.00139854 0.00000000
2.74045783 0.87679303 0.00143786 0.00000000
0.32161915 1.18787689 0.00114024 0.00000000
3.56766231 0.32620540 0.00413257 0.00000000
3.57181066 1.39716663 -0.00044440 0.00000000
3.58351405 0.40499690 0.00101917 0.00000000
4.11179888 0.48705419 0.00332626 0.00000000
2.93021713 0.12822912 -0.00181944 0.00000000
1.00555540 0.88272002 -0.00296047 0.00000000
3.68480595 0.02320286 0.00121657 0.00000000
0.20019817 0.31392962 0.00250913 0.00000000
2.27464668 0.13047259 0.00060340 0.00000000
3.88084298 0.95172558 -0.00004418 0.00000000
0.32997367 0.05975458 0.00295911 0.00000000
4.74175555 1.58696493 -0.00129581 0.00000000
2.64723049 0.10638014 -0.00103408 0.00000000
0.42691355 1.03920197 0.00177026 0.00000000
0.22690500 0.12036623 0.00279885 0.00000000
3.69946069 0.44688941 -0.00127307 0.00000000
3.09266200 0.56805411 -0.00083368 0.00000000
2.05753465 0.10012694 0.00400962 0.00000000
0.61559171 1.08073736 0.00371493 0.00000000
0.55828737 0.66792892 -0.00135414 0.00000000
3.55966981 0.24759067 -0.00240567 0.00000000
2.84284324 1.11119795 0.00028861 0.00000000
4.70654751 1.33936823 -0.00363577 0.00000000
2.63628908 0.46782484 -0.00224175 0.00000000
0.25254506 0.58882825 0.00090665 0.00000000
0.05111689 1.30607880 -0.00621979 0.00000000
4.55145580 0.93951019 -0.00044832 0.00000000
1.86162701 1.56504489 0.00185743 0.00000000
1.26244041 0.99453183 -0.00038456 0.00000000
4.27348817 1.25186601 0.00269825 0.00000000
3.87934169 0.20485919 0.00205166 0.00000000
3.51875417 0.20476820 -0.00079072 0.00000000
4.68048671 0.35801299 -0.00115145 0.00000000
1.34078168 0.98584285 0.00038788 0.00000000
2.76028971 1.30509134 -0.00039679 0.00000000
0.63665334 0.24616591 0.00116184 0.00000000
0.94243733 1.32117004 0.00056818 0.00000000
1.64797109 0.36471827 0.00235555 0.00000000
4.27107636 0.39154543 -0.00064295 0.00000000
3.34582127 0.46831190 0.00477993 0.00000000
2.63707818 1.14251055 0.00194401 0.00000000
2.22743535 0.05763674 0.00076494 0.00000000
2.82201174 0.05002880 -0.00196665 0.00000000
4.70130656 1.51149762 -0.00104131 0.00000000
2.10667354 0.06426984 0.00030530 0.00000000
4.72987123 0.34726804 -0.00069887 0.00000000
4.28341871 0.62328436 0.00065465 0.00000000
0.51641434 1.39838466 0.00519141 0.00000000
4.01167291 1.50366449 0.00264374 0.00000000
1.92123499 1.12586435 -0.00145123 0.00000000
0.21958470 1.35130679 -0.00228460 0.00000000
2.15975939 0.97251521 -0.00158660 0.00000000
4.11311463 0.97468327 -0.00127958 0.00000000
0.81507684 1.10123095 -0.00212785 0.00000000
4.81569086 1.47079121 0.00279915 0.00000000
2.57139464 0.90401700 -0.00052176 0.00000000
3.66467617 1.17762668 -0.00017940 0.00000000
0.98099182 0.74084564 -0.00126475 0.00000000
2.85045707 1.24628569 -0.00258026 0.00000000
0.69664415 0.71725832 0.00153456 0.00000000
3.65108517 0.80292963 0.00027008 0.00000000
4.64812891 0.77845469 0.00009329 0.00000000
0.46669466 0.47028384 0.00010554 0.00000000
1.78226215 0.16942287 0.00192156 0.00000000
3.93526596 1.25401214 -0.00318259 0.00000000
4.67106096 0.19342674 0.00182885 0.00000000
0.51579635 1.01412431 -0.00197726 0.00000000
3.91314141 1.11616113 -0.00094780 0.00000000
2.98598530 1.15975889 0.00507435 0.00000000
2.57214878 0.60544777 -0.00341151 0.00000000
0.73215220 1.29912271 0.00164626 0.00000000
1.50233252 1.29573565 0.00142648 0.00000000
0.28466714 0.12724871 0.00336144 0.00000000
1.14809883 1.21641235 0.00087153 0.00000000
1.39628302 0.58776191 -0.00242057 0.00000000
3.26162605 1.45060164 -0.00195371 0.00000000
2.20452053 0.04204780 0.00408285 0.00000000
