1.480644 0.535260 -0.002108 0.0
2.304999 0.130379 -0.000042 0.0
3.298600 0.152954 0.000257 0.0
2.961201 2.095092 0.000123 0.0
1.311262 0.846783 -0.003063 0.0
2.052477 1.082414 -0.001588 0.0
2.621165 2.047485 -0.002434 0.0
3.321387 1.289793 0.001856 0.0
0.271543 0.215854 -0.004615 0.0
1.933389 0.638270 -0.003417 0.0
1.176732 0.474324 -0.001293 0.0
2.032784 2.130182 -0.001991 0.0
4.238431 0.220405 -0.000214 0.0
2.962744 0.432579 -0.001097 0.0
1.536398 0.386213 0.000367 0.0
1.796944 0.622498 -0.002016 0.0
0.457673 1.136563 0.002759 0.0
0.963697 1.977679 0.001102 0.0
1.544294 1.761286 -0.001431 0.0
2.148260 1.983507 -0.000867 0.0
2.016625 0.735334 0.000890 0.0
1.499300 1.565292 0.001992 0.0
4.696904 2.002704 -0.001067 0.0
0.912743 1.804552 0.000931 0.0
4.089275 1.148610 -0.003016 0.0
0.599393 1.390754 -0.004973 0.0
1.003086 0.041200 0.000771 0.0
1.560545 0.469853 0.002807 0.0
4.058003 1.685819 0.004103 0.0
0.094918 2.352051 -0.000578 0.0
4.134782 2.249294 -0.000788 0.0
1.393806 2.058104 -0.000969 0.0
3.538568 0.827636 0.002914 0.0
4.514023 1.790733 0.000994 0.0
4.369382 0.608449 0.000649 0.0
3.812004 0.996190 -0.001699 0.0
1.224690 0.588333 -0.003308 0.0
3.409117 1.587505 -0.003557 0.0
2.693958 0.820956 0.000501 0.0
4.117528 0.632242 -0.001871 0.0
4.192543 0.597739 -0.002842 0.0
0.134508 1.551138 0.003326 0.0
1.420919 2.260150 0.002258 0.0
0.089941 0.368128 0.000610 0.0
1.552419 0.784034 -0.002736 0.0
4.186573 0.944012 0.007058 0.0
1.792254 1.379726 0.002611 0.0
3.198132 0.337103 0.001150 0.0
0.341915 2.271113 -0.004827 0.0
0.645464 0.551493 0.001196 0.0
2.083422 1.072083 -0.001218 0.0
2.812064 0.396462 -0.002333 0.0
4.276273 0.563186 0.000942 0.0
3.588930 0.088615 0.004010 0.0
1.742231 0.624241 -0.004006 0.0
3.092232 1.903391 -0.001802 0.0
4.123917 1.443829 -0.001207 0.0
3.878433 1.799194 -0.000210 0.0
2.657462 1.547550 -0.004901 0.0
2.401483 0.551942 -0.001163 0.0
1.996841 0.025272 0.002326 0.0
3.732887 0.128082 0.001498 0.0
0.727819 2.094726 0.000825 0.0
4.034627 1.462621 0.003530 0.0
2.974732 1.745448 -0.003155 0.0
0.219349 1.383606 -0.001796 0.0
4.361168 1.936320 -0.000107 0.0
3.378255 2.373888 0.001095 0.0
4.478065 0.630895 -0.000571 0.0
0.751531 1.457788 -0.000031 0.0
1.549112 2.277339 0.004528 0.0
1.727827 1.275622 0.000408 0.0
4.415609 0.509880 0.000833 0.0
1.414382 0.365079 -0.002498 0.0
3.443663 2.064986 0.002237 0.0
4.574177 0.356561 0.003546 0.0
2.585151 0.519967 0.001190 0.0
2.945671 0.948575 -0.003120 0.0
4.151281 0.873209 0.004017 0.0
0.448744 1.680057 -0.000003 0.0
1.989746 1.453150 -0.000159 0.0
1.354674 2.035644 0.001083 0.0
0.621225 1.022915 0.002104 0.0
4.281403 1.732491 -0.001294 0.0
3.113437 1.800623 -0.000077 0.0
3.493322 1.346719 0.003865 0.0
2.722505 0.259206 0.000877 0.0
0.038000 1.449932 -0.001567 0.0
2.876983 1.080485 0.000841 0.0
3.600165 0.003121 -0.000664 0.0
3.310791 0.276745 0.004419 0.0
4.232805 0.116753 -0.000540 0.0
0.059310 0.685528 0.002078 0.0
1.842475 0.210149 0.000597 0.0
1.380479 1.922023 0.001211 0.0
2.623861 1.199541 -0.000832 0.0
1.312841 0.513700 -0.001035 0.0
2.890181 2.244575 0.004669 0.0
1.260670 1.877959 -0.002819 0.0
2.984746 0.495566 -0.001886 0.0
2.256007 0.828736 0.001705 0.0
1.077511 1.557006 -0.003697 0.0
1.231547 0.405496 0.000507 0.0
0.165697 0.318949 0.002869 0.0
2.305320 1.570185 0.001549 0.0
1.994606 1.565833 -0.002074 0.0
3.025975 2.201251 -0.000073 0.0
4.476097 0.167609 0.005281 0.0
2.707156 0.279637 0.001077 0.0
1.805680 0.246649 0.000641 0.0
2.605396 0.443703 -0.000242 0.0
0.843025 1.075587 -0.001355 0.0
4.340521 1.934590 0.000542 0.0
1.367548 1.881072 0.001887 0.0
1.710063 0.240171 -0.004246 0.0
4.011510 1.364950 0.000879 0.0
4.596078 1.705846 0.002503 0.0
1.164875 0.478587 -0.000543 0.0
2.229202 2.074506 0.000247 0.0
4.477155 1.065957 0.000603 0.0
0.214472 1.059017 0.003521 0.0
3.351787 0.307221 0.000812 0.0
4.265198 1.410122 -0.000971 0.0
1.086123 2.189253 -0.002552 0.0
1.424820 0.792095 -0.003323 0.0
0.097725 1.962707 -0.002417 0.0
3.238840 1.136050 -0.000315 0.0
1.510116 0.514063 0.002000 0.0
0.821149 0.471596 -0.000701 0.0
0.571112 2.154132 0.000907 0.0
1.131583 1.369391 0.000006 0.0
3.155303 2.009782 0.000360 0.0
2.137612 0.497838 0.000624 0.0
3.673214 1.922222 -0.001785 0.0
1.216794 1.390219 -0.002435 0.0
1.147082 2.209088 0.000818 0.0
1.965903 2.016720 -0.005844 0.0
2.820919 1.704325 -0.001920 0.0
3.998583 2.413330 -0.001132 0.0
2.849779 0.380160 0.000449 0.0
0.685766 2.048159 -0.004485 0.0
1.576135 1.884753 -0.001513 0.0
4.642638 2.279935 -0.001635 0.0
1.247148 1.451751 0.003157 0.0
2.870427 0.266963 -0.002983 0.0
3.740778 1.419847 -0.003277 0.0
3.948271 0.882904 0.004095 0.0
4.171678 0.899393 -0.001185 0.0
0.549253 1.308067 -0.002228 0.0
3.235179 0.316503 -0.000014 0.0
2.400385 1.968257 -0.001624 0.0
1.268882 2.144823 0.000456 0.0
2.650498 0.726962 -0.000954 0.0
2.237099 1.362767 0.003842 0.0
1.693977 1.477035 0.000215 0.0
3.199896 1.722842 -0.009261 0.0
0.131681 0.844547 0.000390 0.0
1.361408 0.525162 0.004608 0.0
0.306053 1.431097 0.000712 0.0
0.161991 1.528284 0.001523 0.0
2.959464 2.019637 -0.002164 0.0
1.676123 2.208055 -0.001167 0.0
1.597129 2.429914 0.002041 0.0
4.393415 0.635433 0.000292 0.0
1.851800 1.958825 -0.000534 0.0
1.673094 0.194249 0.002775 0.0
2.738214 0.850491 -0.001486 0.0
0.845726 2.338155 0.000811 0.0
2.941801 0.788448 0.005028 0.0
1.650214 1.684967 0.003113 0.0
1.048922 0.899112 0.000205 0.0
4.568914 1.546876 -0.002689 0.0
0.843199 0.406417 -0.001267 0.0
3.228866 1.455285 0.002757 0.0
0.864533 2.300953 -0.003170 0.0
3.342434 1.735022 -0.000427 0.0
1.463850 2.412150 -0.000449 0.0
3.381674 1.011792 -0.001326 0.0
2.119271 1.768884 0.000494 0.0
0.788140 1.573416 0.000709 0.0
4.565587 0.776500 0.004600 0.0
4.396510 2.238798 -0.000098 0.0
3.016946 1.286510 0.001437 0.0
0.607273 0.015086 -0.003005 0.0
0.356661 1.231294 -0.000517 0.0
2.866634 0.290236 -0.000471 0.0
4.222967 1.333041 0.002215 0.0
0.179916 2.089832 -0.000371 0.0
1.231229 2.425177 -0.000048 0.0
4.085761 0.014477 0.001229 0.0
0.741635 1.870454 0.000430 0.0
3.007343 0.851705 0.000972 0.0
4.021944 1.816893 0.000936 0.0
4.606905 0.208224 0.002768 0.0
4.175880 2.322232 -0.000736 0.0
0.097781 2.065265 0.004169 0.0
2.458882 1.374900 -0.001590 0.0
2.982581 0.697938 -0.002487 0.0
4.611090 0.379448 0.001968 0.0
0.879995 0.588584 0.000837 0.0
2.798015 0.988378 0.002891 0.0
2.731232 0.637476 0.000878 0.0
2.616911 1.622887 -0.002068 0.0
4.099769 0.244738 0.001376 0.0
0.040159 1.839743 0.000124 0.0
1.734559 0.146788 -0.001396 0.0
0.173462 1.351634 0.000818 0.0
4.538513 0.589791 0.001875 0.0
0.761528 1.049223 0.002858 0.0
0.561243 2.107993 0.002568 0.0
1.530888 0.415474 0.002979 0.0
1.459380 2.393247 0.001356 0.0
4.294954 1.628615 0.001584 0.0
1.384892 0.347767 -0.002549 0.0
1.638719 1.590717 -0.000341 0.0
2.607884 1.364852 0.003102 0.0
0.420254 0.707957 -0.000285 0.0
3.265769 0.465554 -0.000470 0.0
2.751929 1.937695 -0.004341 0.0
2.866199 2.168049 0.001751 0.0
4.646319 2.274439 0.002838 0.0
1.920972 2.358131 0.003907 0.0
2.684207 1.846392 -0.003241 0.0
4.186199 0.854608 0.001618 0.0
1.673647 2.180516 -0.001280 0.0
0.664164 0.531343 0.000990 0.0
0.122787 2.332543 0.002845 0.0
3.745122 0.190267 -0.000030 0.0
4.080590 0.514484 -0.002164 0.0
4.464942 0.364107 0.001545 0.0
4.321353 1.951553 -0.000962 0.0
1.014110 0.591316 0.002467 0.0
0.544004 1.883605 0.001560 0.0
1.551409 1.066615 -0.001769 0.0
4.252666 2.412976 0.000958 0.0
3.109148 1.462328 -0.003688 0.0
3.648730 2.127256 -0.004225 0.0
0.105758 0.602677 0.005371 0.0
1.852386 1.348989 -0.003180 0.0
4.104617 1.669267 0.003691 0.0
1.189396 0.301890 0.003604 0.0
2.353747 0.978691 0.001323 0.0
2.525348 0.393458 0.002379 0.0
3.722698 1.630746 0.000755 0.0
2.322149 0.633725 -0.001761 0.0
0.061553 0.216460 -0.000335 0.0
0.863250 1.289191 0.000913 0.0
3.024937 1.512515 -0.001940 0.0
0.398764 1.654510 0.000360 0.0
3.471726 1.741055 0.002215 0.0
1.130867 1.926860 -0.004519 0.0
2.963620 0.119050 0.003730 0.0
3.085050 0.581690 -0.004902 0.0
3.288401 1.554831 -0.006659 0.0
2.495346 0.486270 -0.001654 0.0
4.203331 0.389157 -0.001478 0.0
4.361487 1.915212 -0.002974 0.0
0.537984 1.014565 -0.005215 0.0
0.510020 2.056735 0.002172 0.0
3.809014 0.320274 -0.000938 0.0
4.087193 1.085063 0.001897 0.0
3.509522 1.619160 -0.004048 0.0
4.655892 0.613481 0.003440 0.0
1.515353 1.867099 -0.001205 0.0
0.634098 0.533948 0.003225 0.0
1.146332 2.220281 -0.000737 0.0
4.366644 2.376949 0.000050 0.0
3.477387 1.817696 -0.001482 0.0
1.241754 0.904725 0.007184 0.0
0.211206 0.414384 -0.000754 0.0
3.662603 1.031739 0.001435 0.0
3.439759 0.485587 -0.000796 0.0
4.621405 2.296510 0.002191 0.0
1.550666 0.358661 0.000065 0.0
2.393301 0.205062 -0.001099 0.0
4.419540 0.024957 -0.000131 0.0
1.246184 0.294875 -0.003913 0.0
1.577562 0.882988 0.002405 0.0
0.778736 0.370144 0.001126 0.0
3.023050 0.783951 -0.000235 0.0
0.581258 0.847147 -0.000130 0.0
4.189954 1.780360 -0.002070 0.0
3.039489 1.797437 -0.000152 0.0
4.183345 0.879809 0.001765 0.0
1.741620 1.652117 -0.001693 0.0
2.149032 0.771209 -0.002370 0.0
3.287681 1.264273 -0.002504 0.0
0.900177 1.209208 0.006566 0.0
4.381387 1.114325 0.000093 0.0
3.346528 0.380293 0.000993 0.0
1.118236 2.061560 -0.000719 0.0
1.304130 2.188281 -0.004274 0.0
0.717813 1.886028 0.003718 0.0
0.918114 1.744154 0.003911 0.0
4.024894 1.323789 0.004804 0.0
2.410854 1.726986 0.002586 0.0
4.108335 1.534079 -0.005079 0.0
0.217822 2.238507 0.001818 0.0
4.475985 1.311427 -0.000066 0.0
1.568251 1.109870 0.002665 0.0
3.688807 2.085379 0.000691 0.0
4.606876 2.229490 -0.000457 0.0
3.750924 1.440608 0.002942 0.0
2.362064 2.363383 0.001233 0.0
0.581026 1.600536 0.000440 0.0
2.518404 1.923615 0.001189 0.0
3.864873 2.220208 -0.001119 0.0
3.509145 0.628653 0.001411 0.0
1.695729 1.800913 -0.004383 0.0
4.675959 2.369429 -0.001970 0.0
4.130067 1.489096 -0.005205 0.0
4.173051 1.849443 0.001614 0.0
3.793969 0.111404 0.005665 0.0
0.306465 0.897314 0.004297 0.0
1.323196 1.631971 0.003918 0.0
3.248579 0.898807 -0.002087 0.0
2.036883 1.922578 -0.001279 0.0
4.294631 1.059777 0.003047 0.0
4.011644 0.182412 -0.000515 0.0
2.931131 2.187630 -0.000645 0.0
2.376625 1.090291 -0.003116 0.0
3.746256 1.645516 -0.000449 0.0
3.993800 1.637447 -0.002583 0.0
3.537339 1.322220 -0.005272 0.0
0.470829 1.129640 0.000038 0.0
3.374763 0.794667 0.001374 0.0
2.792071 1.442985 -0.000906 0.0
2.345224 2.146550 0.003652 0.0
1.729248 0.935292 -0.000717 0.0
2.157632 2.301799 0.002857 0.0
2.249502 2.167607 0.000032 0.0
2.324882 2.417967 -0.001142 0.0
4.586631 0.701311 -0.000397 0.0
1.278972 2.060008 -0.000431 0.0
0.835033 1.503264 -0.001055 0.0
1.747654 2.010713 0.003405 0.0
0.544069 1.584393 -0.001323 0.0
4.072045 0.616348 -0.000988 0.0
2.458594 1.395790 0.002250 0.0
3.841100 0.485515 -0.000772 0.0
3.034507 0.027079 0.003370 0.0
2.822189 1.627424 -0.002921 0.0
3.312765 1.284913 -0.004293 0.0
3.547322 1.060328 0.002365 0.0
3.211200 0.284486 -0.000633 0.0
0.098199 1.933141 -0.001574 0.0
1.804875 2.103301 -0.001002 0.0
1.846772 0.996553 -0.001548 0.0
2.994059 1.214977 0.001485 0.0
2.858422 1.063039 -0.003097 0.0
2.226027 1.259032 -0.000281 0.0
0.126859 1.904304 -0.001292 0.0
2.975812 1.995373 0.001358 0.0
4.231829 1.582053 -0.002005 0.0
2.371599 1.666732 -0.005313 0.0
2.598357 0.992385 0.000430 0.0
4.470872 1.286930 -0.001553 0.0
1.592879 1.725556 -0.000973 0.0
2.797728 0.322501 -0.000144 0.0
1.002634 0.734509 0.001523 0.0
1.536208 0.025242 -0.001392 0.0
3.911358 2.277744 0.004171 0.0
3.975173 1.170499 -0.002499 0.0
3.250043 1.407721 0.003361 0.0
0.795996 1.466595 -0.003071 0.0
0.589056 2.056950 -0.000978 0.0
2.654823 1.314557 -0.000903 0.0
4.312274 0.265977 0.002001 0.0
0.534843 0.519791 0.001322 0.0
1.973223 2.151815 -0.002952 0.0
1.214722 1.627646 0.002214 0.0
2.890482 0.585665 0.000254 0.0
3.856556 0.930902 -0.002222 0.0
3.163939 1.371014 0.003177 0.0
1.808748 0.293006 0.001527 0.0
4.670188 0.103525 0.003398 0.0
1.251104 0.616601 -0.002674 0.0
4.563874 1.951065 -0.002458 0.0
0.029973 0.115939 -0.002797 0.0
4.177046 0.918545 -0.004123 0.0
2.448028 0.581598 -0.006005 0.0
2.268755 1.640361 0.001063 0.0
2.030213 1.894405 -0.003791 0.0
4.021295 0.727964 0.001172 0.0
4.204732 1.681547 -0.000891 0.0
1.613372 0.859152 0.003772 0.0
1.967318 0.015195 0.001144 0.0
3.208142 2.343775 -0.000833 0.0
3.252562 0.439492 0.005684 0.0
2.186041 1.155562 -0.000337 0.0
0.307363 1.551918 0.003531 0.0
3.904934 0.510112 0.002515 0.0
4.323624 0.439087 0.000954 0.0
3.077523 1.538278 0.001789 0.0
2.345100 1.434304 0.004083 0.0
1.306302 0.614789 -0.006647 0.0
1.208708 0.158375 0.000435 0.0
4.218389 0.784839 0.000842 0.0
1.738708 1.288005 0.004988 0.0
0.562347 2.335467 -0.000217 0.0
2.640547 0.795543 0.002205 0.0
2.444921 1.675698 -0.002246 0.0
0.287455 2.171967 0.004167 0.0
3.436126 1.033531 0.002426 0.0
2.735367 0.883187 -0.000064 0.0
0.246970 0.413550 0.002987 0.0
3.661622 0.728020 -0.000259 0.0
3.123868 0.553470 -0.005972 0.0
0.230624 2.200059 -0.001371 0.0
1.902655 2.048025 -0.002483 0.0
4.658495 1.522599 0.002002 0.0
4.145829 1.613928 -0.000668 0.0
1.956784 0.929214 -0.001442 0.0
2.328269 0.291266 0.002617 0.0
2.623448 2.099816 0.003224 0.0
3.002965 1.674801 0.001317 0.0
3.793571 0.861280 0.003091 0.0
0.225890 0.891070 0.000012 0.0
1.773100 1.768968 -0.000174 0.0
4.454876 1.370440 0.003031 0.0
1.915889 2.410902 0.001735 0.0
1.978803 1.162316 0.000958 0.0
1.100051 2.349673 0.000575 0.0
4.050023 0.734566 0.002937 0.0
0.251686 0.654268 0.000388 0.0
1.464060 0.774769 -0.001604 0.0
4.372740 2.315613 -0.001104 0.0
2.570805 1.896767 0.000001 0.0
1.945767 1.449166 -0.000006 0.0
3.105991 1.162837 -0.000751 0.0
4.508768 1.162839 -0.003471 0.0
2.726505 1.534620 0.002172 0.0
2.218120 2.155749 -0.000695 0.0
0.642196 1.162447 -0.001873 0.0
0.147995 0.907475 0.000365 0.0
1.441747 1.556115 -0.003682 0.0
2.423374 2.292108 0.001310 0.0
2.272559 2.052523 0.004060 0.0
0.162346 2.129205 -0.004192 0.0
4.028302 0.322944 0.002802 0.0
1.742292 1.884637 0.002199 0.0
1.217797 1.420392 -0.002961 0.0
2.214408 0.382319 0.002614 0.0
3.599759 1.508336 -0.001868 0.0
0.771839 0.494110 0.001015 0.0
0.496329 1.081701 -0.002265 0.0
1.776109 0.926365 -0.000378 0.0
3.724318 1.817034 -0.001091 0.0
2.124524 2.398413 0.003018 0.0
3.076460 0.309247 0.000959 0.0
0.178386 1.039997 -0.001230 0.0
2.790233 0.389789 -0.001226 0.0
0.522041 0.674765 0.000588 0.0
0.401809 0.152738 -0.000499 0.0
1.082292 1.632621 -0.000985 0.0
1.309332 2.216053 -0.000196 0.0
4.466994 0.248046 0.001944 0.0
1.100261 1.614147 -0.002032 0.0
0.806962 1.468307 -0.001038 0.0
0.216002 0.646667 -0.000348 0.0
2.140790 0.105274 0.002548 0.0
0.177156 0.378659 -0.004259 0.0
2.894108 1.359661 0.004275 0.0
1.813025 1.941801 -0.003458 0.0
1.166078 2.415270 0.001179 0.0
2.567710 2.390278 0.000369 0.0
3.265314 1.955539 0.001720 0.0
0.240296 0.244664 0.001406 0.0
4.252349 1.353454 -0.004292 0.0
0.838829 1.081324 -0.001676 0.0
1.278189 2.095936 -0.004669 0.0
3.551584 1.335598 -0.000236 0.0
0.055591 1.613555 -0.001014 0.0
4.655739 0.757800 -0.002475 0.0
3.284204 1.054939 -0.001556 0.0
0.017209 0.125702 0.003263 0.0
3.478912 1.254211 0.002981 0.0
3.875922 2.213360 -0.001296 0.0
4.601866 0.909256 -0.003575 0.0
0.031184 2.363183 -0.004919 0.0
1.412713 1.871677 0.000688 0.0
4.400576 2.143739 -0.001915 0.0
4.667742 2.285581 0.001209 0.0
2.719398 1.570309 0.000812 0.0
2.382820 0.902017 0.002147 0.0
2.382903 1.983814 0.003577 0.0
0.921768 0.242481 -0.001359 0.0
4.255435 0.812845 -0.001234 0.0
3.243284 2.412392 0.003982 0.0
0.119602 2.155187 -0.000963 0.0
4.696166 0.676420 0.000803 0.0
2.975873 0.082136 0.001461 0.0
0.044599 1.199147 -0.003517 0.0
3.988411 2.075379 0.000568 0.0
2.719046 0.556799 -0.000186 0.0
1.888261 -0.000443 0.005306 0.0
4.253652 0.156297 0.002526 0.0
1.535861 1.035467 0.002228 0.0
0.660519 0.386846 0.001570 0.0
3.045427 0.135686 -0.000137 0.0
0.606891 2.039771 0.001822 0.0
3.018540 2.280166 -0.000773 0.0
0.380231 1.491350 -0.004343 0.0
1.993185 2.010665 0.003729 0.0
4.291459 0.461966 0.003561 0.0
1.092920 1.456593 -0.001321 0.0
3.725553 0.207870 0.000988 0.0
1.580489 1.173529 0.002304 0.0
2.109023 1.675136 -0.003981 0.0
2.103390 1.908401 -0.000157 0.0
3.313158 0.157969 -0.004671 0.0
0.886569 1.225397 -0.002260 0.0
3.541904 0.947814 -0.000543 0.0
0.949213 1.222249 -0.003015 0.0
4.165329 1.894494 0.001886 0.0
2.127192 0.204288 -0.001001 0.0
2.847369 2.082853 0.003530 0.0
1.136724 0.032519 -0.000108 0.0
2.091964 0.370208 -0.003944 0.0
0.626195 1.779011 -0.000286 0.0
3.724300 0.737764 0.001969 0.0
0.802785 0.816752 0.003359 0.0
4.363619 1.633409 0.000944 0.0
2.449397 1.265983 -0.001507 0.0
2.528287 0.524652 0.002168 0.0
2.624184 1.536765 -0.001107 0.0
2.210620 0.628259 -0.000547 0.0
3.393617 2.430645 0.001452 0.0
4.312514 0.348131 0.001509 0.0
1.632748 1.244002 0.002940 0.0
3.787524 0.618738 -0.000467 0.0
0.003700 0.412406 0.003811 0.0
2.195524 1.166799 -0.002089 0.0
3.791413 1.056326 0.004622 0.0
3.843270 0.306573 0.002933 0.0
0.456607 1.300113 -0.001091 0.0
0.034941 0.351000 0.000038 0.0
1.140633 1.610879 0.001183 0.0
0.899613 1.888332 -0.003079 0.0
4.030587 0.337751 -0.000011 0.0
3.652569 0.555576 -0.001074 0.0
2.509577 2.293249 -0.002016 0.0
3.535618 1.750906 0.003729 0.0
2.133586 0.702249 -0.001312 0.0
3.853373 1.729224 0.004927 0.0
4.491653 1.886899 -0.003855 0.0
3.926092 0.607279 0.001620 0.0
1.029968 1.244561 0.002973 0.0
3.437524 2.058456 -0.002635 0.0
1.007178 1.982344 0.002545 0.0
1.931141 0.065981 0.004221 0.0
4.692031 1.770518 0.001443 0.0
2.432022 1.946345 -0.003922 0.0
1.882476 1.929609 -0.003835 0.0
1.992718 1.830598 -0.001532 0.0
2.226729 0.199333 0.001906 0.0
4.172658 1.305525 -0.001470 0.0
1.485450 2.109817 0.000741 0.0
3.312187 1.440816 0.000418 0.0
4.287017 2.078810 -0.002490 0.0
4.561797 1.275639 0.002927 0.0
3.773940 1.266744 -0.004798 0.0
2.167036 0.644365 -0.001079 0.0
3.085724 0.620818 -0.002360 0.0
0.593680 1.267206 -0.002078 0.0
0.066427 0.284788 -0.001706 0.0
3.117026 1.120730 -0.002057 0.0
3.096514 0.125688 -0.002662 0.0
4.327693 0.595963 0.000784 0.0
3.221414 0.621538 0.000363 0.0
3.134009 1.295191 0.000172 0.0
3.065093 1.481970 0.002052 0.0
2.544883 1.583680 0.002222 0.0
3.484299 1.674430 -0.005589 0.0
0.466799 1.119087 0.000313 0.0
3.729550 1.664818 0.002203 0.0
1.022230 2.309760 0.000912 0.0
3.388361 2.143094 -0.002613 0.0
0.646996 1.392240 -0.001904 0.0
2.598919 0.704084 -0.001978 0.0
1.740086 2.343087 0.001536 0.0
2.820656 2.151001 0.000732 0.0
0.699452 1.377427 -0.002897 0.0
1.279995 0.511142 0.002041 0.0
4.579853 2.168876 0.002907 0.0
1.975229 1.950307 -0.002044 0.0
4.636161 0.760023 0.000396 0.0
1.980570 2.149665 0.002437 0.0
2.523272 0.940807 -0.005080 0.0
0.996478 1.254625 -0.001142 0.0
1.951775 1.224783 0.002405 0.0
4.632802 1.693077 -0.002739 0.0
0.961842 1.645380 0.003926 0.0
3.741862 1.283414 0.000999 0.0
1.768773 1.593245 -0.000223 0.0
3.688357 1.775815 0.002673 0.0
1.006499 1.430654 -0.000856 0.0
0.768129 0.519054 0.003246 0.0
1.300028 1.434800 -0.003002 0.0
2.972230 0.419519 -0.002021 0.0
2.205322 0.301623 -0.001628 0.0
2.796636 1.393376 -0.001955 0.0
4.019086 2.195312 -0.002145 0.0
2.367388 1.840821 -0.002608 0.0
2.405630 2.294640 -0.000840 0.0
1.571165 0.055214 -0.002761 0.0
3.029602 1.886682 -0.003052 0.0
1.725696 2.094583 -0.003419 0.0
3.549215 0.191687 0.002019 0.0
1.602671 1.861711 -0.000995 0.0
0.803944 0.017398 0.002151 0.0
1.328003 1.802672 0.001178 0.0
1.728865 2.371408 0.000895 0.0
0.727377 0.601537 -0.000554 0.0
2.276294 1.260506 0.001062 0.0
3.927024 0.620733 0.002338 0.0
0.316863 0.212254 -0.000848 0.0
3.948841 0.455539 -0.000187 0.0
2.577399 0.066247 -0.001683 0.0
2.574110 1.855589 0.001014 0.0
0.198634 1.223326 -0.001423 0.0
2.645521 1.696136 -0.004670 0.0
3.433396 2.144200 -0.001414 0.0
2.331738 0.122483 0.001115 0.0
2.770764 2.343497 0.001818 0.0
2.442759 2.006374 -0.004401 0.0
0.588274 0.255632 -0.001255 0.0
2.434344 1.117914 0.004425 0.0
2.296008 1.478182 -0.001809 0.0
0.624418 2.152338 -0.002467 0.0
2.276530 0.221499 0.001555 0.0
2.936196 0.612380 -0.001156 0.0
2.399479 0.448700 -0.000618 0.0
3.171977 0.400696 -0.003089 0.0
3.496789 1.598005 -0.001028 0.0
2.292780 2.239473 -0.000422 0.0
2.942052 1.593541 -0.001607 0.0
0.151439 1.652339 0.000464 0.0
3.238714 0.541914 -0.000547 0.0
2.026601 0.473883 0.003019 0.0
0.696550 0.568411 -0.004105 0.0
3.265631 0.758563 0.002218 0.0
0.324025 2.319701 -0.002267 0.0
1.190599 0.772830 0.001121 0.0
2.973223 0.142142 0.000734 0.0
3.897314 0.738993 -0.001527 0.0
2.493896 2.207282 0.002718 0.0
0.823785 1.614691 -0.003568 0.0
2.300779 0.587913 0.002391 0.0
2.830019 2.165254 -0.001667 0.0
2.672323 0.795537 0.000350 0.0
2.365855 0.848385 -0.001007 0.0
3.740688 1.554382 0.002113 0.0
0.887517 0.518980 0.004158 0.0
4.663134 0.448575 -0.002972 0.0
0.029365 1.224219 -0.001943 0.0
4.369118 0.743488 -0.002126 0.0
3.880240 2.096463 -0.003760 0.0
2.038328 2.061179 -0.000233 0.0
3.513217 1.885338 0.001104 0.0
3.345442 1.368238 -0.000431 0.0
2.566988 0.953873 0.000273 0.0
1.131407 1.899028 0.003684 0.0
0.689876 2.208874 0.000241 0.0
0.434569 1.584490 -0.000953 0.0
2.470772 1.451131 -0.002525 0.0
0.077994 2.421414 0.001860 0.0
2.646875 0.178638 -0.002005 0.0
2.946813 2.413473 0.000965 0.0
2.875607 1.731735 0.002259 0.0
4.156895 0.379070 0.000803 0.0
2.626044 1.320778 0.000418 0.0
1.830846 1.842775 0.001850 0.0
3.019500 1.574010 -0.000299 0.0
1.165818 0.281463 -0.000985 0.0
3.628890 1.647070 -0.001398 0.0
2.498927 1.286238 0.000025 0.0
2.812867 1.406307 -0.001985 0.0
0.443849 1.942572 -0.008838 0.0
0.491993 0.626873 -0.000257 0.0
3.173503 0.768320 -0.003229 0.0
3.166689 0.151746 0.002995 0.0
0.779285 1.902724 -0.000901 0.0
3.490487 2.209332 0.002762 0.0
1.694772 0.808067 -0.002022 0.0
2.620054 0.080348 -0.005434 0.0
1.844900 0.809525 0.004101 0.0
3.793971 2.107068 -0.002207 0.0
4.335456 0.368413 -0.001539 0.0
3.983229 1.605865 0.000682 0.0
3.823294 2.018774 -0.000956 0.0
1.646768 1.373258 0.006044 0.0
0.020815 1.347211 -0.003214 0.0
3.348962 0.480938 0.000716 0.0
2.180950 0.363789 -0.001412 0.0
3.700606 1.535588 0.000606 0.0
3.419225 1.559978 0.000345 0.0
1.961685 1.845752 0.001176 0.0
0.251256 0.810366 -0.003028 0.0
2.506597 1.254511 -0.001313 0.0
4.379850 1.755308 -0.006328 0.0
2.343864 1.890860 0.000609 0.0
3.738958 0.678130 0.000784 0.0
1.389357 0.964625 0.002017 0.0
4.536759 0.829816 -0.003009 0.0
4.232713 1.068423 -0.003635 0.0
0.785507 1.601055 0.001414 0.0
1.897837 0.694254 0.001523 0.0
0.696941 2.204718 -0.000898 0.0
2.284185 2.344993 -0.001942 0.0
1.139164 2.172973 -0.001854 0.0
2.861770 0.346229 0.000780 0.0
0.709744 0.175246 -0.002126 0.0
2.314424 0.965562 0.002230 0.0
1.446374 0.864968 -0.001668 0.0
0.997538 2.400092 -0.000729 0.0
1.024649 1.853468 0.000262 0.0
2.089649 1.165944 -0.000759 0.0
2.825140 0.173984 0.000782 0.0
1.911973 0.145071 0.000485 0.0
0.448328 0.577471 -0.002800 0.0
2.487304 2.218226 -0.002660 0.0
1.328955 1.402267 0.002051 0.0
0.196183 0.925052 -0.000814 0.0
1.309294 0.219662 -0.000556 0.0
1.568645 1.878911 0.000847 0.0
0.675927 1.289823 -0.001959 0.0
2.149494 2.221064 -0.002082 0.0
1.127008 1.736217 0.006690 0.0
4.582854 1.906583 -0.003429 0.0
0.932299 1.820858 0.002869 0.0
4.380096 2.253601 0.000207 0.0
2.328625 0.574194 0.001417 0.0
1.717430 0.104486 0.000690 0.0
2.621051 0.744210 0.002187 0.0
2.286210 2.237038 -0.001739 0.0
2.832659 1.828002 0.005080 0.0
0.232946 0.523976 0.000685 0.0
3.635669 1.471298 -0.000685 0.0
2.218725 1.435799 -0.004703 0.0
3.363786 1.251362 -0.001169 0.0
2.707679 1.914752 0.002031 0.0
0.490359 0.404304 0.000660 0.0
0.409753 2.125651 0.002524 0.0
0.206843 1.310656 -0.002830 0.0
4.534648 0.494359 -0.000546 0.0
0.937143 1.342662 -0.000199 0.0
2.371380 0.211251 -0.002936 0.0
3.472895 0.917536 0.001454 0.0
2.968660 0.722061 0.004433 0.0
0.138434 0.702108 0.000495 0.0
0.380851 0.920275 -0.001468 0.0
0.816012 1.558913 -0.003172 0.0
3.642071 0.604264 0.000676 0.0
3.113441 1.531096 -0.003239 0.0
1.389852 0.107715 -0.006540 0.0
4.654317 0.547599 0.000182 0.0
3.966653 0.251907 -0.000962 0.0
2.242411 1.297599 0.005312 0.0
3.515228 0.584278 0.002582 0.0
1.923156 0.509680 0.001906 0.0
4.198499 2.433996 0.000588 0.0
0.057846 2.290324 -0.001394 0.0
3.400732 0.899389 0.000311 0.0
3.586564 0.582916 0.001044 0.0
3.605937 1.700927 -0.001605 0.0
2.698012 2.358466 -0.005178 0.0
0.340020 0.176265 0.000053 0.0
1.141450 1.230534 0.001794 0.0
2.512573 2.158562 -0.002433 0.0
0.079129 0.471096 -0.006142 0.0
2.143345 1.008476 0.004882 0.0
3.826172 0.386841 -0.001975 0.0
3.924637 1.648409 0.003528 0.0
2.630113 0.514109 0.001316 0.0
1.710568 0.640641 -0.001045 0.0
2.423626 0.076378 -0.001091 0.0
3.983631 0.090101 -0.000392 0.0
4.448542 1.055316 0.000731 0.0
1.886694 1.521963 -0.000560 0.0
3.351897 1.070740 -0.001765 0.0
3.378640 2.019071 0.001923 0.0
3.134575 1.004656 -0.002754 0.0
0.643636 1.505905 0.004266 0.0
3.285246 2.423552 0.004080 0.0
3.519879 0.771804 0.000441 0.0
3.899792 0.433787 -0.004546 0.0
1.003983 1.327438 0.003691 0.0
0.588690 2.000125 0.003877 0.0
2.349647 1.342098 -0.000881 0.0
4.183805 1.328677 -0.003142 0.0
3.822992 1.175342 -0.001372 0.0
4.353002 1.223005 -0.005384 0.0
2.410898 2.209800 0.000879 0.0
0.543162 1.357518 0.000971 0.0
1.037204 1.166318 0.001240 0.0
1.172990 1.093189 0.000283 0.0
2.629022 0.833903 0.001582 0.0
0.839170 1.569200 -0.005148 0.0
3.196370 2.044167 -0.000422 0.0
1.560450 0.845370 0.001209 0.0
2.646882 0.206413 0.000711 0.0
4.100330 0.194588 -0.000605 0.0
1.857007 1.123576 -0.001034 0.0
3.069712 1.926142 0.002362 0.0
1.042947 0.749870 -0.001949 0.0
4.264650 0.009297 -0.000066 0.0
0.128505 0.019854 -0.001247 0.0
1.815609 1.362864 -0.001673 0.0
1.725005 1.097449 0.000756 0.0
4.319127 2.361131 -0.000133 0.0
1.581665 1.356852 0.003161 0.0
3.475615 0.371571 -0.001728 0.0
3.097791 1.193491 0.001940 0.0
4.420904 0.703259 -0.001948 0.0
0.827770 0.893571 -0.000460 0.0
2.555979 2.068667 0.001851 0.0
2.943960 1.562166 0.001042 0.0
3.349870 0.710616 0.000564 0.0
3.024219 1.233860 0.001602 0.0
4.588783 0.396220 0.001224 0.0
0.445221 0.944496 0.000208 0.0
1.054224 2.404662 0.001496 0.0
4.447556 0.917786 -0.000970 0.0
2.534125 0.418536 -0.003900 0.0
3.863186 2.426083 -0.002112 0.0
2.814389 2.003893 0.003019 0.0
3.234446 0.433459 -0.003539 0.0
4.281412 1.493330 -0.002949 0.0
2.901342 0.663627 0.001638 0.0
1.899593 0.514398 0.000842 0.0
1.965251 0.567170 0.004819 0.0
4.507633 1.940374 0.001270 0.0
0.868345 1.665297 0.000983 0.0
0.419688 0.691604 0.003010 0.0
4.042542 0.575009 0.000193 0.0
2.623938 1.383634 -0.002086 0.0
4.410516 2.174935 0.000079 0.0
1.541226 2.259618 0.000701 0.0
2.728517 0.900480 0.004309 0.0
3.654192 0.726478 -0.002617 0.0
2.579627 1.492889 -0.000557 0.0
3.743662 1.845339 0.002224 0.0
1.219200 0.401984 0.000102 0.0
1.898975 1.024269 0.002161 0.0
0.461674 1.181791 -0.001305 0.0
3.487263 1.243145 -0.001554 0.0
2.430988 1.711846 -0.001881 0.0
2.527684 0.134416 0.001107 0.0
2.095713 0.313203 0.000948 0.0
3.485690 0.113640 0.000420 0.0
3.396264 1.512624 -0.001910 0.0
2.654500 0.720435 -0.000350 0.0
3.030525 1.271421 0.001266 0.0
1.560800 0.717931 0.000506 0.0
3.977121 2.380699 -0.004542 0.0
3.405692 0.890020 -0.005151 0.0
0.287453 2.148245 0.003047 0.0
0.873591 0.319417 -0.000976 0.0
2.178109 0.145754 0.002838 0.0
3.942576 1.545898 0.001016 0.0
2.116235 0.413610 0.003085 0.0
0.478617 0.995812 -0.003981 0.0
0.228398 1.760917 -0.001641 0.0
2.986293 1.597525 -0.001279 0.0
2.772162 2.283505 -0.001124 0.0
3.394923 1.226844 0.001426 0.0
2.266471 0.875627 0.002829 0.0
2.156604 0.707192 0.000620 0.0
4.693585 0.445784 -0.002345 0.0
1.234337 2.195839 0.000396 0.0
3.835074 2.252764 -0.003211 0.0
2.017163 0.149017 0.000800 0.0
1.228859 1.791562 0.002187 0.0
0.757244 0.299120 -0.002144 0.0
2.578375 1.673256 0.002785 0.0
0.905085 0.499976 -0.003313 0.0
4.334538 1.967079 0.002650 0.0
1.093414 1.883864 0.000279 0.0
3.598104 1.795137 -0.001529 0.0
4.135150 1.315748 -0.003909 0.0
2.936299 2.169628 -0.001328 0.0
3.681836 2.022174 0.002642 0.0
0.906402 1.097806 -0.003502 0.0
0.426153 1.063531 -0.001781 0.0
4.374473 0.836440 0.002673 0.0
3.089492 0.771318 -0.001245 0.0
1.707424 0.758323 0.000557 0.0
1.121444 1.158120 -0.000597 0.0
3.343374 0.004757 -0.001368 0.0
2.551010 0.833984 0.002131 0.0
2.330343 1.417307 -0.001261 0.0
1.187970 2.106863 -0.002971 0.0
0.443520 1.132741 0.000064 0.0
3.998234 1.127867 -0.001924 0.0
1.140121 2.281728 -0.000598 0.0
2.537522 1.551092 0.000469 0.0
2.189367 0.219167 0.001551 0.0
1.607341 0.220175 0.003966 0.0
2.322017 1.848162 -0.003547 0.0
3.694853 2.229963 -0.001396 0.0
3.088824 0.839935 0.003724 0.0
0.200613 0.088970 -0.005464 0.0
3.034942 1.240244 -0.001769 0.0
2.014218 1.862112 -0.000580 0.0
1.569408 0.724149 0.001141 0.0
4.218976 1.971723 -0.000882 0.0
1.769544 1.321879 0.000453 0.0
3.095081 0.758224 0.005188 0.0
3.974141 0.623124 -0.001590 0.0
2.704134 2.434039 -0.001829 0.0
1.525789 1.136871 0.001806 0.0
1.844818 0.222655 -0.000833 0.0
1.534871 0.018258 -0.004876 0.0
3.598824 0.173055 0.002656 0.0
1.731909 1.485934 -0.000669 0.0
3.013431 1.949156 0.001921 0.0
3.090536 2.354901 -0.000261 0.0
3.802063 2.171871 -0.003817 0.0
4.139951 0.785011 -0.004194 0.0
1.864139 2.291928 -0.001700 0.0
3.354773 1.596575 0.002471 0.0
3.915618 0.314407 0.000842 0.0
1.077383 0.708536 0.000215 0.0
3.753407 0.951779 0.002631 0.0
2.309094 0.289050 -0.002926 0.0
4.434982 0.779885 -0.002258 0.0
2.127986 1.923130 0.001540 0.0
2.228499 0.623808 -0.001058 0.0
2.126956 1.572469 -0.000462 0.0
1.086192 0.401389 -0.000828 0.0
2.114810 0.697497 -0.004349 0.0
1.439172 0.924547 0.000685 0.0
1.476386 0.938491 0.001167 0.0
3.019914 1.167293 -0.000668 0.0
4.312965 0.700294 -0.002873 0.0
2.563992 0.597233 0.003284 0.0
3.873255 1.280071 0.004427 0.0
2.377749 1.972095 -0.002128 0.0
1.549274 1.445828 0.002208 0.0
0.196460 0.600987 0.001772 0.0
0.490202 0.592732 0.001236 0.0
0.404133 2.247578 -0.001616 0.0
1.354346 0.897175 0.000191 0.0
2.701310 1.753438 0.000458 0.0
3.216506 2.193049 -0.003018 0.0
0.559972 0.340153 0.006995 0.0
4.677086 1.220271 -0.002145 0.0
0.084823 2.402209 -0.001156 0.0
0.549531 1.013524 -0.000697 0.0
2.154894 1.252751 -0.000786 0.0
2.785377 2.098133 0.002603 0.0
2.724757 0.722424 0.002627 0.0
2.490083 -0.001018 -0.001132 0.0
1.510782 0.425598 -0.000816 0.0
2.594668 1.360926 0.001326 0.0
0.841853 2.187877 -0.003395 0.0
3.565165 0.897023 0.003099 0.0
1.175284 0.620297 -0.002353 0.0
4.567023 0.667694 -0.003502 0.0
2.674461 1.657238 0.000051 0.0
2.687140 0.207634 0.003460 0.0
3.828943 1.016194 0.001605 0.0
0.634639 0.243573 0.000211 0.0
2.635647 1.783683 0.002041 0.0
3.292059 0.733656 -0.000556 0.0
0.447731 0.302490 -0.003897 0.0
0.210605 1.743104 0.002139 0.0
1.704231 1.674981 -0.001012 0.0
1.491689 1.581928 0.003380 0.0
1.468076 1.533755 0.001483 0.0
3.501533 1.574995 0.003280 0.0
2.943517 1.879729 -0.001250 0.0
2.352301 0.740719 -0.001935 0.0
2.417159 0.378751 -0.001545 0.0
1.727975 0.984849 -0.001773 0.0
2.592345 2.130523 -0.000428 0.0
2.533702 1.142871 -0.002964 0.0
4.529991 1.880653 -0.000228 0.0
1.220958 1.588513 0.003967 0.0
4.100847 0.646974 -0.005046 0.0
4.696575 2.193699 -0.000507 0.0
3.949306 1.186744 0.000763 0.0
4.530376 1.647920 0.005635 0.0
0.248190 0.537035 0.000603 0.0
2.614358 2.052675 -0.001627 0.0
1.224016 1.772681 0.005179 0.0
4.242498 1.850655 0.000586 0.0
2.110576 0.204161 -0.001081 0.0
1.522878 1.499887 0.002764 0.0
4.400086 1.381519 0.001715 0.0
4.350702 0.088625 0.002594 0.0
2.611888 1.800165 0.004807 0.0
0.881714 0.218668 -0.002320 0.0
3.854705 0.703782 -0.000545 0.0
3.519225 1.520012 -0.000434 0.0
3.578283 0.556820 0.004269 0.0
0.926604 0.195290 0.002004 0.0
1.728223 1.115212 0.000167 0.0
2.695047 1.754473 -0.004623 0.0
3.938577 0.756654 0.002069 0.0
1.082897 0.474182 0.002198 0.0
3.357549 0.451040 -0.002917 0.0
0.028985 1.787857 -0.001015 0.0
3.501310 1.331496 0.004322 0.0
2.369488 0.729707 -0.001495 0.0
4.598347 2.036636 -0.002636 0.0
4.202485 0.745982 -0.003927 0.0
2.926505 1.388573 0.002356 0.0
1.152725 1.996442 0.000846 0.0
1.516988 2.420804 0.001279 0.0
4.075252 1.865389 -0.003705 0.0
0.895883 1.624626 0.000127 0.0
2.408364 1.233212 -0.001230 0.0
2.612793 1.016539 0.002837 0.0
4.391562 1.840112 0.002302 0.0
0.296754 0.188900 0.001774 0.0
1.130571 1.239803 -0.000740 0.0
3.984603 0.632334 -0.000297 0.0
4.148601 0.579296 -0.003498 0.0
0.759263 1.851125 0.000784 0.0
4.234491 1.872941 0.000142 0.0
3.918760 0.211381 -0.002321 0.0
0.799095 2.171417 0.001133 0.0
3.588760 0.502668 -0.000461 0.0
1.600180 0.015167 -0.000980 0.0
2.076677 2.078785 0.000895 0.0
3.353904 1.652210 0.001325 0.0
3.578085 0.235755 0.000582 0.0
2.392421 0.965331 0.003202 0.0
1.772992 0.097119 -0.001458 0.0
3.943876 2.415301 -0.002604 0.0
0.236601 1.974549 -0.000398 0.0
2.010941 0.317335 0.000947 0.0
2.088825 0.447024 -0.000392 0.0
3.914707 1.054376 0.004484 0.0
1.629487 0.184965 0.003160 0.0
0.763474 1.034997 0.001411 0.0
2.689646 1.096867 -0.003908 0.0
2.331773 2.018070 -0.005703 0.0
1.378861 1.133948 0.001079 0.0
3.741188 0.949973 -0.002063 0.0
0.279406 0.599690 -0.001507 0.0
0.455075 0.101768 0.006510 0.0
0.873931 0.789114 -0.000378 0.0
3.687669 0.955131 -0.003600 0.0
3.475401 1.333556 0.002996 0.0
1.755931 0.555139 -0.003368 0.0
2.192810 0.583937 -0.003222 0.0
4.693444 1.423319 0.002802 0.0
1.904311 0.291781 -0.001403 0.0
3.351082 1.444773 0.002899 0.0
0.068831 0.797542 0.000458 0.0
3.663066 0.237648 0.002567 0.0
3.846692 0.173879 -0.000184 0.0
0.606567 0.040266 -0.000089 0.0
3.887111 0.549574 -0.001189 0.0
0.316995 0.302386 -0.000984 0.0
1.971807 1.600980 -0.002164 0.0
2.439063 0.913103 -0.001760 0.0
2.397128 1.489257 0.001196 0.0
4.679374 2.040368 0.001823 0.0
1.484882 0.827688 0.002191 0.0
1.739282 0.944938 0.002607 0.0
2.699906 1.487479 -0.002512 0.0
1.302662 1.478092 -0.001280 0.0
2.436035 0.280569 -0.003662 0.0
0.745453 0.184004 -0.002787 0.0
1.418844 0.105595 -0.002172 0.0
2.860025 1.428040 0.002029 0.0
1.540460 2.024306 0.004445 0.0
0.669699 1.251425 0.001511 0.0
4.353695 2.421156 0.003236 0.0
4.348708 1.371422 -0.000123 0.0
0.404019 0.355033 0.002249 0.0
2.970233 1.417525 -0.002526 0.0
3.544410 0.813421 -0.000054 0.0
3.474474 0.216630 -0.006016 0.0
0.827057 0.722082 0.003564 0.0
2.898356 0.225498 -0.002418 0.0
0.600584 0.140030 0.000241 0.0
0.145704 1.066152 0.001891 0.0
1.115486 0.020176 -0.004213 0.0
3.296577 2.347871 -0.001513 0.0
2.092972 1.480682 0.003544 0.0
1.617947 1.969747 0.003439 0.0
1.038282 1.557105 -0.000301 0.0
3.465358 0.491937 0.001676 0.0
2.818732 0.419136 0.000548 0.0
2.838097 2.066585 0.004345 0.0
1.361483 0.252451 0.002491 0.0
1.700849 1.346164 -0.004211 0.0
1.862492 1.936593 0.000984 0.0
3.736470 2.377621 0.000828 0.0
3.129825 0.608626 -0.000578 0.0
3.274715 2.012669 0.004117 0.0
4.307051 2.423737 0.002540 0.0
3.893724 0.594058 0.001389 0.0
0.857989 1.308963 -0.004533 0.0
4.079373 0.015554 -0.001917 0.0
0.957672 2.104025 0.003759 0.0
1.113334 1.222299 0.003817 0.0
3.705695 0.120157 0.004924 0.0
2.709239 0.981121 0.003216 0.0
3.517449 0.845134 -0.006740 0.0
1.037259 1.384933 0.001799 0.0
4.695335 1.358254 -0.002557 0.0
2.317570 0.756481 -0.000648 0.0
4.184555 0.465181 0.001478 0.0
0.974634 0.851521 0.001886 0.0
1.342295 0.836298 0.004648 0.0
1.577681 0.038552 -0.000788 0.0
0.269923 0.189630 0.000760 0.0
1.566802 0.568689 -0.004140 0.0
0.828076 2.105846 -0.000164 0.0
0.452194 0.559745 -0.003801 0.0
0.726113 2.201699 -0.000824 0.0
2.877419 2.308662 -0.002984 0.0
1.003551 1.232753 -0.000989 0.0
1.620257 2.276790 -0.002534 0.0
2.031627 1.660778 -0.006161 0.0
3.320965 0.220375 -0.000816 0.0
1.073887 1.881297 -0.005167 0.0
1.928001 1.575349 0.002206 0.0
2.774995 1.521103 0.001392 0.0
1.719903 2.086934 -0.000615 0.0
1.989618 0.541090 -0.001906 0.0
2.267829 2.050460 -0.002484 0.0
0.713074 0.609821 -0.000961 0.0
2.978680 0.954084 -0.004405 0.0
2.044338 0.933608 0.002459 0.0
2.551770 1.524469 -0.000408 0.0
4.394107 2.212016 0.000953 0.0
2.153911 1.507981 -0.000980 0.0
1.718659 1.700000 0.001522 0.0
0.653709 1.474669 -0.005839 0.0
3.333566 1.677680 0.003826 0.0
2.831190 1.325025 0.005179 0.0
3.588340 0.975115 0.000170 0.0
3.240927 2.217880 0.001383 0.0
0.389827 0.559642 -0.001888 0.0
4.443419 0.347330 0.005962 0.0
3.818976 1.735641 0.001945 0.0
2.095825 0.634661 -0.000156 0.0
3.139421 0.075923 0.003297 0.0
0.957957 1.423082 -0.004203 0.0
2.536861 1.995369 0.001649 0.0
2.741609 2.364445 -0.003429 0.0
1.199312 0.564721 -0.002168 0.0
0.180201 1.009317 0.000442 0.0
1.019814 1.441298 -0.001547 0.0
0.654067 1.154823 -0.001795 0.0
3.502926 1.939706 0.001417 0.0
3.309171 1.535061 0.005049 0.0
2.848012 0.618029 0.002213 0.0
2.268860 0.680509 -0.002044 0.0
0.513185 1.607886 -0.001818 0.0
4.279734 0.742444 -0.000899 0.0
0.519979 1.763244 0.003511 0.0
3.130105 2.437640 0.006080 0.0
1.813857 1.414532 0.001543 0.0
3.139255 0.390255 0.000231 0.0
3.175141 1.654751 0.003026 0.0
1.586651 0.413590 -0.001210 0.0
1.074858 1.753326 0.001566 0.0
4.598169 0.780726 -0.002912 0.0
0.938037 1.126531 0.003600 0.0
0.499679 1.917124 0.004533 0.0
2.559945 2.256604 0.002227 0.0
2.766313 2.401854 -0.004489 0.0
3.930673 0.911718 0.003027 0.0
3.676918 1.091868 -0.001354 0.0
4.426577 2.366928 -0.001251 0.0
1.423063 0.048932 0.003556 0.0
2.333516 0.477638 0.001918 0.0
4.031744 1.698122 -0.000135 0.0
3.500925 1.196060 0.002107 0.0
3.379594 1.077358 0.002137 0.0
2.907172 0.172637 0.002031 0.0
0.096226 1.214461 0.005353 0.0
3.479922 1.014317 0.000438 0.0
3.485544 0.515381 -0.004998 0.0
0.479338 1.281551 -0.001311 0.0
4.693893 0.147030 -0.004945 0.0
3.994428 0.596634 0.000968 0.0
3.764027 1.279366 0.001978 0.0
1.188402 1.048587 0.001858 0.0
0.929722 0.299760 0.000149 0.0
3.400535 1.639801 -0.000587 0.0
0.296694 0.844578 -0.001898 0.0
1.488820 1.391971 -0.001687 0.0
1.011351 0.779072 -0.003398 0.0
2.210282 1.854682 -0.002807 0.0
1.018835 1.310170 0.000842 0.0
1.319612 0.981024 -0.002361 0.0
4.326013 0.959429 -0.001369 0.0
1.243999 2.039234 -0.001503 0.0
3.951705 1.368426 -0.000099 0.0
3.920408 0.788517 -0.000091 0.0
3.817151 0.555553 0.002378 0.0
2.630655 1.489768 -0.000687 0.0
2.490792 1.171696 -0.000931 0.0
1.148857 1.161513 -0.002199 0.0
1.297348 0.749421 0.002216 0.0
3.648314 2.224061 -0.000172 0.0
1.948007 1.835845 0.002516 0.0
2.086969 1.604978 -0.000275 0.0
0.993824 1.392470 0.000687 0.0
3.840488 0.206866 -0.003286 0.0
1.656674 2.114689 0.002349 0.0
4.012299 0.148229 -0.001388 0.0
0.523347 1.665099 0.001395 0.0
4.168815 1.782892 0.001940 0.0
2.412723 0.600618 0.000219 0.0
0.023358 1.875772 0.002215 0.0
4.269316 0.745504 0.000793 0.0
0.116421 0.901747 0.000739 0.0
3.761607 0.888052 -0.000321 0.0
2.339864 0.196607 0.000362 0.0
3.768591 1.963454 -0.000852 0.0
4.565467 1.703256 -0.004209 0.0
3.313164 0.095644 -0.004677 0.0
0.907855 2.325067 -0.000291 0.0
3.376922 2.293889 0.001331 0.0
3.306603 1.307980 0.001307 0.0
0.968462 0.448113 0.004057 0.0
3.909759 0.570918 0.002281 0.0
0.920949 0.590011 0.002924 0.0
0.782654 0.963241 -0.001126 0.0
0.458069 2.102349 0.005353 0.0
1.983095 1.643249 0.004851 0.0
4.636982 0.985092 0.001941 0.0
1.080004 1.665872 0.000023 0.0
2.971989 2.085857 -0.000844 0.0
2.645922 1.971370 -0.003489 0.0
3.184160 1.741489 -0.001879 0.0
1.924884 0.954643 -0.002015 0.0
4.512190 0.105975 -0.005888 0.0
4.041567 2.144296 -0.001673 0.0
2.258128 0.852101 0.000926 0.0
2.115546 2.282608 -0.001083 0.0
3.826765 2.307503 0.002475 0.0
0.163107 2.025291 -0.001341 0.0
0.574798 1.089742 0.000223 0.0
1.144710 1.860112 -0.000115 0.0
2.125829 0.318198 -0.002140 0.0
0.811582 0.154245 0.000234 0.0
3.010885 2.149563 0.004303 0.0
4.504037 0.320048 0.000301 0.0
3.412305 1.254079 0.000876 0.0
3.056377 1.274487 -0.004648 0.0
3.289241 1.321277 0.002579 0.0
1.453154 0.581482 -0.000605 0.0
2.101334 1.469271 0.004979 0.0
0.620275 1.555345 0.001224 0.0
1.993843 2.295674 -0.000740 0.0
3.847463 1.811191 0.004010 0.0
3.643290 2.248272 0.001663 0.0
0.578050 2.384899 -0.000406 0.0
4.021793 0.793565 -0.000742 0.0
0.867052 1.325131 0.000635 0.0
3.780185 0.857349 -0.001414 0.0
2.367523 2.312208 -0.001824 0.0
1.441798 1.573465 0.002986 0.0
4.185915 0.613582 0.001856 0.0
1.319547 1.720194 -0.000282 0.0
1.345671 1.185484 0.000008 0.0
3.373269 0.603943 -0.002100 0.0
2.931337 1.515877 -0.002329 0.0
3.249489 0.091900 0.002270 0.0
0.695804 1.898390 0.000465 0.0
3.394918 1.920054 -0.000292 0.0
1.478072 1.233718 0.003478 0.0
2.876439 1.657979 0.001672 0.0
4.149351 1.603827 0.003406 0.0
3.572666 1.103035 0.000619 0.0
3.739562 1.282599 0.003138 0.0
0.248793 1.396290 0.000477 0.0
1.888305 0.880237 -0.000823 0.0
3.921951 0.986602 0.001821 0.0
3.926027 1.399444 0.002061 0.0
1.848378 0.210038 0.001785 0.0
3.414188 2.430567 0.007237 0.0
2.132691 1.835659 -0.000268 0.0
0.086904 0.952938 0.001566 0.0
3.230523 1.861914 -0.001014 0.0
1.110212 0.091628 -0.001976 0.0
0.047514 0.719661 -0.005216 0.0
2.326348 0.568627 -0.001198 0.0
3.245978 0.335840 -0.001802 0.0
1.550184 1.906898 -0.001008 0.0
2.920456 1.557434 -0.003391 0.0
0.103606 1.468550 0.003402 0.0
1.135103 2.252244 -0.002029 0.0
0.110202 1.035193 -0.001707 0.0
3.321295 1.741785 0.001533 0.0
3.159043 1.096928 0.000290 0.0
0.690949 1.809349 -0.001098 0.0
2.499531 0.901936 -0.001814 0.0
1.687419 1.345088 -0.000364 0.0
0.833040 1.847402 0.000518 0.0
2.031829 1.890185 0.000461 0.0
2.779667 1.731096 0.001944 0.0
2.098837 2.203245 0.004679 0.0
0.380633 1.685512 0.003615 0.0
1.257467 0.267682 -0.004757 0.0
0.762405 0.302972 0.002094 0.0
4.013541 0.211655 -0.000062 0.0
2.470862 0.877746 -0.003761 0.0
2.974477 0.344974 -0.002280 0.0
0.455124 2.225623 -0.003055 0.0
2.620431 1.294161 0.003862 0.0
4.161525 1.026685 0.004673 0.0
2.885740 2.284034 0.001577 0.0
2.782195 0.689164 -0.005321 0.0
0.260942 1.288627 -0.001426 0.0
0.286235 0.678250 0.001434 0.0
0.421080 1.586587 -0.000861 0.0
1.515062 0.669422 -0.007576 0.0
3.675133 0.988081 -0.001485 0.0
3.290601 0.055731 -0.001046 0.0
4.623363 2.053057 -0.002168 0.0
0.102496 1.424552 0.004356 0.0
2.892083 1.845642 0.003283 0.0
2.718304 1.515386 -0.002679 0.0
1.275228 1.955461 -0.003464 0.0
0.957742 0.611398 0.002341 0.0
2.331334 0.437140 0.000471 0.0
4.228028 0.666523 0.004200 0.0
0.907291 0.450956 0.000311 0.0
0.450411 0.677436 -0.000158 0.0
3.958098 0.457717 -0.002340 0.0
3.171308 0.707137 0.000590 0.0
0.827250 0.763134 0.006177 0.0
3.473874 0.809239 0.001374 0.0
3.991455 0.548629 -0.000360 0.0
2.017271 0.043046 0.003264 0.0
3.799415 0.642658 0.002825 0.0
1.503824 0.657456 0.003102 0.0
0.201489 0.303037 -0.001048 0.0
2.712719 1.872379 -0.000631 0.0
2.193163 2.257751 -0.005301 0.0
3.560340 1.790747 0.005005 0.0
0.234169 2.405128 -0.003999 0.0
0.869188 0.764703 -0.001508 0.0
4.045982 1.361740 -0.005977 0.0
3.577629 1.607830 0.000439 0.0
0.261698 2.181212 -0.003508 0.0
1.622479 1.605063 0.001064 0.0
0.357550 0.688318 0.001973 0.0
1.403341 1.890391 -0.000257 0.0
0.311075 0.393552 0.003426 0.0
2.400601 0.412353 0.001265 0.0
2.199856 1.552516 -0.003466 0.0
2.422527 0.576090 -0.002154 0.0
4.555585 2.203330 -0.001375 0.0
0.890571 0.016379 -0.000921 0.0
3.467902 1.338329 -0.000152 0.0
4.634775 0.945634 -0.003342 0.0
3.693921 1.104553 0.000036 0.0
0.999681 0.416549 0.003733 0.0
0.553836 1.080687 -0.002719 0.0
2.143085 1.610664 -0.003225 0.0
4.402594 1.437673 -0.001858 0.0
0.231204 0.490745 -0.000637 0.0
2.958204 2.001840 0.000925 0.0
4.454950 2.088385 0.002048 0.0
4.549718 1.358351 -0.001469 0.0
1.283930 1.098649 -0.002418 0.0
2.366044 2.056965 -0.000612 0.0
0.758602 0.632148 -0.006804 0.0
3.509325 0.022979 0.000317 0.0
3.858951 1.574383 -0.000029 0.0
4.381459 1.541837 0.000164 0.0
4.016763 0.757522 0.005387 0.0
0.841982 2.423063 0.000300 0.0
2.564287 1.039866 -0.004838 0.0
4.204347 1.677377 0.003809 0.0
2.062420 1.874979 -0.001906 0.0
0.976771 1.634072 -0.000995 0.0
4.381144 2.176035 0.002102 0.0
2.369429 1.552380 -0.000124 0.0
3.271447 2.402207 -0.000455 0.0
0.365513 0.497580 0.002708 0.0
3.517065 0.249303 0.000238 0.0
1.879673 1.382632 0.000693 0.0
0.837875 0.413032 -0.001176 0.0
1.693062 0.418460 0.002213 0.0
2.424702 1.318164 0.003043 0.0
3.920991 0.773409 0.001140 0.0
4.452465 2.300909 0.002011 0.0
3.662307 1.586997 -0.003067 0.0
3.795363 1.195701 -0.003848 0.0
2.707810 0.100550 0.000824 0.0
3.347020 1.989014 0.001943 0.0
1.885988 2.043359 0.001338 0.0
1.371213 1.258765 0.001499 0.0
0.725397 1.320924 -0.001189 0.0
4.478837 1.520744 0.003940 0.0
2.450834 1.646528 -0.001842 0.0
0.136334 0.879200 -0.001836 0.0
1.412736 0.280298 -0.001388 0.0
1.491175 0.087153 -0.001101 0.0
2.540591 1.515796 -0.000693 0.0
3.462758 1.237473 0.000532 0.0
3.927186 2.142545 -0.000866 0.0
1.447312 0.218773 0.001039 0.0
2.006819 1.999347 0.000651 0.0
2.623074 1.157693 0.000622 0.0
3.856331 1.159776 0.000769 0.0
3.568858 1.767271 -0.005233 0.0
2.796396 2.426641 -0.001301 0.0
1.500428 0.155873 0.001491 0.0
0.181868 1.823295 -0.002205 0.0
2.382454 0.310375 0.003993 0.0
2.120571 0.718683 -0.001356 0.0
4.068801 0.860740 0.002332 0.0
1.228582 0.249683 -0.003458 0.0
2.769943 0.065715 -0.002626 0.0
4.467500 0.761450 0.001676 0.0
1.119293 2.112400 0.002258 0.0
3.432879 0.441988 0.003161 0.0
1.462565 1.964355 -0.004285 0.0
3.748028 0.442551 0.003985 0.0
2.361090 0.179004 -0.002415 0.0
3.124858 2.099464 -0.002129 0.0
2.188555 2.361099 -0.000648 0.0
2.407270 1.068253 -0.000627 0.0
0.204811 0.509342 -0.000088 0.0
0.597616 2.362838 -0.001420 0.0
0.304826 0.274479 -0.005406 0.0
2.892795 1.331256 -0.005209 0.0
0.264316 0.119604 0.003237 0.0
1.647026 0.896687 0.003358 0.0
4.691996 0.396985 -0.001338 0.0
3.512390 0.642760 -0.001197 0.0
3.798792 2.420673 0.001301 0.0
4.385971 0.746731 -0.002253 0.0
1.835155 1.324078 0.004830 0.0
0.965686 1.530443 0.004245 0.0
2.759698 0.226610 0.000678 0.0
4.567227 0.667079 0.000803 0.0
0.016016 1.870369 -0.000610 0.0
0.758628 0.867139 -0.006355 0.0
2.730419 1.900069 0.000230 0.0
0.442577 0.724396 -0.000160 0.0
1.362546 2.316527 -0.001030 0.0
0.078309 2.203155 -0.004818 0.0
0.893510 2.062659 0.000385 0.0
2.942016 0.027891 -0.000053 0.0
4.193007 0.459310 -0.000435 0.0
3.047578 0.861315 0.002605 0.0
1.549172 2.116236 -0.001538 0.0
2.513901 1.049693 0.003313 0.0
3.111530 2.373849 0.002251 0.0
1.378242 0.297757 0.000794 0.0
2.705138 2.226104 -0.000258 0.0
0.237018 0.199003 -0.002069 0.0
3.879401 2.418084 -0.001550 0.0
0.182188 1.001923 -0.001817 0.0
1.777977 2.220210 0.006573 0.0
2.966559 0.423081 0.002828 0.0
1.907117 0.404728 -0.005157 0.0
0.070897 2.117652 -0.001407 0.0
0.669357 1.427881 -0.001320 0.0
1.590859 0.999842 -0.000907 0.0
4.302062 1.870203 0.002778 0.0
3.590038 0.057953 0.001326 0.0
2.237878 0.332790 -0.003933 0.0
4.573982 2.110901 -0.000664 0.0
1.697112 1.254315 0.000697 0.0
3.170853 0.849152 -0.000653 0.0
1.599945 0.380971 -0.000229 0.0
3.601062 0.751580 -0.000082 0.0
2.978549 2.268907 0.006321 0.0
3.506135 2.334611 -0.000032 0.0
4.508250 0.523762 -0.001914 0.0
0.102781 1.049400 -0.001755 0.0
1.954562 1.559541 0.001649 0.0
1.929444 2.390004 0.002568 0.0
0.767661 1.703212 -0.000589 0.0
3.004635 2.173853 -0.000969 0.0
0.004999 0.252472 -0.001410 0.0
2.360667 1.297603 -0.003508 0.0
2.380065 0.419494 -0.000258 0.0
3.506945 1.968632 0.002614 0.0
1.224084 0.248490 0.004546 0.0
4.243429 2.143593 0.001610 0.0
0.478181 0.823636 -0.000201 0.0
4.623259 2.153097 -0.000265 0.0
4.482970 1.857623 0.001641 0.0
3.078529 1.110808 -0.004434 0.0
0.783217 1.442306 -0.003767 0.0
0.044186 1.086436 -0.002035 0.0
4.634270 1.236831 -0.001499 0.0
0.783219 1.708531 -0.000219 0.0
1.834796 0.211011 0.000961 0.0
3.952260 2.206962 -0.003360 0.0
1.469431 1.147586 0.001536 0.0
2.499031 0.574486 0.000497 0.0
4.428844 1.992255 0.002441 0.0
0.056979 0.151646 -0.000181 0.0
2.755839 0.204219 0.000011 0.0
1.401104 0.310900 -0.002276 0.0
1.531466 0.044436 0.000138 0.0
3.319879 2.322320 0.003029 0.0
3.497471 1.459068 0.001601 0.0
2.263874 1.290896 -0.000799 0.0
3.688100 1.550332 0.001491 0.0
4.383844 2.004088 0.000298 0.0
2.986280 0.602330 0.002103 0.0
1.918816 1.001476 0.002696 0.0
4.607242 2.279221 -0.001081 0.0
0.591046 2.158733 -0.000812 0.0
0.902195 0.433167 -0.003063 0.0
3.942363 2.140760 0.000278 0.0
4.410503 2.271700 -0.002899 0.0
3.820192 1.082755 0.003181 0.0
0.480327 0.878288 -0.001543 0.0
0.137832 0.041199 -0.000919 0.0
2.621487 0.944333 0.003331 0.0
2.257441 0.559398 0.005033 0.0
0.771750 2.097051 -0.004235 0.0
