3.855070 0.858562 -0.001510 0.0
1.508818 0.044261 -0.003354 0.0
1.307298 1.454063 -0.003764 0.0
1.521646 1.080129 0.000802 0.0
3.996173 0.059226 -0.002660 0.0
3.025248 1.442738 0.001880 0.0
2.475198 1.078757 0.001151 0.0
2.461093 1.279199 -0.000702 0.0
0.032646 0.013240 -0.002909 0.0
4.167387 1.050690 0.002918 0.0
0.873250 1.422836 0.001576 0.0
3.863993 0.660435 0.003437 0.0
2.485468 0.125875 0.002095 0.0
2.983569 1.363202 0.003719 0.0
3.325906 1.783438 0.000115 0.0
1.086336 0.588331 -0.002771 0.0
1.837460 1.560497 -0.001300 0.0
3.931924 0.672556 0.000698 0.0
1.073900 1.093587 0.000444 0.0
0.974322 1.619013 -0.001074 0.0
4.156390 0.807326 0.004397 0.0
0.656411 1.001319 0.001437 0.0
2.021232 1.886141 0.000672 0.0
0.950751 0.737281 0.001769 0.0
3.605954 1.650742 -0.000396 0.0
1.682379 0.897599 -0.001372 0.0
2.509108 0.512499 0.000639 0.0
3.472513 1.634622 -0.003503 0.0
4.226422 0.916367 -0.005522 0.0
2.919497 1.350886 0.002756 0.0
2.627862 0.917384 0.000820 0.0
3.570775 1.033433 0.002650 0.0
3.069733 1.809808 -0.001738 0.0
1.844913 1.098303 0.000993 0.0
1.768035 1.627397 0.001585 0.0
1.338485 0.374654 -0.000830 0.0
2.552674 1.833997 0.003119 0.0
0.989792 0.653761 0.001639 0.0
1.821568 0.252530 -0.002337 0.0
2.342763 0.850941 0.000545 0.0
0.301749 0.380424 0.000096 0.0
1.413323 1.410843 0.001360 0.0
2.673112 0.482613 -0.004516 0.0
3.240021 0.403163 -0.001519 0.0
2.447782 0.716586 -0.000794 0.0
0.156979 1.640097 -0.007169 0.0
1.481504 0.356422 0.004426 0.0
1.115186 0.230610 -0.001407 0.0
1.435126 1.883041 -0.000569 0.0
1.537248 1.796202 -0.000610 0.0
3.698821 0.170922 0.001027 0.0
0.804698 1.054540 0.002721 0.0
1.241592 1.671466 0.001328 0.0
3.309961 0.057357 0.003846 0.0
0.320843 0.168070 -0.002194 0.0
1.515904 1.254703 0.001036 0.0
3.471816 1.177413 -0.001690 0.0
0.169593 1.019715 -0.000945 0.0
2.183191 1.364543 0.001563 0.0
2.681087 0.216070 -0.002283 0.0
4.194319 0.420303 0.001474 0.0
1.816637 1.713364 0.000795 0.0
4.015750 1.437754 0.000288 0.0
3.739001 0.924713 -0.004335 0.0
2.041897 0.093679 0.002876 0.0
0.336517 0.544488 -0.000303 0.0
2.184413 0.367473 -0.000930 0.0
0.967889 1.796644 0.003027 0.0
2.520095 0.139622 0.000859 0.0
0.389340 0.722889 0.004327 0.0
0.814677 0.676160 -0.000947 0.0
3.444843 0.643936 0.001565 0.0
1.932275 0.692558 0.000054 0.0
1.917184 1.672074 0.000436 0.0
3.755836 1.214126 0.005315 0.0
2.353169 1.373756 0.000607 0.0
0.789533 1.019894 -0.001150 0.0
2.348581 1.565236 0.000149 0.0
0.029931 1.088635 0.000528 0.0
2.535191 1.182325 0.001184 0.0
2.970143 1.217726 -0.000175 0.0
4.213960 0.351802 -0.002351 0.0
4.051613 1.168814 -0.002592 0.0
1.973171 1.858581 -0.001483 0.0
0.639711 0.048132 -0.001216 0.0
1.305485 0.808686 0.002787 0.0
3.518045 0.321793 0.004153 0.0
2.882162 1.303806 0.001948 0.0
1.524556 0.168107 0.000209 0.0
0.499611 1.308113 0.001024 0.0
0.394172 0.518919 0.000966 0.0
2.011793 0.821528 0.000668 0.0
1.459707 0.409565 -0.001534 0.0
1.781421 0.244923 -0.000003 0.0
0.822461 1.467842 0.003643 0.0
2.788921 0.754241 -0.001800 0.0
1.299210 0.490370 -0.000547 0.0
1.708944 1.239365 0.001114 0.0
2.124449 0.113789 0.003369 0.0
0.946246 0.334980 -0.002556 0.0
2.186882 1.315256 0.001181 0.0
2.691268 0.687686 0.003647 0.0
1.226217 0.851572 -0.001835 0.0
0.484410 0.699184 -0.000148 0.0
0.266188 0.968930 -0.000075 0.0
1.938459 0.230378 -0.000543 0.0
1.138266 0.479244 0.003272 0.0
2.433687 0.744953 0.000842 0.0
0.649621 0.147784 -0.001569 0.0
2.722978 0.169482 0.001271 0.0
3.742998 1.095781 0.005110 0.0
0.845185 1.395545 0.000976 0.0
2.808352 0.528493 0.000631 0.0
0.051706 1.693581 0.002764 0.0
0.268406 1.125735 0.002305 0.0
4.092164 1.549511 0.000566 0.0
1.020714 1.721408 0.003682 0.0
2.989352 0.491617 -0.003830 0.0
0.276785 0.464964 -0.004768 0.0
0.717587 1.141167 -0.003207 0.0
2.462529 1.608147 0.004159 0.0
1.077101 0.399328 -0.000127 0.0
0.227569 1.403000 0.002900 0.0
2.419118 0.562285 -0.005960 0.0
2.610055 1.850212 -0.000662 0.0
1.367048 0.208517 0.002569 0.0
3.995706 0.163210 -0.000040 0.0
3.331890 1.847153 0.000279 0.0
3.272450 0.353769 0.005860 0.0
4.155627 0.823718 -0.002017 0.0
0.158649 1.103935 -0.001518 0.0
2.165047 0.515502 0.000478 0.0
1.073012 1.149598 0.005152 0.0
3.203072 1.538044 0.002113 0.0
0.606704 1.177021 -0.004050 0.0
2.127478 0.255976 0.000547 0.0
4.069226 0.426654 0.000397 0.0
0.703408 0.635766 -0.001075 0.0
2.323912 1.174904 -0.002445 0.0
0.894484 0.097875 -0.001787 0.0
3.676564 1.864007 -0.002612 0.0
2.321874 0.403211 -0.000141 0.0
2.317875 0.128224 -0.000420 0.0
3.357346 1.386242 -0.002659 0.0
3.251866 1.517600 0.000353 0.0
1.933417 1.489873 0.000445 0.0
2.589521 1.879452 0.002312 0.0
2.187346 1.337844 -0.000268 0.0
3.193553 1.778492 0.004469 0.0
0.449185 0.521889 0.001869 0.0
0.746982 0.593338 -0.000701 0.0
0.738662 1.251116 0.000988 0.0
0.793353 0.904484 -0.002136 0.0
1.788825 0.731789 -0.005367 0.0
3.799808 1.674524 -0.002278 0.0
1.949987 1.306552 -0.002239 0.0
3.445385 1.644416 0.001713 0.0
1.942870 1.450324 -0.003110 0.0
1.739683 1.774505 0.003415 0.0
2.823961 1.029760 -0.006023 0.0
0.975935 0.966379 -0.006374 0.0
1.901042 1.561523 0.000112 0.0
1.118467 1.442126 0.000196 0.0
1.180812 0.962086 0.001835 0.0
3.902451 0.434737 0.002432 0.0
3.576907 0.164279 -0.004440 0.0
0.112860 1.384069 0.003267 0.0
0.853721 0.187898 0.002512 0.0
0.099236 0.216133 -0.000183 0.0
2.330237 1.336036 0.000023 0.0
2.582870 1.048457 0.001392 0.0
3.639875 1.395049 -0.001706 0.0
3.405582 0.838948 -0.001337 0.0
0.377276 1.531162 -0.001233 0.0
2.167598 0.362899 0.002747 0.0
1.436924 0.494190 -0.001857 0.0
2.021727 1.689969 -0.001293 0.0
3.936880 0.715601 0.000861 0.0
3.119759 1.398785 0.002083 0.0
3.585647 1.079235 0.001971 0.0
0.481109 0.030233 0.002480 0.0
0.146667 1.490125 -0.003816 0.0
2.016734 0.691987 -0.003431 0.0
0.815190 1.562786 0.002374 0.0
3.788777 0.359289 -0.000293 0.0
0.418083 1.884846 -0.001345 0.0
1.162162 1.790186 -0.000372 0.0
3.744367 0.299129 0.001928 0.0
3.106525 0.575916 0.002034 0.0
0.168899 0.139761 0.001086 0.0
2.428737 1.289546 0.000732 0.0
4.059475 0.169684 0.002768 0.0
3.677212 1.110160 -0.000130 0.0
0.509585 0.930977 -0.000614 0.0
0.889243 0.149433 0.001312 0.0
1.267007 1.249303 0.005775 0.0
1.477437 1.173274 -0.003117 0.0
0.852384 0.349076 -0.002255 0.0
1.529210 0.322500 0.000391 0.0
3.982781 0.994569 -0.000408 0.0
0.086241 1.564576 -0.002634 0.0
1.945365 0.334643 -0.006441 0.0
1.933874 0.304601 0.000237 0.0
2.298804 1.436089 0.002211 0.0
3.908259 0.800660 0.003127 0.0
0.589075 0.714132 0.003605 0.0
2.072737 0.343159 0.001927 0.0
1.534635 0.448291 0.000803 0.0
2.828926 1.429754 0.001715 0.0
3.423339 1.154046 -0.000841 0.0
3.926173 0.415606 0.002572 0.0
3.640470 0.737111 -0.001078 0.0
2.562401 1.039145 -0.003796 0.0
0.840403 1.635778 -0.001183 0.0
0.645985 0.750706 -0.000791 0.0
3.080452 0.214628 -0.000423 0.0
2.045373 0.642597 0.002161 0.0
2.552924 1.758394 0.004597 0.0
3.844584 0.386223 0.000841 0.0
2.350568 0.623756 -0.001696 0.0
1.541780 0.251405 -0.000960 0.0
3.989440 1.663236 0.000985 0.0
1.806771 0.169509 0.000456 0.0
3.288699 1.701316 0.001793 0.0
1.561289 1.478840 -0.003810 0.0
1.074302 0.059233 0.000404 0.0
2.806022 1.054746 0.002380 0.0
0.370982 0.779136 0.002374 0.0
0.737404 1.739746 0.000223 0.0
1.208989 0.662976 -0.003238 0.0
2.343652 1.854863 -0.006617 0.0
3.573805 0.996715 -0.002245 0.0
0.909205 0.343982 0.001524 0.0
0.736875 0.601958 0.001932 0.0
2.439769 0.052253 0.000624 0.0
2.057369 0.746821 0.003114 0.0
3.351138 0.934644 -0.002629 0.0
2.926839 0.635558 -0.000123 0.0
3.096760 1.811272 -0.005258 0.0
3.581762 0.338144 -0.002216 0.0
1.829188 0.797873 0.002185 0.0
3.727522 1.094548 0.002656 0.0
2.263099 1.081800 0.003221 0.0
1.880568 1.112563 -0.003356 0.0
2.580408 0.433266 -0.001200 0.0
1.827349 0.205527 -0.001959 0.0
2.998375 1.374257 -0.007649 0.0
3.477385 0.631861 -0.001360 0.0
3.164805 1.422423 -0.000446 0.0
2.671715 1.784421 0.002806 0.0
3.030341 0.592948 -0.002570 0.0
2.614768 0.135281 0.001419 0.0
0.230279 1.677713 0.002019 0.0
1.902004 1.743728 -0.000241 0.0
1.247021 0.405033 -0.000828 0.0
2.845683 1.092712 -0.003347 0.0
0.962208 1.473523 -0.001188 0.0
2.245106 0.869136 0.000439 0.0
1.808072 0.489312 0.001906 0.0
3.245932 0.628544 0.003021 0.0
0.170041 1.343190 -0.001003 0.0
1.043396 0.336506 0.000147 0.0
1.835184 0.345235 -0.004860 0.0
2.278827 1.402805 -0.000317 0.0
3.150796 1.422919 -0.005069 0.0
1.325094 0.885500 0.001431 0.0
1.667226 0.483118 -0.001464 0.0
1.009160 0.457795 -0.003330 0.0
2.794959 0.344935 0.002892 0.0
1.268529 0.601168 0.002216 0.0
1.590260 0.747323 0.000072 0.0
0.573202 0.650869 -0.002775 0.0
1.494471 1.666956 -0.001207 0.0
1.521353 1.012757 0.002244 0.0
2.659948 1.850591 -0.002578 0.0
1.063469 1.385860 0.003374 0.0
4.083518 1.841376 -0.004980 0.0
1.864666 1.192836 0.001324 0.0
3.084915 1.873402 0.000004 0.0
3.980666 0.414612 -0.003923 0.0
2.435916 1.462186 -0.004400 0.0
2.494662 1.216593 0.002512 0.0
1.706703 0.338769 -0.000625 0.0
4.254018 1.411266 0.002009 0.0
0.413465 0.300927 -0.000882 0.0
3.570208 0.982400 0.000025 0.0
2.265145 1.701421 0.003807 0.0
2.222457 0.848137 -0.004842 0.0
2.440835 0.863736 0.002342 0.0
0.286471 0.928580 0.001828 0.0
2.259466 0.638363 0.000100 0.0
1.161096 1.146826 -0.001682 0.0
1.464644 0.482575 -0.000917 0.0
3.511394 0.580875 0.003682 0.0
1.101195 0.362664 0.001331 0.0
3.296819 1.611248 -0.001093 0.0
1.431619 0.131220 -0.003793 0.0
2.534733 1.590114 -0.000154 0.0
0.122203 0.629706 -0.005225 0.0
2.411802 1.046343 0.000579 0.0
3.735105 1.292810 -0.001287 0.0
2.719930 1.417868 -0.002454 0.0
2.331445 0.220659 0.003231 0.0
1.917486 0.053114 -0.001983 0.0
0.156657 0.606114 0.000012 0.0
0.770181 0.169268 0.001799 0.0
3.467436 0.417051 0.000291 0.0
1.415435 0.656645 0.001104 0.0
1.327888 0.018346 -0.002219 0.0
0.154480 1.522809 -0.000215 0.0
4.057236 0.549035 -0.001967 0.0
0.996028 0.160303 0.000196 0.0
3.238925 0.431166 0.000809 0.0
3.679537 1.468489 -0.003301 0.0
3.132753 1.382823 0.002442 0.0
3.610933 1.474295 -0.000731 0.0
4.073957 0.282082 0.005314 0.0
2.723748 0.384064 0.004384 0.0
2.411359 0.706462 0.000429 0.0
1.001217 1.356183 0.002207 0.0
4.130985 0.268241 0.006826 0.0
2.348466 0.821867 0.000001 0.0
2.913792 0.052900 -0.004991 0.0
1.551686 1.293390 0.003819 0.0
2.008762 0.481132 0.002754 0.0
4.218388 0.344333 -0.003119 0.0
1.291231 1.784904 0.000433 0.0
3.130714 1.875460 0.002299 0.0
0.233069 0.368109 -0.001284 0.0
2.078059 1.099930 0.004289 0.0
1.372530 0.310067 -0.000442 0.0
0.931901 1.019756 0.003610 0.0
3.026138 1.656666 -0.000176 0.0
1.237041 0.016309 0.002680 0.0
3.049874 1.300465 -0.000590 0.0
1.709175 1.209862 0.003013 0.0
2.165294 0.788933 -0.004185 0.0
0.359630 0.579945 0.000256 0.0
3.039899 0.082344 -0.000413 0.0
2.427988 0.502989 0.002995 0.0
0.157318 1.564983 0.001351 0.0
1.553506 0.867893 -0.002247 0.0
0.455249 0.718135 -0.001403 0.0
0.370810 1.680654 -0.000868 0.0
2.633089 1.120864 0.002868 0.0
3.478795 1.703815 0.001646 0.0
0.684517 0.161007 -0.001444 0.0
2.432909 0.908143 0.001570 0.0
3.492678 0.313524 0.000874 0.0
3.907095 0.256452 -0.004907 0.0
3.619952 1.802341 0.002994 0.0
3.407948 1.731470 -0.000571 0.0
0.886038 1.082852 0.001954 0.0
3.003230 0.406702 0.003306 0.0
0.205268 0.619943 -0.003314 0.0
3.618296 1.234699 0.000679 0.0
0.635576 1.373392 0.000726 0.0
3.253803 1.759729 -0.001052 0.0
3.614971 0.722327 -0.000593 0.0
3.910960 1.751018 0.000141 0.0
2.751294 0.711432 -0.002397 0.0
1.742888 1.210311 0.001669 0.0
1.479700 1.686844 -0.002234 0.0
2.068878 0.605722 -0.002008 0.0
3.220585 0.637859 -0.001586 0.0
1.998880 0.311781 -0.000161 0.0
3.995441 0.413826 0.000864 0.0
3.113484 0.364909 -0.002879 0.0
0.053594 1.760795 0.002045 0.0
3.735454 1.516649 0.005207 0.0
2.088228 1.264424 0.001577 0.0
2.498077 0.000290 0.005044 0.0
0.581425 1.471809 -0.002153 0.0
0.817744 1.197085 0.002172 0.0
3.012578 0.367471 -0.001329 0.0
1.341335 0.023055 -0.006069 0.0
1.592084 0.364862 -0.001063 0.0
2.303190 1.530593 -0.000794 0.0
1.516981 0.490613 0.001395 0.0
3.120778 0.427520 0.002260 0.0
1.627595 1.709387 -0.002253 0.0
4.097004 1.199248 0.005395 0.0
0.457801 0.662607 -0.000021 0.0
1.624031 1.700175 -0.001899 0.0
4.173315 0.507958 -0.001132 0.0
2.668504 0.996103 0.003008 0.0
2.688019 1.374804 -0.000013 0.0
3.828347 0.107071 -0.004975 0.0
3.248982 0.080362 -0.000777 0.0
1.302801 0.511447 -0.001647 0.0
3.351496 0.280530 -0.002101 0.0
2.628559 0.109320 0.005387 0.0
0.113017 0.398840 -0.001232 0.0
1.210357 0.911713 0.001724 0.0
3.715410 0.832729 -0.000714 0.0
3.079418 1.131659 -0.000496 0.0
3.310471 0.513923 -0.005595 0.0
1.173250 0.872726 -0.001726 0.0
4.223996 1.478279 0.000285 0.0
4.079555 0.841923 -0.002514 0.0
4.140404 1.767371 0.001851 0.0
1.086340 1.162616 0.000949 0.0
1.255584 1.396348 0.002316 0.0
2.224047 0.773343 -0.003570 0.0
1.728255 1.547737 0.001069 0.0
3.260254 1.070060 0.000704 0.0
2.068911 1.137479 0.002179 0.0
1.026362 1.565292 0.001939 0.0
2.535060 0.825722 -0.003406 0.0
0.807926 0.604737 0.002052 0.0
2.711526 0.324098 0.000206 0.0
1.793079 1.170028 0.003802 0.0
4.159645 0.361355 -0.000468 0.0
2.790463 0.133143 -0.000367 0.0
1.733668 0.433255 -0.005271 0.0
1.781770 0.929839 0.000061 0.0
2.721476 0.324813 0.000808 0.0
3.051482 0.458115 0.003536 0.0
1.474350 1.647644 -0.001182 0.0
3.522595 1.047446 -0.001511 0.0
2.655622 1.065653 0.000992 0.0
3.290354 1.403779 -0.000295 0.0
2.997649 1.661866 -0.000683 0.0
2.287168 0.463381 0.000506 0.0
1.105100 1.273654 -0.002999 0.0
2.519873 0.345601 0.001163 0.0
2.836601 0.065978 0.000005 0.0
3.500314 1.093169 -0.003670 0.0
1.657449 1.709603 0.000318 0.0
0.005180 0.667347 -0.000914 0.0
2.159814 0.905879 -0.000688 0.0
2.509124 0.404474 -0.004168 0.0
3.070463 0.340667 -0.000788 0.0
0.754633 0.639692 -0.000026 0.0
3.431747 1.414288 0.004050 0.0
1.778877 1.328810 0.000420 0.0
1.031615 1.164624 -0.002063 0.0
3.893044 0.640128 0.006872 0.0
3.583600 0.213028 -0.004623 0.0
1.649249 1.346988 -0.004261 0.0
2.363967 0.521635 0.001644 0.0
0.112479 1.219240 0.003909 0.0
1.555751 0.813154 0.000735 0.0
2.011858 1.042861 0.001573 0.0
0.900004 1.789895 -0.000460 0.0
0.224180 0.738053 0.000191 0.0
3.076702 1.290084 -0.004141 0.0
2.232061 0.475103 -0.000465 0.0
0.363787 1.102604 -0.001014 0.0
0.022179 1.715458 -0.002942 0.0
2.926747 1.170041 -0.001329 0.0
0.375345 1.413664 0.003597 0.0
0.285639 0.013259 -0.000817 0.0
4.181513 0.131370 -0.004058 0.0
1.640742 1.861781 -0.000108 0.0
0.974075 0.520371 -0.003283 0.0
3.520794 0.965962 0.000187 0.0
0.091705 0.524458 -0.001438 0.0
0.042789 1.283072 -0.000362 0.0
2.660372 0.490522 0.000528 0.0
0.770925 0.051877 -0.005081 0.0
1.626373 1.847888 -0.000318 0.0
2.089265 0.149362 -0.002841 0.0
1.271381 0.870972 -0.000846 0.0
2.107595 0.450193 -0.001762 0.0
0.628703 0.236702 0.003892 0.0
1.820201 0.263260 -0.001037 0.0
1.752780 1.673623 0.004210 0.0
1.349750 1.612557 0.000525 0.0
0.614973 0.575907 -0.004352 0.0
1.464923 1.549808 0.002245 0.0
0.634068 0.449709 -0.001789 0.0
1.909305 1.073449 0.000326 0.0
2.492060 1.145465 0.003362 0.0
3.939556 0.593326 0.003865 0.0
4.175836 0.180290 0.000799 0.0
1.119779 0.566920 0.000477 0.0
0.482298 1.446368 -0.000914 0.0
3.655303 0.444177 0.000610 0.0
1.261286 0.880312 -0.002252 0.0
0.792632 0.676576 -0.002555 0.0
3.673183 0.087398 -0.002871 0.0
1.774527 1.623463 -0.001518 0.0
4.141446 1.074047 -0.005004 0.0
3.028145 0.577456 0.002607 0.0
2.984831 1.834274 -0.002287 0.0
0.786173 1.554940 -0.000250 0.0
4.017216 1.022150 0.003111 0.0
4.232820 1.747396 0.001008 0.0
3.797929 0.870558 -0.002870 0.0
2.830934 0.701827 0.000462 0.0
1.682219 0.447178 0.001103 0.0
3.084770 0.511575 0.003627 0.0
1.174615 1.393356 -0.000228 0.0
3.852163 1.504497 0.001480 0.0
0.001735 0.862087 0.001145 0.0
0.296081 1.252630 0.000631 0.0
3.166901 1.088038 0.002546 0.0
0.957757 1.740120 -0.002523 0.0
3.012528 1.184559 -0.002167 0.0
1.020213 0.098452 -0.004200 0.0
3.903482 0.642261 0.000085 0.0
0.867754 1.320229 0.000544 0.0
1.530796 0.170129 0.003449 0.0
1.176770 1.478813 -0.003031 0.0
4.080059 1.779076 -0.000650 0.0
3.575827 1.769128 0.001907 0.0
3.733671 0.273642 -0.002299 0.0
1.808383 0.525117 0.000453 0.0
0.984649 1.107861 -0.001952 0.0
2.049877 0.548152 0.004668 0.0
3.364929 0.850515 0.000873 0.0
2.854690 1.786296 -0.001321 0.0
3.397617 0.318455 -0.001535 0.0
0.042845 0.758046 -0.000861 0.0
4.099599 0.697883 0.008990 0.0
2.608682 1.532483 0.000581 0.0
1.463261 0.939712 -0.000602 0.0
3.570906 0.490183 -0.000490 0.0
1.262535 0.454045 0.000451 0.0
1.359787 1.007224 0.001563 0.0
1.448210 0.507593 0.000617 0.0
2.899206 0.227199 0.004431 0.0
0.015058 1.017628 0.002531 0.0
2.252408 0.266704 -0.000616 0.0
2.364975 0.470694 -0.001847 0.0
1.981780 1.305207 -0.000149 0.0
1.983177 1.053068 -0.000105 0.0
0.247310 0.718256 0.002618 0.0
2.786696 0.688350 0.000120 0.0
0.809097 1.173997 0.004679 0.0
1.383780 0.413282 -0.004417 0.0
0.901812 0.689642 -0.001065 0.0
3.534665 1.194385 0.004364 0.0
2.306581 0.180535 0.000798 0.0
2.173915 0.412391 -0.000595 0.0
0.045467 0.572340 -0.003734 0.0
1.243447 0.266298 -0.003253 0.0
2.144658 1.250861 0.002774 0.0
2.942869 1.413241 -0.000034 0.0
0.356566 0.766442 0.001253 0.0
1.805869 0.117526 0.005207 0.0
1.354204 1.870622 0.003211 0.0
0.472292 0.099435 0.003651 0.0
1.545154 0.960217 -0.000021 0.0
0.295178 1.256436 0.002573 0.0
2.163988 0.676911 0.000147 0.0
2.566890 0.012431 0.000136 0.0
0.200256 0.160902 -0.001663 0.0
3.763181 0.126281 0.001638 0.0
3.205202 0.272849 -0.002836 0.0
0.685984 0.482474 0.003295 0.0
2.109084 0.550686 -0.000327 0.0
1.161105 1.460228 -0.003608 0.0
3.152131 1.327338 -0.004021 0.0
2.519185 1.144023 0.002646 0.0
1.302496 0.206525 -0.000001 0.0
0.571998 1.641710 0.001924 0.0
0.044554 1.482137 -0.004860 0.0
0.921259 1.153047 0.001408 0.0
0.696909 0.972797 -0.003158 0.0
3.950318 0.044980 0.002561 0.0
3.944074 1.843206 0.000631 0.0
4.051011 1.733900 0.000452 0.0
1.786267 1.265405 0.004833 0.0
1.079405 1.485834 0.004698 0.0
1.436182 0.453456 -0.001577 0.0
4.204758 1.100330 -0.002044 0.0
0.710692 1.171242 0.000787 0.0
1.610262 1.187722 0.000861 0.0
2.754409 0.679164 -0.001425 0.0
2.573616 1.722598 -0.004595 0.0
2.697423 0.133552 0.005274 0.0
3.832317 1.488076 0.002059 0.0
4.072806 1.102360 0.000679 0.0
3.946490 0.706733 -0.000771 0.0
3.757834 0.451528 -0.000035 0.0
1.191628 0.486078 0.000051 0.0
2.124979 1.572061 -0.001683 0.0
2.607331 0.633506 -0.001415 0.0
0.274023 0.927529 -0.002096 0.0
2.342357 0.128732 0.002069 0.0
1.103506 0.210286 -0.001529 0.0
0.959983 1.260824 -0.003621 0.0
3.840077 0.785570 -0.001459 0.0
0.046364 0.520774 0.002898 0.0
4.094336 0.335598 0.000990 0.0
3.000656 0.779651 0.002954 0.0
2.222415 1.768756 -0.007728 0.0
3.293379 0.169958 -0.001957 0.0
4.206028 0.078112 -0.002745 0.0
1.903416 0.959681 0.003933 0.0
4.206603 0.510032 0.000408 0.0
0.844947 1.070781 0.000624 0.0
0.389993 0.599229 0.003223 0.0
0.408673 1.271632 -0.001354 0.0
3.401118 1.176462 -0.002374 0.0
0.546404 0.460404 0.002078 0.0
1.725609 0.874632 -0.001552 0.0
3.657982 0.430060 -0.001831 0.0
3.532268 0.136834 0.001253 0.0
0.923695 0.520556 0.003234 0.0
3.921569 1.247492 -0.002869 0.0
2.848104 0.029746 -0.004552 0.0
-0.000170 1.620254 0.002305 0.0
2.238648 1.746727 -0.000506 0.0
4.050332 1.041659 0.002755 0.0
1.468885 1.831449 0.000837 0.0
3.498854 1.853938 0.002579 0.0
3.635573 1.658171 -0.002210 0.0
1.314197 1.713290 -0.002211 0.0
0.514540 0.066544 0.004028 0.0
2.900033 0.594336 0.000668 0.0
1.689579 0.517026 0.004589 0.0
4.160276 1.730974 -0.001848 0.0
0.590162 1.480207 0.000739 0.0
0.608074 0.366377 0.005264 0.0
1.099359 0.838581 -0.003523 0.0
3.570534 0.831828 0.000122 0.0
0.817791 1.042075 -0.003343 0.0
2.912194 1.225565 -0.002016 0.0
2.538581 1.222398 -0.003323 0.0
3.825301 1.848603 0.001097 0.0
3.916400 1.117868 0.001099 0.0
4.174135 0.249697 0.001181 0.0
3.113513 1.713230 0.001774 0.0
4.202079 1.828054 -0.007003 0.0
3.701808 0.650897 -0.003403 0.0
3.302891 1.579963 -0.002696 0.0
0.463175 0.791267 0.001441 0.0
3.977590 1.239297 0.000262 0.0
4.171693 0.872399 -0.000864 0.0
1.682334 1.397434 0.000612 0.0
1.976968 1.317165 -0.001073 0.0
3.048873 0.427245 0.003579 0.0
4.058728 0.440831 0.003302 0.0
3.328147 0.857690 0.003559 0.0
1.948123 0.619566 -0.001422 0.0
3.983385 0.879702 -0.001963 0.0
4.110571 0.344950 0.000519 0.0
4.143529 0.518939 -0.004193 0.0
2.855192 0.915934 0.003375 0.0
0.718235 1.496503 0.001017 0.0
0.374809 1.830061 0.001791 0.0
2.429195 1.693138 0.001542 0.0
2.263324 0.965729 -0.002074 0.0
3.807854 0.440669 0.001710 0.0
3.895785 0.154948 -0.003797 0.0
0.221102 1.870826 -0.001199 0.0
2.967973 0.931479 0.001376 0.0
3.245716 1.040640 0.000129 0.0
3.517913 0.381453 0.000989 0.0
1.692256 0.476577 -0.002046 0.0
3.014376 1.276415 -0.004655 0.0
3.492999 1.130699 -0.005178 0.0
2.417226 0.010944 0.001694 0.0
1.998412 0.896317 -0.000599 0.0
3.108294 0.216664 -0.006402 0.0
3.484250 1.319516 -0.003413 0.0
2.373572 0.699687 -0.003454 0.0
3.214082 0.834973 0.002586 0.0
1.370178 1.191897 0.000708 0.0
2.266401 1.744664 -0.001571 0.0
2.377847 1.251217 -0.002977 0.0
2.314865 1.513051 0.003194 0.0
2.414191 1.650791 0.000161 0.0
3.669900 0.730824 0.004135 0.0
1.452532 0.144548 -0.001780 0.0
2.891333 0.477559 -0.001753 0.0
3.778243 1.557287 0.002528 0.0
1.971011 0.830463 0.003125 0.0
0.650647 1.622874 0.003273 0.0
3.647571 0.537081 0.001659 0.0
2.445394 1.772108 -0.001532 0.0
1.330575 1.647576 0.003472 0.0
3.127831 1.782339 0.000374 0.0
1.961153 1.410320 -0.001816 0.0
0.188930 1.522417 0.002038 0.0
1.645751 0.681158 0.001741 0.0
3.252085 0.034395 -0.000564 0.0
0.807711 0.793255 -0.002634 0.0
4.135009 0.058702 0.002996 0.0
3.535150 1.601006 -0.000268 0.0
2.701517 0.432806 0.001668 0.0
3.727010 1.824945 -0.000795 0.0
0.781039 1.687799 0.002399 0.0
2.339300 0.841269 0.001977 0.0
3.709672 1.694547 0.004335 0.0
1.129936 1.828096 -0.002430 0.0
1.734938 0.381155 -0.000477 0.0
0.626054 1.358409 -0.002104 0.0
2.677038 0.154943 0.002567 0.0
0.402550 0.889170 -0.001603 0.0
0.191640 0.837673 0.000839 0.0
3.283025 1.233443 -0.003423 0.0
3.560822 0.830890 0.001137 0.0
3.198926 0.088620 -0.000979 0.0
4.069913 0.496450 0.001288 0.0
1.310339 0.998276 -0.002544 0.0
3.403837 0.210544 0.000278 0.0
1.458440 1.342903 -0.001272 0.0
4.154780 0.377061 0.003871 0.0
4.050204 1.594794 0.002844 0.0
3.087326 1.783396 -0.002308 0.0
3.100007 0.858313 -0.000747 0.0
4.172580 1.655319 0.000337 0.0
4.174803 1.805139 -0.001494 0.0
3.474855 1.396518 -0.004474 0.0
2.840887 0.385301 0.001579 0.0
0.704587 1.563670 0.000331 0.0
0.598915 0.338461 -0.002032 0.0
3.843180 1.056608 -0.000920 0.0
1.350565 0.496316 -0.001835 0.0
3.197710 0.615030 0.000508 0.0
1.258409 0.309728 0.002588 0.0
2.878446 0.112688 -0.001268 0.0
3.160742 1.043036 0.000498 0.0
2.037002 1.161894 0.001525 0.0
3.244857 0.913650 -0.000773 0.0
2.811008 1.587719 0.000110 0.0
2.004653 0.858107 -0.002314 0.0
1.283392 0.842049 0.001234 0.0
2.750850 0.335799 0.004647 0.0
3.355528 0.375884 0.000257 0.0
1.042331 0.794915 0.002811 0.0
4.171152 0.123482 -0.003852 0.0
0.799539 0.012776 -0.003546 0.0
0.050594 0.576007 0.002519 0.0
2.888290 0.816112 -0.001943 0.0
2.553722 1.482484 -0.000953 0.0
1.420831 1.692882 0.001874 0.0
1.034943 0.004565 0.000663 0.0
3.054014 1.446797 -0.000692 0.0
2.864243 1.774514 -0.000201 0.0
3.869360 1.451666 0.002286 0.0
0.182319 0.588300 0.004755 0.0
1.625190 1.233865 0.002182 0.0
3.991438 1.405744 0.003200 0.0
2.918368 1.430066 -0.003868 0.0
3.606619 1.671497 0.002494 0.0
3.522575 1.093683 0.002421 0.0
0.152387 1.162088 -0.001194 0.0
3.123617 0.940927 0.003253 0.0
1.210428 1.620117 -0.002044 0.0
4.006136 1.589362 0.002332 0.0
0.118115 0.158726 -0.001855 0.0
4.052524 1.028515 0.001657 0.0
3.800514 1.854544 -0.000621 0.0
0.061016 1.297773 -0.001100 0.0
0.852869 1.169576 -0.002934 0.0
1.056119 1.019391 -0.007640 0.0
1.755680 1.553322 0.002375 0.0
2.883353 0.244695 -0.001905 0.0
0.587461 1.650850 0.002584 0.0
0.886522 0.434986 0.004232 0.0
2.281125 0.756160 0.000920 0.0
2.688291 0.696423 -0.001885 0.0
2.561548 0.945987 0.003701 0.0
2.252060 0.455525 -0.001799 0.0
2.777813 0.471944 -0.000610 0.0
3.683121 1.417569 0.001493 0.0
2.237214 0.010904 -0.001150 0.0
1.334500 0.788453 -0.003214 0.0
0.736445 1.535782 0.002850 0.0
0.049478 0.289921 -0.002570 0.0
3.041001 1.025501 0.000382 0.0
0.018941 0.638926 -0.001244 0.0
3.378849 0.713059 0.000268 0.0
1.964321 1.144331 0.004885 0.0
0.519660 1.687913 -0.002289 0.0
0.006257 1.389955 0.000231 0.0
2.730250 0.278657 0.003836 0.0
2.356393 1.174135 -0.003613 0.0
2.275722 1.671836 0.001998 0.0
3.326600 0.392716 -0.002065 0.0
1.329499 0.483444 0.001518 0.0
2.554052 0.193447 -0.001049 0.0
4.226489 0.475297 0.004003 0.0
1.210678 0.751610 -0.004616 0.0
1.012927 1.422819 -0.001520 0.0
1.528489 0.708103 0.005261 0.0
0.730290 0.166662 -0.000114 0.0
3.532549 0.790320 -0.001700 0.0
0.656396 0.251925 0.002101 0.0
2.600482 0.658569 0.000925 0.0
1.416256 0.485625 0.001328 0.0
0.517916 0.498266 -0.002247 0.0
0.797619 0.668205 -0.001110 0.0
2.789568 0.185432 0.001379 0.0
0.772076 1.125079 -0.001935 0.0
2.513807 1.650334 -0.002796 0.0
1.587153 0.673753 0.001923 0.0
0.033247 0.759866 0.004553 0.0
2.239642 0.781398 0.000362 0.0
1.096756 0.028529 -0.003157 0.0
0.950795 0.194108 -0.001282 0.0
2.098927 0.596523 -0.003005 0.0
1.405761 0.308710 -0.003586 0.0
1.385411 0.532371 -0.000392 0.0
4.236387 1.513951 -0.004004 0.0
2.018871 0.413938 0.001770 0.0
0.043081 1.734745 0.000946 0.0
1.471635 1.502338 -0.002471 0.0
1.423290 1.217130 -0.000611 0.0
2.946355 1.851267 0.003161 0.0
4.201552 0.292914 0.003159 0.0
1.344391 0.411239 -0.001091 0.0
3.738643 1.848428 -0.001904 0.0
2.214599 0.709833 -0.002776 0.0
1.904931 0.962683 0.000974 0.0
0.137478 1.392217 -0.003557 0.0
1.270189 0.744350 -0.001850 0.0
0.967835 0.275658 0.001718 0.0
3.024298 1.529105 0.002005 0.0
4.239842 1.830831 0.003747 0.0
4.147462 0.110630 0.002011 0.0
4.254982 0.412414 0.002481 0.0
0.811910 1.503356 -0.001742 0.0
0.882556 1.216329 -0.000126 0.0
0.875349 0.628519 -0.000591 0.0
3.071393 1.834634 0.003254 0.0
3.985353 0.808414 0.000994 0.0
2.763160 1.557858 -0.000622 0.0
0.491719 1.416007 0.003703 0.0
0.646210 1.236492 -0.001769 0.0
2.594705 0.037635 0.000869 0.0
1.729212 0.604083 -0.001578 0.0
3.980792 1.163676 -0.000959 0.0
2.628247 0.703068 0.000684 0.0
4.065409 0.924910 0.001262 0.0
2.359298 0.645023 0.000869 0.0
3.153584 1.848092 -0.003481 0.0
0.492899 1.233053 0.001217 0.0
2.854078 0.671189 -0.003384 0.0
2.223885 0.237903 -0.000374 0.0
1.666878 1.448103 -0.000361 0.0
0.423465 0.285991 0.001939 0.0
0.312028 0.190621 0.001503 0.0
0.867892 0.892261 0.002466 0.0
0.443520 0.041534 -0.002443 0.0
1.389620 1.689238 0.001101 0.0
2.231732 1.587442 -0.000514 0.0
4.001521 0.672745 0.001892 0.0
1.407703 0.653761 -0.000254 0.0
1.222615 1.212798 -0.002981 0.0
0.131430 0.098769 0.002448 0.0
2.960038 0.417001 0.000607 0.0
0.983254 0.442322 0.003502 0.0
2.936667 1.408611 -0.001402 0.0
1.770561 0.597187 0.001966 0.0
1.981310 0.554653 -0.000990 0.0
0.775034 0.152149 0.000487 0.0
3.429600 1.718551 -0.002838 0.0
0.024020 1.088140 -0.001473 0.0
0.369715 1.737902 -0.000745 0.0
0.877112 1.822019 0.000783 0.0
2.513701 0.039590 -0.002305 0.0
0.842227 0.146719 0.002115 0.0
1.042915 0.757581 0.005105 0.0
3.756041 0.224066 -0.000127 0.0
4.127872 0.033524 -0.002242 0.0
4.212311 0.209181 0.000590 0.0
1.039000 1.090156 -0.001027 0.0
2.703444 0.121983 -0.000450 0.0
2.404733 1.052807 -0.002985 0.0
0.115079 1.515168 0.000127 0.0
1.773203 1.221703 -0.001589 0.0
0.816702 1.361179 -0.002649 0.0
2.543913 0.046093 0.001640 0.0
3.227946 1.235077 0.000545 0.0
3.179939 0.598866 -0.002143 0.0
1.103570 0.225737 0.000367 0.0
0.443774 1.649437 -0.003619 0.0
0.471653 0.233406 -0.001078 0.0
1.468651 0.784505 0.000921 0.0
0.456451 1.837863 -0.000215 0.0
0.912150 0.378671 0.004807 0.0
3.926881 1.404533 0.000495 0.0
1.030854 0.446169 0.001767 0.0
0.728211 0.057471 -0.003986 0.0
2.368908 1.175557 -0.000281 0.0
0.390420 0.496888 -0.004927 0.0
1.465828 0.879697 -0.000242 0.0
0.041304 1.722972 0.002803 0.0
3.840673 1.512987 -0.002252 0.0
3.337961 0.221410 -0.002425 0.0
1.724968 1.039456 -0.001660 0.0
2.116272 1.831116 0.003370 0.0
2.763564 0.583272 -0.001223 0.0
0.252236 1.805831 -0.001861 0.0
1.209672 1.566270 0.004032 0.0
1.219695 1.221716 0.001276 0.0
3.965867 0.822024 0.002207 0.0
1.113163 1.372156 -0.001203 0.0
1.898433 1.421695 -0.001320 0.0
0.089285 1.183152 -0.002610 0.0
0.292968 1.822072 -0.004068 0.0
1.629165 0.321417 -0.001807 0.0
1.300224 1.223723 -0.002286 0.0
3.181246 1.091249 0.001888 0.0
1.159094 0.784738 0.000611 0.0
3.900116 1.751481 0.000983 0.0
2.007178 1.228178 -0.002712 0.0
0.093755 0.772603 0.003807 0.0
0.919202 1.127195 -0.001612 0.0
0.942303 0.352421 -0.000258 0.0
4.170098 0.531487 0.001672 0.0
2.926150 1.143621 0.000711 0.0
0.576579 1.366351 -0.002138 0.0
1.744891 1.835342 -0.004626 0.0
2.148596 0.337610 -0.002065 0.0
4.198171 1.446403 -0.003372 0.0
2.646776 1.650549 0.000326 0.0
0.438188 0.231467 0.000641 0.0
2.818137 0.624345 0.001991 0.0
0.115115 0.049387 0.001826 0.0
3.783590 1.178244 0.000051 0.0
2.218993 0.132648 0.002098 0.0
3.322603 0.829109 0.002652 0.0
2.654532 0.059191 -0.000850 0.0
3.505146 1.461207 -0.000579 0.0
2.350227 1.530807 -0.002222 0.0
1.813298 0.766198 0.003521 0.0
3.493238 0.108099 -0.003093 0.0
1.439600 1.458311 0.002387 0.0
0.594773 0.895244 0.004016 0.0
1.365438 0.045385 0.003271 0.0
3.204894 0.186919 0.003144 0.0
1.448023 0.441225 0.002715 0.0
1.063983 0.387819 -0.000889 0.0
3.740001 1.137115 -0.000425 0.0
3.281392 1.086832 -0.002514 0.0
1.771203 1.096453 -0.001158 0.0
0.545771 1.580250 -0.001557 0.0
3.166025 1.606788 -0.001844 0.0
1.132217 0.288279 -0.000981 0.0
3.994394 0.407077 0.000097 0.0
1.690130 0.239232 0.001686 0.0
2.454839 0.791527 -0.000599 0.0
1.294449 0.699875 0.004224 0.0
2.541278 0.474249 0.003985 0.0
1.060138 0.756955 -0.000841 0.0
0.243333 0.474838 -0.002373 0.0
4.241076 1.880232 0.001588 0.0
3.103154 0.704050 -0.002075 0.0
2.068325 0.170618 -0.001264 0.0
3.811790 0.822146 -0.003235 0.0
2.136431 1.061985 -0.000202 0.0
0.163218 0.894214 -0.000984 0.0
1.963002 0.530274 -0.000244 0.0
3.198032 1.445174 0.000280 0.0
0.422186 1.714792 0.003574 0.0
0.000557 0.542682 0.002776 0.0
1.667075 0.100376 0.000513 0.0
1.467585 1.445233 0.001438 0.0
1.760137 1.428902 0.000756 0.0
0.151769 0.483005 -0.001000 0.0
2.929323 1.695247 -0.004898 0.0
3.922494 0.179955 0.002243 0.0
2.306899 1.821338 0.002694 0.0
2.454308 0.742181 0.005301 0.0
1.320341 0.294243 -0.003310 0.0
0.780061 1.132308 -0.002740 0.0
1.226020 0.909515 -0.002985 0.0
3.828608 1.060994 0.001047 0.0
0.456142 0.231796 0.000692 0.0
3.641914 0.383919 -0.001797 0.0
3.644139 0.341422 -0.004181 0.0
2.359239 0.977233 0.002928 0.0
1.914526 1.253346 0.000369 0.0
2.830323 1.081489 -0.000855 0.0
1.432014 1.211831 0.001582 0.0
1.365479 1.612368 0.001781 0.0
3.921299 0.685557 0.001847 0.0
0.016022 0.665800 0.000406 0.0
2.527991 0.658271 0.003592 0.0
0.726232 1.090248 0.001068 0.0
2.324496 0.356982 -0.000713 0.0
0.249608 0.783739 0.001624 0.0
0.444586 0.066437 -0.000165 0.0
0.975622 0.406291 -0.001147 0.0
1.653013 0.719951 0.002219 0.0
1.956201 0.078637 0.000798 0.0
1.176496 0.838767 -0.002822 0.0
1.359518 0.955247 0.000949 0.0
2.674249 1.152318 0.001627 0.0
2.138221 1.120626 0.001048 0.0
4.072069 0.784099 -0.001718 0.0
2.264060 1.583792 0.003542 0.0
3.453574 0.309896 0.003447 0.0
4.022192 0.619609 0.001132 0.0
3.030863 0.983928 0.000564 0.0
3.511872 0.667494 -0.003649 0.0
3.584369 0.744032 -0.000684 0.0
1.144469 0.689179 -0.002876 0.0
1.891468 1.371920 0.000416 0.0
3.291888 1.210893 0.001312 0.0
1.605080 1.107925 -0.000769 0.0
2.827813 0.424850 0.001153 0.0
3.256798 1.256636 -0.001660 0.0
1.793152 1.360374 0.000428 0.0
3.248112 0.189595 0.001722 0.0
1.656752 0.029168 -0.004954 0.0
3.824970 0.568134 0.002421 0.0
3.796562 0.009667 -0.004454 0.0
0.629246 0.600001 -0.003085 0.0
3.274750 0.413500 0.001766 0.0
2.098570 1.239171 0.000278 0.0
1.993129 1.801502 0.000586 0.0
0.947054 1.203820 -0.003676 0.0
2.766854 0.228640 0.002365 0.0
4.118660 1.486806 0.000685 0.0
4.109456 0.885122 -0.003014 0.0
3.787514 0.630638 -0.002461 0.0
3.274395 0.198973 0.000074 0.0
3.473259 1.035411 -0.004041 0.0
0.916401 0.014518 -0.005752 0.0
1.110812 0.402767 0.003081 0.0
3.752867 1.041798 0.002394 0.0
0.350229 0.865048 0.004896 0.0
2.873005 0.117456 0.004158 0.0
0.040324 0.725177 -0.000043 0.0
2.324824 1.249977 -0.001369 0.0
3.328417 1.869603 0.004668 0.0
0.762475 1.876221 0.000772 0.0
1.648599 1.142398 0.003079 0.0
0.844320 1.492154 -0.002420 0.0
2.384958 0.144345 0.002922 0.0
2.459891 0.956495 -0.001585 0.0
1.551227 1.135191 0.000247 0.0
0.098352 0.002623 -0.003404 0.0
1.598296 1.440159 0.003496 0.0
2.572910 1.687907 -0.000452 0.0
3.860103 1.720824 -0.001931 0.0
0.395504 1.857078 -0.001039 0.0
1.003584 1.306999 -0.001509 0.0
1.290781 0.821658 0.002495 0.0
3.857912 1.461177 0.002258 0.0
2.749346 0.731855 -0.000239 0.0
3.512558 1.107581 -0.003035 0.0
1.050099 0.576959 0.000189 0.0
2.046661 0.442251 -0.002563 0.0
1.334950 0.323754 -0.000208 0.0
2.225218 1.550151 -0.000335 0.0
0.514892 0.623138 -0.001883 0.0
1.832225 1.698690 0.001838 0.0
1.183909 1.498159 0.002388 0.0
2.562621 1.671461 -0.002785 0.0
0.265450 1.744200 0.001902 0.0
2.164146 0.770202 -0.000689 0.0
2.918378 0.868850 0.002459 0.0
3.289708 1.518284 0.000840 0.0
1.603133 0.754227 -0.001795 0.0
2.183210 0.362317 -0.000871 0.0
1.544708 1.254919 0.000016 0.0
3.461753 0.661354 -0.000277 0.0
3.424595 0.638074 0.003426 0.0
4.038661 1.304769 -0.001549 0.0
0.890344 1.344836 -0.004930 0.0
1.532208 0.985250 0.003999 0.0
3.578405 0.362672 -0.004267 0.0
2.625398 0.137784 -0.000010 0.0
3.254743 0.617492 0.000833 0.0
0.065144 0.033696 0.002224 0.0
1.560336 1.253088 0.002149 0.0
1.753087 0.115851 0.002045 0.0
0.497352 1.436629 -0.003350 0.0
0.566748 1.556114 -0.000188 0.0
0.138907 1.245188 -0.000377 0.0
3.432949 0.470628 -0.002151 0.0
0.813258 1.872447 -0.000179 0.0
3.098459 0.460279 0.003256 0.0
3.827078 0.628019 -0.000333 0.0
1.299162 1.217079 0.000480 0.0
3.903580 0.290778 0.001948 0.0
2.376069 0.801092 -0.000603 0.0
0.824912 0.762660 -0.000027 0.0
3.238860 0.604242 -0.002018 0.0
0.504960 1.795385 0.004726 0.0
0.918894 0.201045 0.003972 0.0
3.888556 1.659987 0.002681 0.0
1.511771 0.393646 0.000871 0.0
0.558970 1.769816 0.001535 0.0
2.497408 1.803932 -0.002053 0.0
1.892910 1.003983 -0.001847 0.0
2.371401 1.494391 -0.000744 0.0
3.990469 0.782450 -0.001079 0.0
2.492710 0.225484 0.000696 0.0
0.159551 0.101097 0.000957 0.0
0.845377 1.208866 -0.000708 0.0
3.443087 0.250967 0.001868 0.0
0.700354 0.879317 0.003087 0.0
1.614211 0.734096 0.001522 0.0
3.582648 0.964148 -0.000409 0.0
3.815290 1.212273 0.002460 0.0
2.635831 0.280786 -0.001304 0.0
0.925052 0.618965 -0.001465 0.0
3.655727 0.045622 0.000294 0.0
1.759046 0.224508 0.003263 0.0
2.236183 0.142985 0.000759 0.0
0.570383 0.299901 -0.000345 0.0
2.957048 0.850817 0.002758 0.0
2.403106 1.850581 0.000061 0.0
3.185251 1.358400 -0.000175 0.0
1.292238 0.390007 0.000592 0.0
2.297589 1.202423 0.000766 0.0
3.161354 0.424764 0.003127 0.0
1.153264 0.461759 0.000552 0.0
1.669139 1.011388 0.000371 0.0
3.823523 1.338454 -0.000578 0.0
3.880999 1.754506 0.000559 0.0
3.676326 1.498160 -0.002185 0.0
2.813374 0.263343 -0.005018 0.0
1.956249 0.695071 -0.000483 0.0
3.182997 0.424244 -0.006520 0.0
2.394215 1.677185 0.002641 0.0
2.051549 0.496100 -0.002835 0.0
3.614402 1.402866 -0.003336 0.0
2.946433 0.463068 0.002657 0.0
3.262229 1.847108 -0.001568 0.0
2.267564 0.903978 -0.003669 0.0
0.323611 1.044436 -0.000747 0.0
0.345180 1.221599 -0.001594 0.0
3.413754 0.426649 -0.000396 0.0
0.608048 0.995983 0.001264 0.0
2.023116 1.630723 0.003597 0.0
0.177802 1.369015 0.000546 0.0
4.244676 0.980037 -0.005941 0.0
3.967907 0.038686 0.000790 0.0
1.920134 1.704415 0.001630 0.0
1.732340 0.720782 -0.000317 0.0
1.239595 1.479053 -0.004310 0.0
1.289210 0.005785 0.002252 0.0
2.093547 0.311957 0.002399 0.0
3.682716 0.840392 -0.000801 0.0
1.897892 1.369419 -0.000271 0.0
3.806075 1.434432 0.001074 0.0
0.377960 1.566648 -0.001720 0.0
1.126004 1.256892 0.000457 0.0
1.093461 0.622738 0.000905 0.0
1.056013 1.075379 0.001299 0.0
1.043065 0.287322 -0.001405 0.0
1.277745 0.366734 0.002758 0.0
2.807521 0.351254 0.003033 0.0
0.410745 0.418936 0.000413 0.0
0.831560 0.752892 -0.003248 0.0
0.518613 0.742915 0.001106 0.0
3.391990 1.027425 0.004140 0.0
4.038331 1.302144 -0.003283 0.0
3.499571 1.601540 0.000027 0.0
0.847701 0.305008 0.000884 0.0
0.006055 1.827144 0.000509 0.0
2.341022 0.649038 -0.000711 0.0
2.713366 1.381950 0.002723 0.0
1.635488 1.146426 0.003714 0.0
3.848918 0.445513 0.000513 0.0
1.498455 1.612826 0.000397 0.0
0.789685 0.951569 -0.004674 0.0
0.139181 0.304049 0.002367 0.0
0.272419 0.586583 -0.001269 0.0
3.314395 0.308778 -0.000706 0.0
2.128754 1.159667 0.001129 0.0
3.865966 1.614455 0.002830 0.0
2.046789 0.946565 -0.006884 0.0
3.147639 1.001701 -0.000132 0.0
4.155246 0.197388 0.007376 0.0
0.677777 0.688359 -0.004618 0.0
1.267573 0.295367 -0.000814 0.0
1.646688 0.862069 -0.000851 0.0
3.491273 0.824678 0.000377 0.0
0.527425 1.406521 0.002441 0.0
3.020498 1.662457 0.003603 0.0
2.580298 0.176166 0.000241 0.0
0.377322 0.780732 0.001749 0.0
2.706250 0.194681 -0.002597 0.0
1.384570 0.676588 -0.002001 0.0
3.356927 0.655907 -0.002247 0.0
3.167664 0.845916 -0.004939 0.0
1.178329 1.675052 0.001002 0.0
3.132538 1.051686 0.001742 0.0
0.224807 0.610002 0.002159 0.0
3.646858 1.262355 -0.000814 0.0
1.622858 0.295628 0.001391 0.0
3.398378 1.137215 0.000624 0.0
2.569613 0.168853 0.004091 0.0
3.796864 1.165877 0.002367 0.0
0.173358 1.245064 -0.000421 0.0
3.700239 1.216834 0.000406 0.0
1.856117 1.227717 -0.000453 0.0
1.092279 1.482464 -0.001198 0.0
1.203804 1.440722 -0.000082 0.0
0.538740 0.589913 -0.001751 0.0
3.450790 1.248273 -0.000604 0.0
1.665675 1.599231 -0.003534 0.0
3.667850 1.836213 -0.000788 0.0
3.607591 1.639794 -0.001697 0.0
1.092496 0.191196 -0.000133 0.0
2.593801 1.159849 -0.000719 0.0
2.739659 0.284944 -0.003203 0.0
1.130397 1.866564 0.001705 0.0
2.973505 0.471495 0.002706 0.0
2.412302 1.004108 0.000244 0.0
3.428278 1.581195 -0.002769 0.0
1.945438 0.640765 0.003662 0.0
1.886504 1.315421 -0.002141 0.0
0.087056 0.085573 -0.001620 0.0
2.697305 0.183765 0.000728 0.0
2.416049 0.950661 0.001112 0.0
3.574348 1.655915 0.001008 0.0
2.972302 1.820934 -0.002323 0.0
0.252119 0.544648 -0.000306 0.0
1.482872 1.673770 -0.000297 0.0
1.408103 0.774243 -0.003029 0.0
2.784815 0.390752 0.005528 0.0
0.724192 1.232906 -0.001137 0.0
1.524708 0.455088 0.001009 0.0
0.618730 1.097343 0.000304 0.0
0.724307 1.595492 -0.001239 0.0
0.161016 1.348863 -0.001596 0.0
1.351582 0.156901 0.001726 0.0
4.004984 1.098184 0.004609 0.0
0.657196 1.268152 0.001578 0.0
1.041340 0.678796 0.003800 0.0
2.205671 0.971748 0.002198 0.0
0.370183 0.474992 -0.001050 0.0
4.162512 0.870752 -0.000686 0.0
1.328910 1.391836 0.000882 0.0
2.320912 0.094743 0.002102 0.0
3.939817 -0.001956 0.002127 0.0
1.339353 1.759546 -0.003543 0.0
0.657306 1.295164 0.001201 0.0
1.269841 1.523411 -0.000099 0.0
0.445100 1.469416 0.003020 0.0
1.747507 0.873716 -0.001994 0.0
2.241770 0.869664 -0.000427 0.0
3.187952 0.750816 -0.002194 0.0
0.116067 1.741005 -0.001947 0.0
2.910550 0.687375 0.001520 0.0
4.088742 1.884292 -0.000204 0.0
4.067434 1.771675 -0.000013 0.0
3.090480 0.237159 -0.000707 0.0
3.084646 1.271547 0.002446 0.0
0.521168 1.820392 0.000402 0.0
1.949477 1.216805 0.002614 0.0
0.327695 1.040230 0.002043 0.0
1.984144 1.034678 0.002907 0.0
2.670553 0.059329 0.000656 0.0
2.295441 0.204793 -0.001827 0.0
1.065514 0.236621 0.002716 0.0
0.627113 1.714501 -0.001431 0.0
1.580896 0.198014 -0.002792 0.0
1.055876 0.262338 0.001945 0.0
2.451517 0.717866 0.000479 0.0
1.259586 1.307129 0.000959 0.0
3.925377 0.377235 0.003607 0.0
1.580314 0.146559 -0.000009 0.0
3.390411 1.546998 -0.000875 0.0
3.944659 0.754803 0.002784 0.0
0.495835 0.640147 -0.001383 0.0
0.973672 1.711971 -0.000356 0.0
1.058775 1.163813 -0.003322 0.0
4.086503 1.330436 -0.001148 0.0
0.522634 1.548194 0.002534 0.0
2.626103 1.721140 0.003093 0.0
0.899364 0.843205 0.000354 0.0
2.923652 1.361581 0.003224 0.0
3.818598 1.298630 -0.002682 0.0
2.752617 1.327415 0.003254 0.0
1.053612 1.691852 -0.001511 0.0
2.166120 1.258823 0.001061 0.0
3.454028 0.125362 -0.000874 0.0
3.090500 1.462499 0.000933 0.0
2.237465 1.456918 0.000027 0.0
0.165669 1.674193 -0.002092 0.0
2.675889 1.594331 0.001882 0.0
0.529138 1.826415 -0.001035 0.0
0.537995 1.306017 -0.000489 0.0
0.593952 0.649285 0.001937 0.0
2.363779 1.647894 -0.001047 0.0
1.954854 1.828377 0.002541 0.0
0.875872 1.248747 0.002131 0.0
0.590087 0.140259 0.004002 0.0
1.315327 1.352903 -0.000832 0.0
2.503541 1.096913 -0.002130 0.0
1.728654 1.082195 -0.000399 0.0
1.101754 0.211310 0.001024 0.0
2.859397 0.746972 -0.004174 0.0
4.169921 1.138906 0.000649 0.0
0.299797 1.819966 0.002847 0.0
0.326538 0.233901 -0.002041 0.0
0.424366 0.032584 0.003935 0.0
2.864411 0.875604 0.003619 0.0
2.444006 0.439560 -0.000158 0.0
3.054753 0.090822 -0.001704 0.0
3.511631 1.331088 -0.001484 0.0
2.685569 0.939162 -0.003461 0.0
0.772096 0.220334 0.002902 0.0
0.614864 1.552865 0.000050 0.0
3.055005 0.195250 -0.001576 0.0
3.158560 0.620115 0.000567 0.0
1.497884 0.786062 -0.000350 0.0
3.424229 1.083194 0.003436 0.0
0.717565 0.260234 -0.003225 0.0
4.028621 1.299692 -0.001936 0.0
4.214111 0.968751 -0.001061 0.0
3.265108 0.531957 -0.000891 0.0
2.869643 1.644922 0.002321 0.0
0.769812 0.980263 0.002428 0.0
1.133940 0.122752 -0.000753 0.0
1.765785 0.726176 -0.000772 0.0
2.016122 1.697090 -0.000286 0.0
1.767954 0.777712 -0.000781 0.0
0.464276 0.652024 -0.000248 0.0
3.644869 1.793876 0.003406 0.0
0.952918 0.766403 -0.000321 0.0
1.994319 0.229068 0.003606 0.0
2.922618 0.666467 0.000729 0.0
1.524612 0.426875 0.000018 0.0
1.950569 0.796826 0.001825 0.0
1.106408 1.173780 -0.002128 0.0
1.455920 1.249004 -0.002073 0.0
0.770066 0.409823 0.000667 0.0
1.980028 0.048419 0.001032 0.0
2.990483 1.535110 -0.001466 0.0
1.157905 1.093643 0.003196 0.0
3.349254 1.417983 -0.004293 0.0
1.098105 0.815801 -0.001006 0.0
0.689108 1.510894 -0.000710 0.0
3.455111 1.553380 0.000156 0.0
3.454630 1.591644 0.005029 0.0
0.027072 0.908419 -0.002898 0.0
2.776929 0.519096 -0.003303 0.0
1.371780 0.719423 0.001757 0.0
1.056529 0.890402 -0.000328 0.0
1.678686 0.763624 0.004135 0.0
1.564137 0.646033 -0.003962 0.0
0.182907 1.122839 0.003519 0.0
1.499120 0.910770 -0.001567 0.0
4.191818 0.090938 0.001672 0.0
2.122809 0.711807 0.002113 0.0
2.372972 1.857970 -0.000095 0.0
0.263665 1.379386 -0.004438 0.0
0.930543 0.603023 -0.006126 0.0
3.347305 0.173187 -0.000015 0.0
2.424174 0.577978 -0.000338 0.0
2.693250 0.291791 0.002760 0.0
3.526978 0.610876 -0.001122 0.0
3.217296 1.758700 -0.000039 0.0
1.174723 1.622540 0.000250 0.0
1.677974 0.374839 -0.001809 0.0
0.603230 1.472980 -0.002923 0.0
1.956381 1.706801 0.000672 0.0
1.154919 1.860627 -0.001653 0.0
2.273301 0.045590 -0.002267 0.0
0.930426 0.816732 0.000457 0.0
0.244817 1.061514 0.006101 0.0
3.664971 0.030182 0.005702 0.0
0.581210 0.375211 -0.000569 0.0
2.035001 1.083672 0.000822 0.0
3.246689 1.233123 0.001808 0.0
0.113106 1.430541 0.004706 0.0
3.850929 0.175851 -0.001692 0.0
3.282730 1.704921 -0.002194 0.0
0.228072 0.945875 -0.001929 0.0
0.003959 1.414782 0.001140 0.0
3.881350 0.864226 0.001315 0.0
3.547065 0.404864 -0.000791 0.0
2.580079 0.158940 -0.001026 0.0
0.858170 0.741704 0.006647 0.0
3.480858 1.270531 0.007254 0.0
0.513638 0.368131 -0.001367 0.0
0.266654 1.368429 -0.002233 0.0
4.255990 0.876207 -0.001095 0.0
0.364411 1.267812 0.000737 0.0
3.160001 0.032864 -0.004595 0.0
2.071589 1.364860 0.000208 0.0
3.360022 0.489592 0.003426 0.0
2.205852 0.752884 0.004031 0.0
4.009404 0.545377 -0.002956 0.0
2.659284 0.131696 -0.002767 0.0
2.114757 1.827052 -0.000908 0.0
0.952568 1.655835 -0.001937 0.0
0.939422 1.280830 -0.002165 0.0
0.005718 1.694210 0.000847 0.0
1.069965 1.105938 -0.000661 0.0
1.525911 1.081692 -0.003214 0.0
2.417174 1.410019 0.002021 0.0
3.073710 0.052808 0.000614 0.0
1.959860 1.818319 -0.000114 0.0
1.538619 0.852841 -0.000193 0.0
1.187350 0.657361 -0.001797 0.0
2.208524 0.964263 0.000118 0.0
1.120391 1.143527 -0.002047 0.0
4.244412 1.750721 -0.003265 0.0
2.441827 0.516285 0.001723 0.0
3.723021 0.284336 0.000679 0.0
3.401796 1.119724 0.001523 0.0
2.982795 1.570493 0.000577 0.0
3.085046 1.773507 -0.004460 0.0
0.583337 1.271291 0.004859 0.0
2.655768 0.146444 0.002995 0.0
3.342057 0.400055 -0.004516 0.0
3.258815 1.066567 -0.002452 0.0
2.963143 0.039996 0.003019 0.0
0.785958 0.988281 0.004911 0.0
2.975743 0.935688 -0.000865 0.0
2.713046 1.843073 0.000478 0.0
0.154845 1.604976 0.000368 0.0
2.126275 0.218707 0.001658 0.0
2.010184 0.934738 -0.003185 0.0
3.545027 1.745063 0.001198 0.0
0.808829 1.876033 0.000804 0.0
0.518721 1.478709 -0.000788 0.0
4.158114 0.173483 0.003606 0.0
0.585104 1.183939 -0.001438 0.0
1.761371 0.791460 -0.002401 0.0
4.108517 0.999917 -0.000562 0.0
1.594165 1.326498 -0.004235 0.0
0.615979 0.752912 -0.000721 0.0
0.839786 1.602221 -0.000009 0.0
2.533092 1.062596 0.004273 0.0
2.171808 0.899106 -0.001067 0.0
3.868330 0.880254 -0.000049 0.0
1.729264 0.485942 0.000042 0.0
0.710303 0.534448 -0.000392 0.0
0.986853 1.740765 -0.002943 0.0
4.234694 0.931649 0.000377 0.0
0.194859 0.177306 0.004020 0.0
1.761909 0.840347 0.001822 0.0
2.681660 1.568558 0.000334 0.0
1.193453 0.817246 -0.000017 0.0
1.795954 1.335211 0.001424 0.0
1.045472 0.443409 -0.005236 0.0
3.219606 0.261370 -0.001410 0.0
2.014780 0.451708 0.000019 0.0
0.125728 0.174007 -0.003253 0.0
1.790699 0.810701 -0.004162 0.0
3.080206 0.751311 0.002864 0.0
3.403701 1.321967 0.004278 0.0
3.841668 1.818790 0.005408 0.0
1.977840 0.913334 -0.004149 0.0
0.834624 1.226208 -0.000965 0.0
4.174107 0.738462 -0.000014 0.0
3.978716 0.138806 -0.001093 0.0
0.300364 1.451672 0.004886 0.0
0.025762 1.154476 -0.002292 0.0
0.774402 0.758965 0.001186 0.0
1.561412 1.858283 -0.004128 0.0
2.353988 1.391220 0.003780 0.0
2.732022 0.809735 -0.005078 0.0
3.307027 0.831604 0.003233 0.0
1.959680 0.700613 -0.001259 0.0
1.749425 0.574369 0.000422 0.0
1.949254 1.882127 -0.000385 0.0
1.948337 1.510123 -0.000704 0.0
0.640548 0.439264 0.000601 0.0
0.660639 0.071639 0.001472 0.0
2.204214 0.842288 -0.001662 0.0
1.816846 1.875869 -0.001610 0.0
4.178472 1.372712 0.001524 0.0
0.277652 0.196721 -0.000883 0.0
1.993103 0.113930 0.004030 0.0
2.310826 0.995639 -0.000926 0.0
1.617204 1.223952 -0.002707 0.0
2.470599 0.325268 0.002244 0.0
4.226235 0.799474 0.001661 0.0
3.612051 0.550196 0.000226 0.0
3.834915 0.954157 -0.002081 0.0
0.121885 1.277775 -0.004824 0.0
0.196709 1.518814 -0.002122 0.0
1.817415 0.033513 0.005146 0.0
0.074086 1.434772 0.003315 0.0
3.797854 1.786488 -0.003812 0.0
3.104012 0.800644 0.001799 0.0
0.291177 1.453474 -0.002665 0.0
2.629495 0.927946 -0.000407 0.0
1.583822 0.463656 -0.001806 0.0
2.532079 0.520087 -0.000025 0.0
0.057068 0.158564 0.000498 0.0
1.799170 1.055647 0.001588 0.0
1.252811 1.089361 -0.000170 0.0
0.483105 1.246226 0.000083 0.0
0.884113 1.300124 -0.001082 0.0
2.313766 1.352032 0.004553 0.0
2.793841 0.256072 -0.000359 0.0
2.358910 0.557170 0.000589 0.0
3.618131 0.029940 0.003771 0.0
1.819767 1.324851 0.001028 0.0
2.637772 1.356418 0.003346 0.0
2.373602 1.099577 0.001997 0.0
0.877183 1.708587 -0.001243 0.0
2.203779 1.196436 -0.000165 0.0
1.261671 0.758227 0.001113 0.0
1.945455 1.072727 -0.001735 0.0
1.749192 0.384544 -0.002267 0.0
1.446537 1.856697 -0.001951 0.0
2.848718 0.228841 0.005025 0.0
2.307828 1.444182 -0.001255 0.0
2.553406 1.413727 -0.002009 0.0
0.183636 0.334199 0.003994 0.0
3.336246 1.066123 0.004760 0.0
3.355078 1.519174 0.004316 0.0
1.209610 0.258087 -0.003149 0.0
0.773473 0.455607 0.002929 0.0
1.084352 0.030651 0.003039 0.0
0.143187 0.898491 0.003279 0.0
1.722659 0.236604 0.002337 0.0
0.283967 0.503207 -0.000360 0.0
3.773664 0.459112 -0.005837 0.0
1.267951 1.324648 0.003480 0.0
0.265619 1.486763 0.002848 0.0
0.414228 0.230523 0.002230 0.0
3.237446 0.583269 0.003845 0.0
0.938509 0.385361 -0.002567 0.0
0.061353 1.622571 0.003650 0.0
0.974151 1.868813 0.000469 0.0
3.268816 1.167175 -0.003294 0.0
1.436567 0.586991 0.001730 0.0
2.241998 0.279501 0.002012 0.0
3.941276 0.321023 -0.001575 0.0
0.086458 1.153709 0.001814 0.0
1.729537 1.270956 0.000537 0.0
2.694802 0.430744 -0.002845 0.0
2.986936 1.477040 -0.004966 0.0
