0.041993 1.681248 0.001980 0.0
1.682711 0.601546 -0.001097 0.0
3.553605 1.950368 0.001340 0.0
4.057678 0.234545 -0.001501 0.0
4.078695 0.948696 -0.001506 0.0
1.612731 1.255986 -0.002785 0.0
0.736804 1.539851 0.006020 0.0
1.078955 2.042354 0.001078 0.0
3.056686 0.960016 0.000087 0.0
2.080361 0.029868 -0.003846 0.0
3.090863 0.589088 -0.000298 0.0
0.386304 0.275770 -0.002755 0.0
2.426430 0.879890 -0.000588 0.0
0.207151 0.904322 0.000224 0.0
0.322583 1.801834 0.005137 0.0
2.121694 0.092227 -0.000278 0.0
1.327452 0.965456 -0.005244 0.0
0.360536 1.463743 0.006235 0.0
4.152210 1.901996 -0.001810 0.0
3.024123 0.015548 0.000727 0.0
3.976904 1.100092 -0.000735 0.0
3.159483 1.055982 0.002334 0.0
0.126911 0.832047 -0.001245 0.0
4.241125 1.846672 0.001343 0.0
3.321611 1.616766 -0.003179 0.0
1.113999 0.780243 0.002047 0.0
3.480801 1.723764 0.001989 0.0
2.618824 0.105492 0.004908 0.0
2.364084 1.554985 0.001141 0.0
0.072154 0.172287 -0.000381 0.0
2.391823 1.248318 -0.000468 0.0
2.430463 0.085395 0.001307 0.0
1.813574 0.890268 0.003669 0.0
2.533878 1.292196 -0.005294 0.0
3.284762 1.599649 0.000788 0.0
3.362052 1.216123 -0.000708 0.0
2.957088 0.957979 -0.001528 0.0
3.972239 0.801273 0.000104 0.0
0.429584 0.417914 -0.001450 0.0
2.172095 1.362846 -0.001283 0.0
3.304086 0.039072 -0.003549 0.0
4.182227 0.025705 0.000729 0.0
1.427174 1.324000 0.004315 0.0
3.805702 0.857694 0.001238 0.0
0.460243 0.752610 0.004790 0.0
1.445029 1.145779 -0.002605 0.0
1.802594 1.841320 -0.001535 0.0
2.250481 1.777215 -0.000212 0.0
0.287089 1.054045 0.002025 0.0
3.497767 1.542101 -0.000216 0.0
0.422225 2.026126 0.001680 0.0
3.036940 1.282602 -0.000550 0.0
0.112916 2.032519 -0.005662 0.0
2.354196 0.128388 0.003948 0.0
0.475612 1.956493 -0.001047 0.0
0.376482 0.997167 -0.000440 0.0
2.196022 1.972115 -0.006523 0.0
3.308587 0.945043 -0.002689 0.0
1.584124 0.381131 0.001839 0.0
2.662123 1.407936 0.000606 0.0
3.255807 0.929418 -0.002318 0.0
1.604477 1.102131 0.000477 0.0
0.605627 1.206617 -0.000321 0.0
2.043063 2.110879 -0.001864 0.0
0.670579 0.218928 0.001939 0.0
0.402603 1.430018 0.000190 0.0
1.635643 0.088502 -0.002787 0.0
0.834585 0.563009 -0.001756 0.0
0.109196 1.217345 0.001491 0.0
2.971260 1.961388 -0.001214 0.0
1.483573 1.314686 0.001103 0.0
3.044899 1.799683 -0.001675 0.0
1.380412 0.715846 -0.001737 0.0
0.854366 0.290304 0.003601 0.0
2.433293 0.674668 -0.002847 0.0
3.974327 1.554174 -0.002842 0.0
0.973373 1.220637 -0.001944 0.0
2.655472 0.792666 -0.002859 0.0
0.330249 0.705451 -0.003624 0.0
0.884762 0.472229 0.000445 0.0
0.773235 2.021942 -0.000083 0.0
2.434671 0.578740 -0.000071 0.0
0.465882 1.650079 0.002886 0.0
0.314798 1.904245 -0.000823 0.0
3.431992 1.964603 -0.001533 0.0
3.128895 1.804411 0.002481 0.0
1.775603 2.013405 -0.000986 0.0
1.003279 0.435552 -0.001776 0.0
1.581239 0.901771 0.004230 0.0
0.526425 0.179386 0.004271 0.0
3.798251 1.741741 0.001621 0.0
1.043810 1.418374 -0.003783 0.0
1.965591 1.618566 -0.002643 0.0
2.229491 0.135704 -0.003677 0.0
1.894437 0.171610 -0.000706 0.0
1.248228 1.865580 0.004523 0.0
0.883599 0.367814 -0.000994 0.0
2.774763 0.750139 0.005418 0.0
1.243246 0.242937 -0.003207 0.0
0.993639 0.725455 -0.001536 0.0
2.330040 1.460045 -0.000937 0.0
1.076942 0.388339 -0.002293 0.0
2.981227 1.794991 0.000739 0.0
2.356536 0.402003 0.003655 0.0
4.143007 1.400054 -0.002202 0.0
1.261738 1.845482 0.001550 0.0
3.389521 0.196694 0.002680 0.0
1.056146 0.596216 -0.004644 0.0
0.500249 0.192048 -0.005049 0.0
1.889117 1.120960 -0.002426 0.0
3.733616 1.697589 -0.004902 0.0
3.438572 0.477088 0.003416 0.0
0.624279 1.698354 0.002719 0.0
3.661279 1.916806 0.001885 0.0
1.273592 2.049398 0.003105 0.0
1.544276 0.886563 0.000587 0.0
3.980033 0.863941 -0.000113 0.0
0.979969 1.903842 0.002964 0.0
3.162721 0.410063 0.001775 0.0
0.384073 1.078468 0.000301 0.0
2.481966 1.021181 -0.000000 0.0
3.681623 1.062306 -0.001689 0.0
0.665650 1.977394 0.002185 0.0
1.103098 2.134575 -0.000097 0.0
3.760744 0.747352 -0.000322 0.0
0.670189 0.704116 -0.001928 0.0
1.225187 1.896465 -0.004810 0.0
2.142638 1.729394 0.000278 0.0
1.903409 1.587646 0.003954 0.0
0.389381 2.114873 0.000834 0.0
0.594029 1.768137 -0.000266 0.0
0.063018 1.279794 -0.002864 0.0
2.451586 0.451613 -0.002020 0.0
0.562918 0.234953 -0.000585 0.0
3.277462 1.670846 0.001931 0.0
0.634699 2.082170 -0.001350 0.0
4.278068 1.190637 0.001333 0.0
0.113550 0.189757 -0.000250 0.0
1.852965 1.589271 -0.000123 0.0
4.305524 1.658803 0.000459 0.0
0.341653 1.639902 -0.003326 0.0
0.288552 0.037479 -0.000742 0.0
0.997336 1.060420 0.000585 0.0
1.664294 1.669866 -0.005318 0.0
3.116469 2.106353 0.001251 0.0
1.066771 1.929124 0.002056 0.0
3.088847 0.001157 0.000797 0.0
2.902083 1.989531 0.003002 0.0
2.175931 0.417001 -0.002881 0.0
0.600617 0.833304 0.006590 0.0
2.569709 1.926837 0.004561 0.0
1.763654 1.181640 -0.000573 0.0
0.526202 0.297204 0.003027 0.0
0.810620 1.511054 0.001630 0.0
1.464379 1.480436 -0.004580 0.0
2.534399 1.722723 -0.001894 0.0
1.346020 1.092671 -0.001385 0.0
1.787166 0.827430 -0.000177 0.0
1.560311 1.221904 -0.001888 0.0
1.576473 0.746955 0.002972 0.0
3.507940 1.597031 0.001076 0.0
2.936664 0.968038 0.000514 0.0
3.724957 1.414600 0.001857 0.0
0.889972 0.522546 0.001528 0.0
3.781248 1.625144 0.003000 0.0
3.182857 1.055263 0.000533 0.0
3.697448 0.571948 0.001262 0.0
2.389371 0.471776 -0.001379 0.0
1.351888 2.057482 -0.001299 0.0
2.758682 2.116263 -0.000831 0.0
1.681105 1.434368 0.000474 0.0
2.000994 2.018144 0.003414 0.0
3.039713 2.052037 0.001425 0.0
2.304098 1.831571 0.003266 0.0
0.543741 1.386429 0.003571 0.0
1.604088 0.164969 -0.004514 0.0
2.919214 1.482751 0.001145 0.0
3.259800 2.109443 -0.001425 0.0
0.740206 0.944053 0.001161 0.0
4.290228 1.571752 -0.004763 0.0
1.707786 1.732281 0.000857 0.0
1.724001 1.886431 0.001462 0.0
0.554212 0.010961 0.003713 0.0
0.294524 1.720322 0.001434 0.0
2.538257 0.474721 0.002793 0.0
1.175129 1.093209 -0.002213 0.0
3.757102 1.966451 0.007872 0.0
1.810881 1.597836 -0.002685 0.0
1.588790 0.439544 -0.001407 0.0
1.880865 1.318037 0.002224 0.0
3.709465 0.662528 0.000563 0.0
2.288641 1.370884 0.001606 0.0
0.545792 0.393869 0.000942 0.0
0.652330 1.262084 0.007071 0.0
2.552666 2.094366 0.000475 0.0
3.790867 1.884466 0.002918 0.0
2.782388 1.253916 0.000314 0.0
1.662106 1.354956 -0.001529 0.0
3.965903 0.840632 -0.001441 0.0
1.722342 0.684282 0.002222 0.0
3.553302 1.934984 -0.000717 0.0
1.292031 0.825218 -0.000729 0.0
3.781172 0.826007 -0.003653 0.0
1.884937 1.366435 -0.000659 0.0
0.111610 0.142901 0.002309 0.0
3.782901 1.793489 0.000855 0.0
2.348176 0.639547 0.000659 0.0
3.513223 2.102221 0.002646 0.0
0.932381 0.331048 -0.000567 0.0
0.299142 0.908064 0.000372 0.0
3.271810 0.146834 0.000183 0.0
3.981243 0.174642 -0.003625 0.0
1.192714 2.164002 0.002868 0.0
2.474293 2.053836 0.003312 0.0
2.815681 1.994245 0.003667 0.0
2.757585 1.875407 -0.001667 0.0
2.851416 1.832860 0.000696 0.0
0.425717 2.001458 -0.003551 0.0
3.964726 1.419579 0.003309 0.0
1.804293 1.879267 0.003798 0.0
1.475639 0.393286 -0.002347 0.0
0.876168 0.261772 0.001741 0.0
1.945313 0.303229 -0.000476 0.0
2.287807 0.514270 0.000135 0.0
3.211820 1.629647 0.004215 0.0
2.826855 1.548715 0.000604 0.0
4.244706 0.613621 -0.003980 0.0
3.312615 1.718216 0.005090 0.0
1.307475 0.851378 -0.003507 0.0
3.542578 0.897219 0.000841 0.0
2.360259 2.128099 0.001693 0.0
0.967144 0.806401 0.000247 0.0
2.445382 2.067074 -0.001788 0.0
3.174514 0.785402 -0.001665 0.0
0.817006 0.936224 -0.000556 0.0
2.833790 1.401549 0.000416 0.0
0.851889 0.028361 -0.003335 0.0
1.000569 1.545606 -0.005944 0.0
3.516480 0.031520 0.001722 0.0
0.491268 0.395385 0.002877 0.0
0.020330 2.066958 -0.003612 0.0
1.400653 1.780588 -0.004370 0.0
2.070029 1.103746 0.003042 0.0
4.236044 0.184635 0.002070 0.0
3.987129 1.285126 -0.000042 0.0
2.924217 1.043028 -0.002271 0.0
0.648709 1.935080 -0.000537 0.0
1.778795 0.422468 0.000340 0.0
2.854009 2.005844 -0.003740 0.0
0.949493 1.407964 0.000099 0.0
0.095588 1.575715 -0.001791 0.0
0.426555 -0.001034 0.003177 0.0
3.363379 0.204909 0.001838 0.0
1.457043 0.053450 -0.001326 0.0
4.273507 0.953070 -0.000401 0.0
2.224595 0.490597 -0.001221 0.0
0.054473 2.008248 -0.004241 0.0
3.866712 0.790789 0.003837 0.0
2.102593 0.291777 -0.004641 0.0
0.220329 1.699108 0.005837 0.0
4.235143 2.063986 0.001431 0.0
1.917753 1.468275 0.002266 0.0
0.567857 0.432353 -0.002862 0.0
3.020890 0.384234 -0.003371 0.0
2.428907 2.098640 0.000572 0.0
3.773088 1.581701 -0.000517 0.0
0.917103 0.824490 0.002445 0.0
2.866252 1.935552 -0.003231 0.0
3.534510 1.938232 0.002372 0.0
3.483243 0.716592 -0.003967 0.0
0.302127 0.800529 0.000073 0.0
1.840672 1.061991 0.003198 0.0
4.035643 0.938903 -0.003168 0.0
0.296788 0.097839 0.002770 0.0
3.252305 0.151015 -0.004640 0.0
2.371332 1.703428 0.003024 0.0
3.599783 0.745779 0.003118 0.0
1.997965 1.736030 0.000914 0.0
0.736655 1.864780 -0.001090 0.0
1.324913 1.327912 0.001454 0.0
2.824870 1.719537 0.001903 0.0
0.334346 1.978440 0.001601 0.0
2.737501 1.603775 0.004218 0.0
4.106476 0.060703 0.002489 0.0
2.045869 0.115535 -0.001580 0.0
3.231938 0.540509 -0.000995 0.0
1.830757 0.681952 -0.002015 0.0
4.135863 2.165190 0.002011 0.0
0.996509 1.451536 0.002168 0.0
3.731457 0.289255 -0.002030 0.0
3.251587 1.975147 -0.002793 0.0
3.168896 1.792062 -0.001207 0.0
1.661981 0.389388 0.000123 0.0
1.923972 1.171907 0.003428 0.0
1.856165 1.455073 0.004205 0.0
3.684838 1.793817 -0.003614 0.0
1.145604 1.979899 -0.003788 0.0
0.159011 0.394103 0.004092 0.0
2.810449 0.715736 -0.002802 0.0
3.034759 1.403412 0.004162 0.0
0.701331 0.184924 0.004495 0.0
2.759912 0.316991 0.000696 0.0
4.113022 2.076985 -0.004188 0.0
2.031340 1.144484 -0.003757 0.0
1.740206 0.678703 -0.000986 0.0
1.912380 0.373652 -0.000031 0.0
2.826470 1.112518 -0.002541 0.0
2.937423 1.037207 0.005504 0.0
1.840060 1.639324 -0.001763 0.0
3.494714 1.978212 -0.000762 0.0
0.262607 2.023703 -0.003468 0.0
3.037290 0.432501 -0.001583 0.0
2.051959 0.852209 0.000102 0.0
0.330296 0.885521 0.002640 0.0
1.009049 1.281112 -0.003732 0.0
3.134877 1.368434 0.002336 0.0
1.039749 0.565396 -0.001674 0.0
2.963273 1.225781 0.002719 0.0
3.504359 0.703558 0.005437 0.0
1.152104 1.383787 -0.000558 0.0
0.304342 0.799020 -0.002866 0.0
1.695375 1.898183 -0.003267 0.0
2.941879 1.128529 -0.004425 0.0
4.156082 0.351020 -0.000547 0.0
2.456700 1.049637 -0.000076 0.0
2.792351 1.464715 -0.002429 0.0
3.709403 0.847901 0.000192 0.0
2.295525 0.743084 -0.000503 0.0
3.336628 1.715595 0.003273 0.0
0.365947 1.980940 -0.003960 0.0
3.145214 1.188743 0.000136 0.0
3.533415 0.206340 -0.002218 0.0
3.944872 0.633225 -0.000649 0.0
0.757703 0.776687 -0.002001 0.0
3.568215 0.393054 0.000056 0.0
4.150491 1.906239 -0.002643 0.0
3.457779 0.605857 0.003510 0.0
1.785615 0.264983 -0.000751 0.0
2.466628 0.353865 0.005566 0.0
1.816509 2.049013 -0.002759 0.0
4.174107 1.828215 -0.006970 0.0
0.175768 1.245777 0.003930 0.0
1.513074 0.517986 0.000967 0.0
3.508643 0.807430 0.002734 0.0
2.341145 0.260995 -0.002602 0.0
2.335943 0.245319 -0.002298 0.0
0.145596 0.904088 0.000176 0.0
4.130225 1.100841 0.000577 0.0
2.401619 1.600166 0.001546 0.0
0.594490 1.563045 -0.003230 0.0
1.470511 0.563234 -0.000785 0.0
2.152237 1.182501 0.000471 0.0
3.911419 0.839284 0.000957 0.0
4.054616 0.261606 0.001732 0.0
3.959384 1.272151 0.002241 0.0
0.835173 0.616895 -0.001770 0.0
0.292879 1.988215 0.002770 0.0
0.544547 1.948720 0.001931 0.0
2.505540 1.249418 0.000391 0.0
3.036174 1.601706 0.003380 0.0
3.007248 2.151523 -0.002816 0.0
4.254498 0.643450 -0.002472 0.0
2.831187 0.004711 0.000500 0.0
0.079898 1.986472 0.000981 0.0
4.090709 1.958935 0.001624 0.0
0.857405 0.287099 0.001931 0.0
0.791492 0.595360 0.003988 0.0
2.311564 1.634177 0.005655 0.0
3.706993 0.379530 -0.000555 0.0
1.028259 0.600227 -0.001950 0.0
2.409145 0.022825 0.001876 0.0
3.874338 1.461991 -0.001552 0.0
3.583570 0.643242 -0.000320 0.0
3.313784 0.414393 -0.000457 0.0
1.855831 1.246168 -0.001146 0.0
3.106152 1.125652 0.002654 0.0
1.385887 1.029661 -0.001313 0.0
4.105861 0.500133 -0.001427 0.0
0.679470 1.738918 0.001553 0.0
3.189637 0.592595 -0.001811 0.0
1.173346 0.031624 -0.003066 0.0
3.209674 1.599997 0.001123 0.0
0.091054 1.869171 -0.000297 0.0
1.345675 1.352575 0.001199 0.0
3.311258 1.730892 -0.002313 0.0
2.474290 0.080637 -0.001296 0.0
2.601370 1.759116 0.003142 0.0
1.811652 0.075259 0.003413 0.0
3.071292 1.741330 -0.004290 0.0
3.187329 2.165009 0.003593 0.0
0.655766 0.716181 0.001394 0.0
3.573492 0.816478 -0.000065 0.0
0.549348 0.219321 -0.002729 0.0
1.572156 0.020919 -0.000630 0.0
3.823240 0.124974 -0.001308 0.0
2.122375 1.010707 -0.002132 0.0
0.891748 1.057396 -0.000755 0.0
0.201590 1.828646 0.001319 0.0
4.304683 0.379790 0.003548 0.0
3.206729 0.265811 -0.002576 0.0
3.619579 2.119497 0.001305 0.0
2.886706 0.015879 0.004837 0.0
3.189295 0.939144 -0.001457 0.0
1.826097 2.104951 -0.003819 0.0
1.057300 0.357046 0.001548 0.0
3.245264 0.463946 0.000932 0.0
2.564745 0.253974 0.001109 0.0
3.319198 0.726650 -0.000231 0.0
1.298534 0.769117 -0.001216 0.0
1.605942 1.807570 0.001844 0.0
3.548347 0.583635 -0.003300 0.0
2.258049 1.702858 0.002200 0.0
0.676791 1.593191 -0.003217 0.0
3.765435 0.234319 0.000749 0.0
1.209863 1.487691 0.002431 0.0
3.841389 1.691422 -0.000619 0.0
3.589191 1.104612 -0.001298 0.0
4.250261 0.452277 0.000211 0.0
0.909222 1.379417 -0.001044 0.0
3.239102 0.045154 0.000220 0.0
0.483316 1.471928 -0.004159 0.0
3.422245 1.343424 0.003623 0.0
4.253044 0.168877 -0.002191 0.0
2.287569 1.883198 -0.000679 0.0
0.076452 2.100554 0.002049 0.0
1.586982 0.945258 -0.002858 0.0
2.019731 0.143654 -0.000667 0.0
0.910044 0.268012 -0.004292 0.0
2.179584 2.038188 -0.002355 0.0
1.367547 1.767327 0.001646 0.0
2.675754 0.508859 -0.002041 0.0
3.761508 0.441215 -0.000801 0.0
3.878121 0.287275 -0.000186 0.0
0.297777 0.184967 0.000369 0.0
1.775624 0.152474 0.001793 0.0
0.422275 0.063596 -0.003877 0.0
0.593214 0.816135 -0.001971 0.0
3.552966 0.504029 0.004604 0.0
0.002761 1.227593 -0.000214 0.0
3.269906 0.995266 -0.000421 0.0
2.260258 0.600315 -0.000330 0.0
0.410116 0.705351 -0.000166 0.0
3.188408 0.275997 0.000629 0.0
2.547034 0.641868 0.002302 0.0
1.293621 0.650827 0.001559 0.0
2.807864 0.809442 0.001951 0.0
0.380625 1.191065 0.001361 0.0
0.527579 1.161774 -0.001338 0.0
0.600258 0.474850 0.000333 0.0
2.014134 1.255801 -0.002336 0.0
1.731540 1.305654 -0.000437 0.0
2.342068 0.918965 0.000750 0.0
0.509158 0.897045 -0.003042 0.0
0.398222 1.757972 0.000179 0.0
0.552267 1.930488 0.000435 0.0
0.739226 0.450227 0.002408 0.0
4.290872 0.267453 -0.002546 0.0
0.622076 0.311482 -0.001436 0.0
1.626687 0.115246 0.005003 0.0
3.048926 0.543611 -0.000554 0.0
1.934157 0.729390 0.005143 0.0
2.917041 1.271364 -0.002722 0.0
1.307153 1.272099 0.001643 0.0
1.800580 2.167087 -0.000622 0.0
3.872141 1.261298 -0.000289 0.0
1.085104 0.717285 0.003730 0.0
3.776850 0.572654 -0.000243 0.0
1.785000 0.694200 -0.000484 0.0
2.964549 1.938374 0.000426 0.0
1.811227 1.172513 -0.001132 0.0
1.484158 1.643648 -0.000472 0.0
0.733723 1.214695 0.004528 0.0
1.459158 0.552158 -0.001035 0.0
4.035683 1.858014 -0.000877 0.0
4.235682 0.891412 0.002800 0.0
1.131928 0.132315 0.003465 0.0
2.610041 1.238712 0.002316 0.0
1.536642 0.480217 0.002659 0.0
2.905731 1.592915 -0.000084 0.0
4.086627 1.381318 -0.002136 0.0
3.404472 0.986949 0.001540 0.0
1.729561 1.128071 -0.006195 0.0
2.889649 0.459597 0.000179 0.0
2.802507 0.604070 -0.001335 0.0
1.744012 0.142264 0.003378 0.0
1.759473 0.572909 0.002422 0.0
0.041076 0.191829 0.004336 0.0
2.571788 0.167382 -0.003014 0.0
0.615818 1.763499 0.000145 0.0
1.949743 0.198128 0.002060 0.0
2.776071 1.099983 0.001446 0.0
1.508236 1.506972 -0.001925 0.0
1.399310 1.266559 0.003911 0.0
2.725578 0.949338 -0.000796 0.0
1.911767 0.082659 -0.000248 0.0
0.207655 0.960290 0.002714 0.0
3.085998 1.194056 0.000043 0.0
0.758051 1.090363 0.001001 0.0
0.488659 1.369949 0.001433 0.0
0.204401 1.750245 0.001729 0.0
3.745068 1.015801 -0.001192 0.0
4.188573 1.035569 0.001853 0.0
3.777874 2.065859 -0.003454 0.0
1.801415 1.650303 -0.001110 0.0
3.994603 0.187367 -0.002734 0.0
1.995414 0.472911 -0.002352 0.0
0.517482 1.315776 0.000386 0.0
3.076190 1.627701 -0.000300 0.0
3.687690 0.273979 0.000526 0.0
4.137555 1.005660 -0.003722 0.0
2.690089 1.957764 0.004501 0.0
2.256720 0.726188 0.003875 0.0
0.574066 0.974501 0.001208 0.0
0.050574 0.243591 0.001765 0.0
3.152120 0.435631 0.002958 0.0
3.201391 0.043682 0.001523 0.0
0.947268 1.266072 0.001159 0.0
3.519748 0.046600 0.000328 0.0
1.424653 1.066650 -0.004038 0.0
2.437760 0.807070 -0.004115 0.0
3.917349 0.339611 -0.001538 0.0
0.883006 1.661179 -0.001248 0.0
3.990171 0.092257 0.000532 0.0
2.755060 0.389645 -0.001446 0.0
0.123411 0.195305 -0.001304 0.0
0.827494 0.900626 0.000529 0.0
3.566587 0.723656 -0.000721 0.0
0.953456 0.003998 0.000521 0.0
0.780446 0.313665 0.001668 0.0
1.734393 0.037517 -0.004953 0.0
3.411499 1.799046 0.002354 0.0
0.545668 1.468506 -0.001482 0.0
3.229613 0.375964 -0.002995 0.0
0.292031 2.061998 -0.002187 0.0
3.901630 0.599463 0.002187 0.0
4.106035 1.692671 0.000811 0.0
2.542436 2.157854 0.002101 0.0
3.135623 0.553426 -0.000807 0.0
1.847169 1.334046 -0.000767 0.0
1.005130 0.282894 0.002825 0.0
1.673807 1.616892 0.003507 0.0
3.006389 1.870010 0.000179 0.0
3.499174 1.323074 0.001060 0.0
3.257687 0.740486 -0.001661 0.0
1.253304 1.711828 0.001300 0.0
2.212073 1.214648 0.000410 0.0
1.022846 0.896233 -0.000917 0.0
2.209925 1.385618 0.000878 0.0
3.406472 1.792685 0.005650 0.0
3.851723 0.907709 0.004552 0.0
3.792061 0.341255 0.002027 0.0
2.084469 1.831424 0.005353 0.0
3.074578 1.477543 0.001217 0.0
4.173365 0.915012 0.001264 0.0
1.426700 0.998708 -0.002055 0.0
0.708802 1.867241 0.002550 0.0
1.566391 0.347715 0.001222 0.0
3.086996 0.245597 0.001960 0.0
3.625827 0.134518 -0.001338 0.0
0.886699 1.515793 0.002119 0.0
0.503387 0.768358 -0.000008 0.0
2.101885 0.253129 -0.001480 0.0
1.664690 1.659936 0.000319 0.0
1.732850 1.794575 -0.003128 0.0
1.059133 0.090124 -0.000494 0.0
3.471389 0.767274 0.000597 0.0
1.177547 1.033151 -0.003240 0.0
3.229996 1.908524 -0.001773 0.0
2.691834 1.913200 0.001590 0.0
1.893203 0.085301 -0.000056 0.0
0.191695 1.065875 -0.001480 0.0
1.705940 1.099711 0.002640 0.0
3.135400 1.339836 0.000997 0.0
3.561437 1.747956 0.000439 0.0
0.124449 1.617876 0.002620 0.0
0.088638 0.160657 -0.000674 0.0
4.148271 1.983108 -0.000594 0.0
3.352838 1.791324 -0.000418 0.0
2.412386 1.809874 -0.001572 0.0
3.216277 1.594853 0.001804 0.0
1.437645 0.518999 0.001448 0.0
2.752813 1.185792 0.000390 0.0
3.874224 0.236814 -0.003515 0.0
3.061038 1.181802 0.000454 0.0
0.352522 1.128878 0.000020 0.0
2.253775 1.949714 0.000390 0.0
0.112727 1.415309 0.003476 0.0
4.179968 2.048413 -0.003547 0.0
0.655083 0.826529 -0.000845 0.0
0.550106 0.491485 -0.001215 0.0
2.889956 1.265397 0.002821 0.0
1.742264 1.259029 -0.000563 0.0
3.260632 0.861861 0.006381 0.0
3.053717 1.533141 -0.002089 0.0
3.838190 0.911470 -0.000426 0.0
2.881219 1.359148 -0.003577 0.0
0.008800 1.363603 0.001297 0.0
3.802713 1.637205 0.001204 0.0
2.548288 1.162036 0.000320 0.0
1.169376 1.643499 -0.001178 0.0
1.860344 0.206684 0.002013 0.0
0.227949 0.142282 -0.003488 0.0
0.955708 1.618042 -0.000765 0.0
2.537496 0.553480 -0.001056 0.0
2.066370 1.914103 -0.000549 0.0
3.389160 1.778139 -0.003757 0.0
4.003141 2.036394 -0.001919 0.0
0.426372 0.438577 -0.002044 0.0
2.798057 1.123834 0.003629 0.0
3.827057 0.983161 -0.000348 0.0
3.002101 0.138257 0.003689 0.0
0.328697 2.012946 0.003472 0.0
0.005973 1.237154 -0.003940 0.0
4.067463 0.485043 0.000010 0.0
2.834916 1.149094 0.000945 0.0
3.505945 0.077256 0.003281 0.0
1.225647 1.582794 -0.000771 0.0
3.095304 1.210913 0.004658 0.0
0.610033 0.812199 -0.000220 0.0
0.453574 0.059189 0.003040 0.0
1.164415 0.930528 -0.002726 0.0
4.214532 0.514410 0.000929 0.0
0.075397 2.037270 0.000445 0.0
4.236709 1.087956 0.002412 0.0
2.235602 1.891111 0.000557 0.0
0.488368 2.148172 0.001851 0.0
0.159769 2.010994 0.001443 0.0
0.538602 1.542371 0.001598 0.0
3.701127 0.163704 -0.000834 0.0
3.335984 0.696017 0.001530 0.0
1.441925 1.283299 0.002822 0.0
1.854882 1.192199 0.002265 0.0
2.816442 0.069754 0.004998 0.0
3.257149 0.119516 0.002549 0.0
4.268277 0.878874 0.003872 0.0
2.209018 0.740894 0.001548 0.0
2.964705 0.935228 -0.000792 0.0
3.354943 0.622165 -0.000299 0.0
3.182363 0.600125 -0.000507 0.0
1.784510 1.602219 0.001060 0.0
0.347524 0.586135 -0.000198 0.0
2.838006 1.746649 -0.000779 0.0
2.221062 1.440618 -0.001298 0.0
3.840635 1.427710 -0.001586 0.0
2.814812 0.751989 -0.002485 0.0
2.897106 1.877376 0.001466 0.0
3.795624 1.788644 -0.004481 0.0
0.764008 1.230719 -0.001007 0.0
2.241415 0.269675 0.002794 0.0
2.674584 0.158951 -0.000493 0.0
2.277992 2.074662 0.001764 0.0
0.038921 0.635010 -0.000217 0.0
1.945401 2.004049 0.004019 0.0
0.847507 0.140911 -0.001979 0.0
0.898674 1.489257 0.000370 0.0
0.008008 0.204048 -0.000060 0.0
0.147687 0.049824 -0.003680 0.0
3.376883 0.354510 0.002796 0.0
3.142723 1.500570 0.001251 0.0
4.166917 0.368377 -0.001381 0.0
2.230637 1.921921 0.000090 0.0
2.811811 0.150112 0.000840 0.0
2.379371 0.728290 -0.002742 0.0
2.339369 0.169577 -0.000850 0.0
0.287456 0.026474 0.003689 0.0
3.386432 1.163004 -0.002062 0.0
2.805367 1.516144 -0.002874 0.0
0.506362 0.981040 -0.000342 0.0
1.445705 1.673392 0.002296 0.0
4.043230 1.032565 0.000420 0.0
2.747302 2.155207 -0.006823 0.0
2.257999 2.117280 0.001682 0.0
0.786470 0.243338 0.000252 0.0
3.163819 0.273308 0.002700 0.0
0.156791 1.433893 0.001090 0.0
1.294984 0.893694 -0.004604 0.0
2.575688 1.286325 -0.002970 0.0
2.446867 0.317258 -0.005266 0.0
3.260620 0.873772 0.001239 0.0
3.821051 1.018289 0.001787 0.0
4.059534 0.994739 0.001488 0.0
3.897869 0.107907 -0.001078 0.0
2.866859 1.987809 -0.000685 0.0
1.697450 1.508712 -0.002521 0.0
1.127190 1.834903 -0.001526 0.0
0.485993 1.897953 0.000812 0.0
2.441553 1.936599 -0.002094 0.0
1.513577 0.344353 -0.005550 0.0
1.220926 0.944061 0.000677 0.0
0.337651 0.951810 0.000634 0.0
3.966499 1.968401 0.002617 0.0
2.953964 0.634722 0.002735 0.0
3.168911 1.650483 0.002566 0.0
3.159504 1.756875 -0.001957 0.0
3.573267 1.121296 -0.001469 0.0
4.213404 1.491150 -0.003054 0.0
3.745961 0.789178 0.001160 0.0
1.939597 0.619530 0.001781 0.0
4.302772 1.846377 -0.002104 0.0
2.314136 1.185498 0.003874 0.0
0.125355 0.723316 0.001194 0.0
0.768907 1.377916 0.001873 0.0
0.805959 1.572939 -0.002573 0.0
2.508284 1.048797 0.000655 0.0
0.722545 2.077736 -0.000492 0.0
0.707220 0.665224 0.000088 0.0
1.087246 0.695382 -0.002108 0.0
2.514938 0.024475 -0.000938 0.0
1.637910 0.288221 -0.001406 0.0
3.692757 0.825444 -0.000871 0.0
3.451676 1.079567 -0.001534 0.0
3.097209 0.718961 -0.001754 0.0
1.352287 0.036509 -0.001435 0.0
3.648444 1.496950 -0.001993 0.0
2.027938 0.757096 0.001938 0.0
1.242995 0.565649 0.001126 0.0
3.520662 0.430661 0.000912 0.0
2.651786 0.771424 0.000538 0.0
0.741331 0.909321 0.000714 0.0
0.526448 0.564736 -0.002466 0.0
0.691401 1.260116 -0.000504 0.0
2.214886 0.141841 -0.001607 0.0
4.277466 1.318374 -0.001381 0.0
1.161562 0.437683 -0.000299 0.0
1.419507 1.498420 0.000254 0.0
1.766633 1.686203 -0.004369 0.0
1.416837 2.034430 0.001341 0.0
0.681288 1.107839 -0.002613 0.0
0.383823 0.150021 0.004576 0.0
2.520945 1.956360 0.001473 0.0
3.494914 1.428221 0.002304 0.0
0.202966 2.134001 0.003134 0.0
1.350659 0.909929 -0.000552 0.0
0.074826 0.781608 -0.002386 0.0
1.651788 1.002103 -0.000738 0.0
0.769370 0.313128 0.004174 0.0
1.888090 0.316533 0.000288 0.0
1.597536 0.661717 -0.003193 0.0
4.291086 1.767242 0.002030 0.0
3.503734 1.503311 0.003739 0.0
0.759612 2.138421 -0.003817 0.0
0.396102 1.252017 0.002007 0.0
0.305473 1.583644 -0.005281 0.0
3.568669 0.005638 -0.000462 0.0
4.003914 1.803922 0.000275 0.0
3.498415 0.359143 0.000126 0.0
2.067151 0.290716 0.000256 0.0
0.346156 1.705684 0.000914 0.0
2.954041 1.153293 -0.001963 0.0
3.442189 1.801309 0.000238 0.0
3.106808 0.831270 0.002076 0.0
1.376883 1.638412 0.005512 0.0
3.152422 0.634695 -0.001101 0.0
1.020824 1.534078 -0.001680 0.0
2.109527 1.886331 0.002091 0.0
0.753947 1.615041 0.003068 0.0
3.718697 1.627308 -0.002024 0.0
2.017863 0.774746 0.007352 0.0
2.326706 0.397868 0.003562 0.0
0.014527 0.042288 -0.003454 0.0
0.906945 1.192771 0.001278 0.0
4.027696 0.349487 0.006409 0.0
0.608275 1.255188 -0.001546 0.0
0.995780 0.856404 0.001207 0.0
2.599459 0.951173 -0.005693 0.0
3.590226 1.950817 -0.000549 0.0
3.877877 1.995132 -0.002497 0.0
0.458957 0.411456 0.004325 0.0
3.490024 2.081809 0.001493 0.0
0.050105 0.366201 0.001293 0.0
4.113090 1.101552 0.004708 0.0
2.575989 0.903569 -0.002468 0.0
1.501261 0.737958 -0.001318 0.0
3.577582 1.828727 0.001969 0.0
0.398595 0.638855 0.005648 0.0
2.203803 0.620987 -0.002984 0.0
0.274392 1.774635 0.004167 0.0
1.494725 0.283841 -0.001735 0.0
1.300329 0.865042 -0.000667 0.0
2.082523 1.562506 0.003702 0.0
2.230755 0.440264 0.003275 0.0
0.199807 1.376622 0.000790 0.0
3.170954 1.485773 -0.004371 0.0
0.120292 1.057217 0.001226 0.0
2.228235 1.874526 -0.000022 0.0
2.056184 0.647524 -0.002767 0.0
1.549747 1.768842 -0.001708 0.0
3.337378 1.382332 0.001831 0.0
0.090272 0.629264 0.002034 0.0
1.508537 0.520032 -0.002737 0.0
2.483915 0.874445 -0.007757 0.0
0.940977 1.381422 -0.001273 0.0
1.487220 1.302420 0.002591 0.0
0.100360 2.091916 0.000425 0.0
1.139585 0.861540 -0.005766 0.0
3.350205 0.133716 0.000393 0.0
3.745985 0.524982 0.003835 0.0
3.027399 1.005212 -0.001694 0.0
0.968163 0.337702 0.004550 0.0
3.866105 0.073613 0.000489 0.0
0.762671 1.030817 0.001774 0.0
3.554592 0.613985 0.000180 0.0
2.787742 0.984311 0.000906 0.0
0.366572 1.294310 0.000019 0.0
4.170671 0.233268 -0.004260 0.0
3.458660 1.580365 -0.003991 0.0
1.332313 0.078989 0.001967 0.0
1.222441 0.872815 0.000046 0.0
1.857440 0.905280 -0.002468 0.0
3.713984 0.020581 0.003196 0.0
3.138374 0.674261 0.002028 0.0
3.845260 1.461942 -0.002357 0.0
0.872203 1.940782 0.003324 0.0
2.706726 1.000064 -0.000589 0.0
4.120084 1.281648 0.006888 0.0
1.879757 0.942653 -0.003321 0.0
3.960815 0.518297 0.002666 0.0
4.199370 1.603110 -0.000597 0.0
1.214670 0.005087 -0.001587 0.0
4.032342 1.337536 -0.000149 0.0
2.148284 1.213904 -0.002070 0.0
0.927362 1.358574 -0.002218 0.0
2.439560 1.935912 0.004872 0.0
4.229786 0.832643 0.004878 0.0
1.747035 1.828153 0.003111 0.0
3.381038 0.905825 0.000269 0.0
3.656321 1.196658 -0.003039 0.0
2.258316 0.514599 -0.002177 0.0
1.759703 0.685995 -0.001086 0.0
1.589499 2.070323 -0.002145 0.0
0.468517 2.091915 -0.001882 0.0
2.942841 0.781883 -0.001467 0.0
2.292635 2.048719 0.000275 0.0
0.514529 0.838427 0.003872 0.0
0.163369 1.080698 -0.002466 0.0
3.817952 1.391910 0.001736 0.0
3.084088 1.992912 0.000390 0.0
3.284737 1.248558 0.002065 0.0
1.917342 0.744437 0.000989 0.0
1.533135 1.747256 0.003500 0.0
1.709705 2.004811 0.000110 0.0
2.358118 1.102354 -0.000517 0.0
2.951552 0.373095 0.003100 0.0
1.030977 0.478886 -0.001848 0.0
0.322037 0.118379 -0.001512 0.0
0.458706 2.091493 -0.004266 0.0
1.387959 1.965772 -0.001057 0.0
0.312913 0.521056 -0.001326 0.0
3.050715 0.267241 0.002909 0.0
2.713348 0.756526 0.001695 0.0
2.787396 1.242345 -0.000061 0.0
3.504146 2.123158 -0.001306 0.0
1.989522 0.806228 0.002223 0.0
1.851452 0.470178 -0.004160 0.0
3.231021 0.053514 0.001930 0.0
0.774020 2.151372 -0.000552 0.0
2.758079 0.658981 0.001031 0.0
1.519549 1.423663 -0.000468 0.0
2.291398 0.040531 0.001984 0.0
3.617342 1.825466 -0.000436 0.0
1.660747 2.093436 -0.001390 0.0
0.965761 0.153061 0.001553 0.0
0.647113 2.034921 0.002744 0.0
0.306391 0.120762 0.004551 0.0
3.997418 1.376550 0.003119 0.0
3.872697 1.461375 0.003540 0.0
4.161944 1.631182 0.001718 0.0
3.690942 1.588266 -0.005729 0.0
1.676988 0.086965 0.004026 0.0
0.110320 1.295652 -0.000169 0.0
3.548828 0.170563 -0.000443 0.0
3.931122 2.065033 0.002703 0.0
1.004672 1.689146 -0.002533 0.0
4.018440 1.544000 -0.000168 0.0
2.079631 1.332629 -0.000094 0.0
4.141174 1.895952 -0.000173 0.0
1.638014 1.374631 -0.000723 0.0
1.912083 1.736077 0.000407 0.0
0.849509 0.956268 -0.001122 0.0
2.734179 2.008959 -0.003934 0.0
0.788742 0.358688 -0.003109 0.0
0.153923 1.297615 0.001508 0.0
2.944898 0.976689 -0.004043 0.0
2.344710 0.371767 -0.000595 0.0
3.295095 0.482923 0.002758 0.0
2.053628 0.885389 -0.000806 0.0
1.713531 0.543585 0.000779 0.0
3.571451 0.533875 0.001801 0.0
3.065187 0.159933 -0.002903 0.0
2.853314 0.901144 0.001840 0.0
3.659547 0.539343 -0.000175 0.0
3.373656 1.856574 0.000559 0.0
2.498157 1.610755 -0.002184 0.0
0.487578 1.790173 -0.004486 0.0
1.281410 1.544544 0.001679 0.0
3.096215 2.051903 0.003861 0.0
0.813457 1.203957 0.000332 0.0
1.707799 0.681790 0.000473 0.0
3.224579 1.574427 0.000550 0.0
0.253342 1.822787 -0.001210 0.0
1.705949 2.140134 0.000879 0.0
3.901240 0.066209 -0.000552 0.0
2.557544 0.604425 0.003444 0.0
0.508435 0.043772 0.001436 0.0
1.863964 0.315865 0.001317 0.0
1.642324 1.135789 0.000234 0.0
3.582969 1.584392 0.005189 0.0
3.344066 0.366946 -0.003410 0.0
0.952642 1.946752 -0.000031 0.0
2.928050 0.698010 0.001852 0.0
1.966680 1.712541 -0.001477 0.0
0.333572 1.808908 0.001896 0.0
3.659282 1.410687 0.000841 0.0
3.581624 1.459871 -0.000394 0.0
0.601723 0.368023 -0.001653 0.0
0.268618 1.757316 -0.000358 0.0
2.338891 0.987977 -0.002936 0.0
3.663151 0.739182 -0.000142 0.0
3.667691 1.266664 0.000712 0.0
3.505890 2.066583 -0.004565 0.0
2.118137 1.875032 0.000944 0.0
2.078884 0.323120 0.002016 0.0
3.700689 0.733245 0.000021 0.0
0.423760 0.018507 0.001854 0.0
2.222414 0.932405 0.000043 0.0
1.489703 0.506137 -0.002657 0.0
0.995531 1.920613 -0.000130 0.0
1.457867 1.608522 -0.000356 0.0
2.959393 0.922509 -0.000975 0.0
0.400021 0.038283 0.002029 0.0
0.257737 1.542758 0.000065 0.0
2.562719 1.273818 0.000788 0.0
3.166944 1.034387 0.001016 0.0
0.015170 1.607286 0.000763 0.0
0.183991 0.987389 0.003180 0.0
4.036557 0.648683 0.004289 0.0
0.970475 0.938610 -0.002703 0.0
3.743884 1.518838 0.003098 0.0
0.517797 0.511871 0.000047 0.0
3.975853 0.375935 -0.002207 0.0
1.237009 0.879883 0.001134 0.0
2.178857 0.739073 -0.003089 0.0
2.778135 1.663305 0.000756 0.0
1.923459 0.287863 0.000810 0.0
3.616357 0.580217 -0.000365 0.0
2.162443 2.137490 0.001465 0.0
4.102009 1.210634 -0.002189 0.0
2.380064 1.543790 -0.000793 0.0
2.036420 2.108512 0.000758 0.0
0.546933 0.805138 0.002748 0.0
4.076764 1.088353 0.001500 0.0
0.448340 1.915529 -0.001170 0.0
2.791185 0.287444 -0.004748 0.0
4.262754 0.549056 0.001055 0.0
3.092843 1.185424 0.002331 0.0
3.370365 0.228301 -0.001239 0.0
2.682520 0.606996 0.002309 0.0
0.793710 2.067491 0.003160 0.0
1.020463 0.370216 -0.004082 0.0
1.796061 1.234548 -0.001887 0.0
0.467069 0.215915 -0.000274 0.0
2.135050 1.803244 0.007174 0.0
0.684841 1.380821 -0.001670 0.0
2.233572 0.988431 -0.000727 0.0
3.597087 1.188997 0.002525 0.0
0.228484 2.141510 0.000286 0.0
2.831931 1.773321 0.000651 0.0
0.105959 0.019553 0.000987 0.0
1.580764 0.559023 0.001413 0.0
4.302878 1.470645 -0.000623 0.0
1.207997 0.822214 0.000639 0.0
2.762920 1.313083 0.003472 0.0
0.528741 0.097240 0.004722 0.0
3.417353 1.642929 -0.002914 0.0
2.223474 0.294748 -0.006195 0.0
2.422047 0.068097 0.002014 0.0
3.853235 1.975759 0.000472 0.0
1.313780 0.005327 -0.006119 0.0
1.762335 0.575760 0.000029 0.0
3.044941 1.816152 0.004069 0.0
0.741229 1.309207 -0.001176 0.0
0.431031 1.690955 -0.000395 0.0
2.313322 1.492812 -0.002937 0.0
1.280034 0.434697 -0.000833 0.0
3.452444 0.688514 -0.000541 0.0
1.149749 0.142289 -0.002295 0.0
2.211274 0.754453 0.000369 0.0
2.907693 0.180017 0.001238 0.0
3.816214 1.166414 -0.000035 0.0
2.651988 0.042091 0.003736 0.0
3.831568 1.787971 -0.001612 0.0
0.200736 0.006455 0.001158 0.0
2.230701 1.696002 0.000493 0.0
1.613497 1.121555 0.001691 0.0
0.584424 0.563614 -0.000555 0.0
1.385143 1.097960 -0.000991 0.0
3.803907 0.009136 -0.001395 0.0
0.102340 1.909874 0.006170 0.0
1.161127 0.405270 -0.003062 0.0
4.293826 1.858414 0.001279 0.0
1.317189 0.891030 -0.001960 0.0
0.978838 1.147141 0.004120 0.0
2.709029 1.782993 -0.003856 0.0
0.195341 0.360032 0.003229 0.0
0.624533 1.175287 0.001136 0.0
3.976460 1.847341 -0.004051 0.0
2.392880 2.060013 0.001370 0.0
0.080973 0.842815 -0.002196 0.0
3.282515 0.200193 0.001501 0.0
3.193293 1.941639 0.003377 0.0
4.297091 0.441943 -0.004164 0.0
2.237671 1.623380 -0.002336 0.0
0.110320 0.574450 0.000592 0.0
0.808458 0.051739 -0.000538 0.0
3.612456 2.134354 -0.001007 0.0
3.204819 0.505174 0.003298 0.0
0.502345 0.300389 -0.002288 0.0
0.956500 0.376412 0.002045 0.0
0.122700 1.356840 -0.001930 0.0
0.540360 1.267858 -0.002012 0.0
0.985021 1.328554 0.002403 0.0
2.077382 0.468212 -0.001515 0.0
3.164031 0.124633 -0.001404 0.0
3.389860 0.417827 -0.000879 0.0
0.062709 0.904879 0.001315 0.0
0.904666 1.962713 0.000684 0.0
2.984159 1.809760 0.001970 0.0
1.052561 1.489004 0.000662 0.0
0.793801 0.937395 0.001608 0.0
3.311032 1.359994 -0.006714 0.0
3.731630 2.016524 0.004394 0.0
3.962772 1.063780 -0.001552 0.0
2.139453 2.089074 0.004429 0.0
2.958361 1.963525 0.005252 0.0
0.346140 1.893973 0.002209 0.0
2.558185 0.314792 0.002004 0.0
0.713993 1.590269 0.002042 0.0
0.732728 1.601447 0.000586 0.0
3.942482 1.931239 0.001238 0.0
2.387206 0.410213 -0.000898 0.0
2.771111 0.853593 0.003540 0.0
1.088485 1.726223 -0.000418 0.0
1.061607 1.548646 -0.001113 0.0
0.386255 1.385768 -0.001060 0.0
1.758565 1.642081 -0.002122 0.0
0.738736 1.521997 0.001966 0.0
2.366045 0.600653 0.000457 0.0
3.649223 1.365165 0.000575 0.0
1.929577 0.944151 -0.000923 0.0
3.791251 0.774587 0.004551 0.0
3.028593 0.312451 0.001493 0.0
3.012296 1.681902 -0.000768 0.0
0.103740 0.891356 -0.001240 0.0
0.744646 1.920441 -0.003480 0.0
3.263638 0.777032 0.004063 0.0
3.188220 1.103249 0.000802 0.0
2.603743 2.162218 0.004207 0.0
3.497610 2.054386 0.001555 0.0
3.169662 1.755679 0.000654 0.0
0.650336 1.844733 -0.000218 0.0
0.897606 1.413859 -0.001262 0.0
3.336380 0.588682 -0.003827 0.0
3.887386 1.355211 0.002644 0.0
0.585080 1.498205 -0.000066 0.0
4.246828 0.511316 -0.002217 0.0
3.953103 1.191512 -0.005408 0.0
4.083811 0.822559 -0.001967 0.0
2.676031 0.438473 0.002744 0.0
3.879557 0.933074 -0.004569 0.0
3.389958 0.379620 -0.001417 0.0
3.276243 0.031583 -0.000284 0.0
2.922129 2.138195 0.000034 0.0
3.750583 1.053613 0.000710 0.0
0.685000 0.108616 -0.000002 0.0
2.395975 0.579149 -0.003265 0.0
0.496041 1.492972 0.000246 0.0
4.080415 0.942816 0.002888 0.0
3.136507 1.784154 0.003140 0.0
2.055580 1.009868 -0.001729 0.0
2.470155 1.537587 -0.001225 0.0
1.971057 1.528786 -0.002912 0.0
1.553859 1.715689 -0.003338 0.0
1.308594 0.539302 -0.001295 0.0
1.585982 0.075264 0.000573 0.0
0.859039 1.861291 -0.005901 0.0
3.792563 0.510923 0.000494 0.0
3.483845 1.449434 -0.003364 0.0
1.624589 0.691629 -0.005576 0.0
1.004661 0.306274 0.000404 0.0
4.030634 0.381441 0.002591 0.0
2.083938 1.309004 0.002220 0.0
0.521714 0.307833 -0.001765 0.0
3.287320 0.720526 -0.000502 0.0
1.610698 0.249530 0.002446 0.0
0.026910 0.056417 0.001812 0.0
3.932551 1.557715 -0.000133 0.0
1.270601 1.489623 0.002125 0.0
0.905547 0.569783 -0.000358 0.0
0.649065 0.899861 -0.001315 0.0
3.788879 1.675610 0.001905 0.0
0.227706 1.294314 0.000263 0.0
1.417124 1.259058 0.000641 0.0
1.581575 2.061357 0.001162 0.0
3.887586 1.504178 0.001610 0.0
0.161121 0.491703 0.006719 0.0
1.607065 0.480619 -0.002821 0.0
1.431040 0.650088 -0.001395 0.0
0.415389 1.195075 0.000645 0.0
1.309171 1.275871 0.000420 0.0
0.916757 1.557515 -0.002044 0.0
1.767039 1.417522 0.005123 0.0
0.634579 0.399125 0.004330 0.0
1.243444 1.247578 0.000740 0.0
3.823451 0.389295 0.001553 0.0
1.319802 1.545513 -0.000112 0.0
4.268626 1.231048 -0.002801 0.0
4.060168 0.821151 -0.000217 0.0
1.439820 0.599502 -0.005014 0.0
1.972014 0.932560 0.001149 0.0
0.738015 0.151042 -0.001040 0.0
3.128160 1.461849 -0.001006 0.0
3.157225 0.788647 0.002176 0.0
4.303813 0.984508 0.004485 0.0
2.883324 2.047611 0.000447 0.0
0.475465 0.577472 0.000906 0.0
3.836579 2.165248 0.000271 0.0
3.330055 0.942065 -0.001342 0.0
3.805540 0.068673 0.001200 0.0
4.107659 0.538737 0.002431 0.0
1.662834 1.619035 -0.000453 0.0
2.260028 0.262404 -0.000208 0.0
0.728334 1.925869 -0.002155 0.0
1.291989 0.961288 0.003716 0.0
3.839911 0.337027 0.002548 0.0
1.844408 0.957358 0.003368 0.0
0.204863 2.057816 -0.001444 0.0
0.706698 2.104354 -0.000333 0.0
2.059243 1.352581 0.001738 0.0
0.174390 1.674288 -0.000506 0.0
1.606815 0.690372 0.001729 0.0
3.968221 0.379053 -0.001190 0.0
3.380940 0.852421 -0.001029 0.0
3.537623 1.581646 -0.003965 0.0
4.290038 1.806332 0.001658 0.0
4.128599 1.760176 -0.003615 0.0
3.443196 1.961713 0.004368 0.0
3.776527 0.570439 0.000357 0.0
4.000336 1.709293 0.000928 0.0
3.803948 1.401758 0.001758 0.0
4.026852 1.249735 -0.002215 0.0
3.801263 1.420690 0.001272 0.0
2.633510 1.762045 0.000511 0.0
2.468171 1.163470 0.000302 0.0
4.090665 0.924906 0.002559 0.0
0.954069 0.171529 0.003373 0.0
4.169720 0.011314 0.004076 0.0
2.792690 1.841582 -0.003042 0.0
0.963824 1.260433 -0.001742 0.0
3.212820 0.861086 0.004198 0.0
0.929302 1.116748 0.003105 0.0
2.393379 1.512637 0.002454 0.0
4.155618 0.097407 0.002082 0.0
0.988816 0.679504 0.001362 0.0
0.541031 1.043463 0.001633 0.0
2.482727 1.203226 -0.000176 0.0
0.370610 1.838174 -0.001758 0.0
0.281889 0.395925 -0.000644 0.0
2.061121 1.907537 0.003812 0.0
3.469115 0.887699 0.002014 0.0
0.108701 1.532593 -0.003270 0.0
2.933854 1.768008 0.000136 0.0
0.061384 0.378339 0.000837 0.0
3.990909 0.237663 -0.003242 0.0
3.299802 0.146957 -0.000658 0.0
4.026974 0.770816 0.002454 0.0
3.722262 0.593291 0.002235 0.0
2.025483 2.144231 -0.004853 0.0
1.089629 1.051385 0.006259 0.0
1.127282 1.274975 -0.000830 0.0
3.710771 0.657598 0.002444 0.0
2.943571 0.880256 0.002574 0.0
0.032334 0.891813 -0.004133 0.0
3.632012 1.363051 -0.000804 0.0
1.127873 1.673774 -0.002850 0.0
0.877912 0.413784 -0.001625 0.0
3.212644 1.350504 -0.000270 0.0
3.767429 0.932729 -0.003267 0.0
0.264883 1.786342 0.000240 0.0
2.998813 1.026015 -0.000107 0.0
2.812504 0.218376 -0.000092 0.0
2.634322 1.870827 -0.000428 0.0
1.873863 1.450085 -0.000015 0.0
3.541645 1.903407 -0.003851 0.0
2.728584 1.750348 0.002071 0.0
1.625989 1.505703 -0.003588 0.0
0.708316 0.021778 0.000291 0.0
0.517619 0.718677 0.002008 0.0
0.769900 2.127362 0.001109 0.0
2.995805 1.692782 0.000326 0.0
2.913923 2.157557 0.003639 0.0
2.746281 0.116389 -0.001302 0.0
0.146570 0.326955 -0.000600 0.0
4.281479 1.177222 -0.002876 0.0
0.011293 0.149054 0.002756 0.0
0.593041 0.327718 -0.000603 0.0
2.620869 2.042619 -0.000240 0.0
2.788177 0.631178 0.002364 0.0
0.378077 1.616321 0.000374 0.0
1.843401 2.004440 0.000104 0.0
1.044030 1.010660 -0.005133 0.0
1.253440 1.666556 -0.001005 0.0
2.822580 0.363392 0.001751 0.0
3.177619 0.563171 -0.001149 0.0
2.757248 1.711608 0.001785 0.0
3.721720 1.249496 -0.000959 0.0
1.973212 1.682729 0.000285 0.0
4.293247 1.931835 -0.000474 0.0
4.196081 0.959900 0.000593 0.0
1.602498 2.098105 0.001043 0.0
3.869834 1.234176 0.002175 0.0
1.411021 1.500414 0.000890 0.0
1.375360 0.765211 -0.003067 0.0
1.128788 1.726212 0.000367 0.0
1.090612 2.157863 -0.002062 0.0
2.887534 1.150360 0.001890 0.0
0.414462 0.904974 0.003496 0.0
2.593051 0.360400 -0.000549 0.0
3.945520 1.338377 0.005295 0.0
1.224259 1.219524 -0.001134 0.0
1.456179 1.016884 0.002502 0.0
2.615675 0.690484 -0.002284 0.0
0.850379 2.044234 0.002671 0.0
2.155970 1.560893 -0.000608 0.0
2.625257 0.816809 0.001400 0.0
2.650837 1.736481 -0.001517 0.0
2.881481 1.865592 0.000469 0.0
0.419642 1.410199 0.002521 0.0
0.160556 0.834572 0.002151 0.0
4.008240 0.619328 0.002339 0.0
2.917810 0.433571 0.002483 0.0
1.783643 1.255011 0.002812 0.0
0.528583 0.943575 -0.000282 0.0
0.999516 0.659043 -0.003669 0.0
0.179359 0.469073 -0.000015 0.0
4.145346 1.494679 -0.003583 0.0
0.021366 2.049765 -0.000862 0.0
4.157091 1.412773 0.002446 0.0
3.516907 0.645503 -0.002980 0.0
2.818126 1.062532 0.002459 0.0
2.234273 2.141326 0.003571 0.0
4.218987 0.170239 0.003884 0.0
0.829709 0.263045 -0.001442 0.0
1.682718 0.969870 -0.000064 0.0
0.572681 1.490797 -0.001468 0.0
1.693456 0.650266 0.000693 0.0
3.929918 0.586675 0.000014 0.0
2.932468 1.321290 0.003857 0.0
1.229355 2.026926 0.004105 0.0
1.332176 0.357496 -0.000793 0.0
2.222861 0.596283 0.004184 0.0
2.253029 1.543588 0.002024 0.0
4.285037 1.909974 -0.000391 0.0
1.417242 0.185115 0.001219 0.0
4.129157 1.470243 0.004089 0.0
3.341641 0.368511 -0.001301 0.0
2.161846 1.548154 -0.000967 0.0
3.837908 1.701440 -0.001400 0.0
0.229976 1.962770 0.003324 0.0
0.648511 1.350364 -0.002070 0.0
0.762737 0.043184 -0.001014 0.0
1.469587 1.658805 -0.002959 0.0
1.053674 0.116932 -0.002185 0.0
3.263937 1.646202 0.002345 0.0
4.232489 0.356859 -0.001888 0.0
2.558286 1.363216 -0.002211 0.0
4.219866 1.217584 0.001737 0.0
2.089851 0.520032 0.001019 0.0
0.308835 1.511815 0.001444 0.0
1.677397 1.928567 -0.001843 0.0
2.407154 1.786407 0.001303 0.0
1.577357 1.662206 0.001562 0.0
0.607282 1.313467 -0.000813 0.0
1.202526 0.397367 -0.003008 0.0
1.404507 1.689284 -0.001964 0.0
2.781375 1.215703 -0.000891 0.0
3.212874 0.556043 -0.000599 0.0
3.367997 0.437175 0.000292 0.0
0.425786 1.189233 -0.000007 0.0
1.437957 0.837925 0.002708 0.0
0.569461 1.777426 0.002683 0.0
3.758663 0.062754 0.001955 0.0
2.309882 0.242382 -0.005039 0.0
0.604793 1.621378 -0.000586 0.0
3.878518 1.325328 -0.003307 0.0
1.811034 0.683431 -0.003165 0.0
3.874543 0.511286 -0.002625 0.0
3.914387 1.541631 0.002757 0.0
3.333376 2.010212 -0.007216 0.0
2.117244 0.448577 0.000821 0.0
0.523311 0.533814 0.002888 0.0
2.767049 0.056226 -0.001653 0.0
1.643543 0.362693 -0.000732 0.0
0.722366 0.109285 -0.001653 0.0
0.798988 1.093006 0.000077 0.0
3.523707 0.320911 -0.000440 0.0
2.016739 1.286626 -0.003014 0.0
1.024019 1.060877 0.002946 0.0
3.207332 0.542930 -0.005490 0.0
4.091813 1.079144 -0.005298 0.0
2.913922 0.954102 0.000321 0.0
1.962795 1.031516 0.000413 0.0
3.559704 0.797933 -0.002500 0.0
0.634757 0.023686 0.003411 0.0
3.726291 0.028768 -0.002560 0.0
3.480466 0.304470 0.003052 0.0
1.474770 1.575863 0.002973 0.0
1.916610 1.904632 -0.001668 0.0
1.154506 0.945504 0.002427 0.0
3.414946 1.919431 0.001803 0.0
4.128390 1.958437 -0.001868 0.0
0.110060 2.122827 0.001238 0.0
2.622168 1.782048 0.001050 0.0
3.105073 1.229805 -0.003006 0.0
1.425876 0.425481 0.003291 0.0
1.892758 1.251226 0.001189 0.0
3.691838 0.961743 0.002464 0.0
1.264874 1.733116 0.002536 0.0
2.099365 1.078523 -0.001659 0.0
1.070286 1.696297 -0.001070 0.0
0.715708 2.156523 -0.001163 0.0
1.620094 1.565326 0.000997 0.0
0.354250 0.849686 -0.002378 0.0
2.970578 0.712371 -0.001645 0.0
3.839333 0.871838 0.000363 0.0
2.202410 0.085945 0.000112 0.0
4.192883 1.145819 -0.002773 0.0
3.636707 0.676887 -0.001055 0.0
2.229864 1.444872 -0.001216 0.0
1.168998 2.027851 0.003534 0.0
2.619325 1.797907 0.001425 0.0
2.152977 0.567636 -0.000779 0.0
2.976619 0.220616 0.002262 0.0
2.479513 1.471150 -0.000303 0.0
0.834500 1.956287 0.003843 0.0
2.343125 1.861885 -0.002818 0.0
0.236937 1.701779 -0.000342 0.0
1.287087 0.761780 0.004952 0.0
0.312516 1.383821 0.000650 0.0
2.815833 0.485543 0.002002 0.0
0.083618 1.375401 0.003196 0.0
4.252899 1.118304 -0.000657 0.0
1.232844 1.487801 -0.001212 0.0
0.479354 1.215928 -0.003836 0.0
1.027677 0.812969 -0.001773 0.0
0.237155 1.859837 -0.002983 0.0
2.817912 0.368959 -0.001116 0.0
0.275432 1.867412 0.002958 0.0
0.303123 0.323025 -0.001356 0.0
2.428843 1.304931 0.001563 0.0
0.699098 0.805896 -0.002830 0.0
2.015613 0.482969 0.002260 0.0
4.192116 0.746364 -0.000833 0.0
3.332651 1.331441 0.002103 0.0
3.013031 0.903942 -0.000239 0.0
3.874451 1.022998 -0.001082 0.0
1.372196 0.130492 0.000970 0.0
0.120433 0.480247 0.001611 0.0
1.833106 1.188518 -0.000152 0.0
3.802755 0.164453 0.003423 0.0
0.012850 0.675601 0.003113 0.0
2.551054 1.759711 0.002586 0.0
3.336662 1.304457 -0.004585 0.0
2.330980 1.352564 -0.002578 0.0
2.915025 0.563094 -0.001616 0.0
3.612893 0.744959 -0.000439 0.0
3.054030 0.448714 0.000071 0.0
2.240162 0.774157 0.000461 0.0
1.853299 0.861319 -0.002515 0.0
2.934295 0.452099 0.004482 0.0
2.730067 0.064302 0.001372 0.0
1.432572 1.992360 0.001471 0.0
1.771493 0.048361 0.002939 0.0
2.823664 0.611853 0.001686 0.0
3.390876 0.635982 0.004461 0.0
0.148674 1.561996 0.000165 0.0
2.210996 1.607089 -0.002070 0.0
3.618703 0.584119 -0.001981 0.0
2.579351 2.118652 -0.003058 0.0
3.426241 0.430137 -0.003668 0.0
2.600473 1.603648 0.002333 0.0
2.434331 1.138209 -0.002289 0.0
0.716495 1.611783 0.000142 0.0
2.242011 0.145445 -0.002386 0.0
3.571691 0.605276 0.002200 0.0
0.140302 1.281917 0.000997 0.0
1.371700 0.254436 -0.002178 0.0
3.232959 0.132717 0.001519 0.0
1.506422 0.848709 -0.000299 0.0
2.976380 0.166534 -0.000817 0.0
3.329491 0.790017 -0.002122 0.0
0.754233 0.047703 -0.007570 0.0
2.500542 0.682032 0.002555 0.0
2.105088 1.187078 0.001630 0.0
3.461399 1.866521 0.002883 0.0
3.455513 2.138461 -0.003183 0.0
1.897474 0.348533 -0.001329 0.0
2.638845 0.364121 0.001903 0.0
0.842273 0.007936 0.002375 0.0
0.202929 2.014284 -0.000476 0.0
0.604619 1.372326 -0.002405 0.0
3.562071 1.480677 0.001262 0.0
2.093559 0.977865 0.000398 0.0
0.062937 0.002494 -0.000975 0.0
0.643067 0.709733 0.000900 0.0
1.278187 0.132609 -0.002565 0.0
2.262630 0.284846 0.000245 0.0
0.932263 1.651594 -0.002769 0.0
3.534884 2.018920 0.001293 0.0
2.243004 0.108700 -0.002611 0.0
1.269397 1.724616 0.000294 0.0
3.863877 0.647198 0.001907 0.0
2.262583 0.420559 -0.000924 0.0
4.000792 0.701032 -0.002318 0.0
1.350062 0.803252 0.000060 0.0
1.968113 0.267981 0.001231 0.0
1.026432 0.438277 -0.002462 0.0
1.696760 0.815693 -0.000597 0.0
2.255689 2.046776 0.001394 0.0
1.198858 1.258029 -0.002971 0.0
0.945172 0.652570 0.001165 0.0
0.637441 2.156893 0.001068 0.0
2.495688 2.022245 0.004860 0.0
3.215838 1.381100 0.001122 0.0
1.698110 0.774401 -0.001517 0.0
3.155852 0.607885 0.001083 0.0
3.669444 0.545762 0.003045 0.0
2.410631 0.950710 0.000175 0.0
2.422150 1.515894 -0.006031 0.0
3.574118 0.319998 -0.001921 0.0
3.785872 0.644724 0.000427 0.0
0.052124 1.819417 -0.001904 0.0
3.032461 1.223039 -0.000217 0.0
1.009257 0.506264 -0.001276 0.0
1.762816 1.283905 -0.003854 0.0
2.165200 0.835304 0.003906 0.0
3.123402 0.741583 0.000819 0.0
1.464743 1.644686 0.000789 0.0
2.870990 0.446145 0.005421 0.0
2.113930 1.978196 0.000599 0.0
3.778288 0.961878 0.001020 0.0
0.403499 0.025583 -0.001514 0.0
1.257306 0.430088 0.001721 0.0
0.674814 1.942346 0.001211 0.0
0.753798 0.689584 0.001966 0.0
3.902549 1.727990 -0.001408 0.0
1.126015 1.052426 -0.001224 0.0
2.603692 2.019554 0.000113 0.0
2.679426 1.298832 0.000200 0.0
0.452891 0.924180 -0.002326 0.0
3.450807 1.585405 -0.004686 0.0
1.364717 0.763696 0.001338 0.0
1.618788 0.067721 -0.003860 0.0
3.352881 1.917067 0.001504 0.0
1.409606 1.458805 -0.000677 0.0
0.074158 1.576393 0.000567 0.0
0.106126 0.955336 0.004227 0.0
2.091996 1.712983 0.000896 0.0
1.439514 0.557813 0.005053 0.0
2.209050 0.030073 0.000049 0.0
1.252379 0.282500 0.003494 0.0
4.287047 1.134489 -0.000322 0.0
1.047720 0.666309 -0.003607 0.0
3.105577 0.938813 0.002171 0.0
2.786138 0.663432 -0.001149 0.0
2.030350 1.288984 -0.002408 0.0
3.737673 1.561037 0.000228 0.0
2.989481 1.164415 -0.000768 0.0
4.173822 1.385139 -0.002029 0.0
1.419977 0.550753 0.004905 0.0
0.095524 0.556870 -0.000361 0.0
0.765182 0.076758 0.003074 0.0
3.729658 0.620623 -0.003301 0.0
2.451275 1.655799 0.000489 0.0
0.945706 0.182060 0.000195 0.0
2.965369 0.473563 -0.001136 0.0
2.459514 1.523113 -0.000996 0.0
3.375908 0.647251 0.005594 0.0
0.865204 1.497052 -0.005208 0.0
2.348955 0.769063 -0.000333 0.0
2.196424 1.210703 -0.003685 0.0
3.202457 0.976087 -0.004075 0.0
4.053292 0.981863 0.003108 0.0
0.863768 1.087762 0.003485 0.0
1.702023 0.561870 -0.002090 0.0
3.215377 1.169079 -0.000472 0.0
1.187913 0.913128 0.001751 0.0
0.808621 1.330300 0.001750 0.0
3.029918 1.280118 -0.003029 0.0
2.574060 0.964716 -0.000929 0.0
1.205285 0.687889 0.002565 0.0
3.872353 1.787301 0.000903 0.0
1.903477 1.823656 -0.003623 0.0
0.154147 0.331402 0.000076 0.0
2.094708 1.335804 -0.001504 0.0
1.194589 1.844374 -0.001668 0.0
3.806830 0.832861 -0.002849 0.0
3.838541 0.563706 0.003140 0.0
0.353634 0.404587 -0.000002 0.0
3.400383 0.746568 0.002957 0.0
1.774565 0.233701 0.000598 0.0
3.109730 0.684753 -0.002381 0.0
0.750959 0.120194 0.003417 0.0
0.083883 1.287532 -0.001758 0.0
3.877324 1.881485 -0.001198 0.0
2.592499 1.327845 -0.003216 0.0
2.879818 0.840501 -0.003874 0.0
0.427019 1.990134 0.002205 0.0
1.770531 0.252476 0.001464 0.0
2.259710 0.731318 -0.000724 0.0
2.614246 1.023408 0.001143 0.0
2.389272 0.339855 0.000605 0.0
3.268597 1.985293 -0.002831 0.0
0.288963 0.977969 0.002316 0.0
2.336833 1.010260 -0.001581 0.0
