1.63083188 0.19260125 -0.00057189 0.00000000
2.77102541 1.93917590 0.00284976 0.00000000
0.99218209 1.89486765 0.00214333 0.00000000
4.05223510 1.99731324 0.00073703 0.00000000
1.05364686 1.58275207 0.00166985 0.00000000
3.32691961 1.61965849 0.00695189 0.00000000
3.42539479 0.93455477 -0.00279174 0.00000000
2.99760811 0.52723361 0.00422127 0.00000000
0.54666985 0.03286457 0.00425422 0.00000000
4.19112724 0.10350162 0.00214646 0.00000000
0.18629301 0.20814066 0.00200313 0.00000000
1.99637797 1.51557544 -0.00140648 0.00000000
0.41675345 1.78889543 0.00183456 0.00000000
3.37998197 0.45485724 0.00008676 0.00000000
1.27448657 0.58585580 0.00136118 0.00000000
2.53938509 0.16185441 0.00055602 0.00000000
2.43886070 0.33630499 0.00034070 0.00000000
2.04095266 1.61666849 0.00382703 0.00000000
0.93076863 1.19872173 0.00422308 0.00000000
2.07697340 2.06423429 -0.00222306 0.00000000
0.36384052 0.20525957 0.00095945 0.00000000
2.96163544 2.14600995 -0.00049203 0.00000000
3.46547391 2.01587951 0.00229202 0.00000000
2.75745417 1.53001579 0.00255677 0.00000000
3.32579142 0.07484277 -0.00132438 0.00000000
0.06515602 1.24296223 -0.00023390 0.00000000
0.17244115 0.02856713 -0.00134962 0.00000000
2.47489356 1.76687565 0.00092984 0.00000000
3.05029076 0.85350559 -0.00095752 0.00000000
3.84417364 1.73198025 0.00506753 0.00000000
4.17734645 0.59840772 0.00308270 0.00000000
0.76276969 1.38387850 0.00359216 0.00000000
2.40103543 0.88071609 -0.00465143 0.00000000
2.67773278 2.14648884 -0.00251696 0.00000000
0.50560249 1.34273736 -0.00549150 0.00000000
1.96255931 0.61112258 0.00179249 0.00000000
3.61946072 1.35514576 -0.00172148 0.00000000
1.52193113 1.01812521 0.00434496 0.00000000
0.27329182 1.50327483 -0.00318884 0.00000000
2.59170600 1.57173185 -0.00233204 0.00000000
2.90410500 1.70664509 -0.00002452 0.00000000
4.14426998 0.61696345 0.00405207 0.00000000
2.64075749 0.94128457 -0.00205229 0.00000000
3.44356160 0.35498125 0.00212062 0.00000000
1.21294064 0.61546612 0.00008029 0.00000000
2.09457104 1.83649932 0.00373802 0.00000000
1.04599840 2.07540761 -0.00237323 0.00000000
2.11985181 1.79598357 0.00475626 0.00000000
3.80883391 0.32554532 0.00501805 0.00000000
3.25567405 1.31828176 0.00000874 0.00000000
0.19139213 1.85228020 0.00075608 0.00000000
3.75441580 1.31072393 -0.00337829 0.00000000
2.28674225 0.63551096 -0.00205357 0.00000000
0.67400386 0.82712877 0.00210744 0.00000000
4.29466062 0.18934864 0.00193516 0.00000000
2.08669707 1.35339707 0.00013070 0.00000000
4.01718929 1.44460568 -0.00232054 0.00000000
4.00283579 2.10951769 -0.00128355 0.00000000
2.88877313 1.26695598 0.00112983 0.00000000
3.28568309 1.91151126 -0.00159187 0.00000000
0.08588368 0.37107425 -0.00082414 0.00000000
0.62608433 0.89384661 -0.00105518 0.00000000
0.12094545 2.10691633 -0.00602140 0.00000000
0.83325031 1.11786082 -0.00181955 0.00000000
3.12615681 1.10383337 -0.00340654 0.00000000
1.98439095 1.87384734 0.00185780 0.00000000
0.72107681 1.43557655 0.00148616 0.00000000
4.04869527 1.52479753 -0.00009023 0.00000000
4.36693676 0.87693023 0.00171464 0.00000000
2.05463502 2.12958546 0.00076716 0.00000000
0.48254316 1.03960748 0.00484562 0.00000000
1.27600162 1.46714484 0.00127699 0.00000000
2.67250070 0.54039767 0.00075613 0.00000000
3.99659107 0.20739549 0.00076333 0.00000000
0.77850890 1.78794902 -0.00144759 0.00000000
0.32061647 0.15758017 -0.00252605 0.00000000
1.15102672 1.29310908 0.00147859 0.00000000
3.63081100 0.01611626 -0.00270818 0.00000000
3.40380423 0.04230789 0.00178663 0.00000000
0.31651328 1.22465322 -0.00072909 0.00000000
3.40754989 0.30590283 0.00051204 0.00000000
1.92984375 0.13468139 0.00067758 0.00000000
2.96173860 0.10786252 -0.00262845 0.00000000
2.28406726 0.22987031 -0.00034213 0.00000000
2.80362513 0.81930521 -0.00060308 0.00000000
3.61590140 0.40357860 -0.00501051 0.00000000
3.98575517 1.47251747 0.00481647 0.00000000
1.17716307 0.86079532 -0.00089068 0.00000000
3.41160150 1.83979174 -0.00075653 0.00000000
1.52411171 1.11826133 -0.00113045 0.00000000
3.00934993 1.79661368 0.00072624 0.00000000
0.08431276 1.81614701 0.00322189 0.00000000
0.88589017 1.30005062 -0.00003834 0.00000000
0.83809968 1.07435807 0.00093581 0.00000000
1.77597402 0.30786833 -0.00436052 0.00000000
3.07959730 0.23226702 -0.00110938 0.00000000
2.68599652 0.33899724 0.00624561 0.00000000
0.01355827 0.45835005 -0.00020749 0.00000000
1.56489317 0.32251013 -0.00213023 0.00000000
0.34689460 1.44055194 0.00208737 0.00000000
0.61192489 1.51422081 -0.00332291 0.00000000
2.43901955 0.50875519 0.00443074 0.00000000
2.57419521 0.91601497 -0.00008618 0.00000000
2.06781783 1.94194731 0.00108801 0.00000000
3.90029206 0.71435481 -0.00231919 0.00000000
2.35987918 1.00272695 -0.00245988 0.00000000
0.32123170 2.08185968 -0.00242632 0.00000000
3.42903964 0.25171729 -0.00121997 0.00000000
1.17462195 0.70413371 -0.00270126 0.00000000
3.58641466 0.23104067 -0.00109384 0.00000000
0.70176911 0.59819532 0.00293452 0.00000000
0.59547327 0.78971430 -0.00033810 0.00000000
0.75710086 1.76245382 -0.00015921 0.00000000
1.08763029 0.29675496 0.00218214 0.00000000
2.04214370 1.32895940 -0.00249821 0.00000000
3.19783585 1.86545853 0.00087561 0.00000000
4.03641551 0.67306837 -0.00371957 0.00000000
0.77659788 0.46480172 -0.00092039 0.00000000
1.93056921 1.67899920 -0.00044276 0.00000000
3.95890982 0.19548297 0.00147694 0.00000000
0.10010268 1.34623968 0.00255172 0.00000000
3.26364495 1.66795996 -0.00239321 0.00000000
2.12598319 2.09435942 0.00023989 0.00000000
0.10390496 0.19815448 0.00298790 0.00000000
2.51877150 0.40083495 -0.00682175 0.00000000
0.64654272 0.93298497 0.00278637 0.00000000
0.77209987 0.49405142 -0.00408077 0.00000000
1.10999712 0.81682567 0.00195506 0.00000000
2.04449882 0.38315412 0.00071729 0.00000000
3.02365604 2.07061006 0.00194731 0.00000000
1.27622498 0.82457777 0.00302764 0.00000000
2.27571157 1.25927245 -0.00078546 0.00000000
0.44040065 0.88020878 0.00283964 0.00000000
0.02725549 0.14493455 -0.00200491 0.00000000
2.72114109 1.10188560 0.00215684 0.00000000
1.42072466 1.15138190 -0.00156167 0.00000000
4.21697998 0.89712221 -0.00063552 0.00000000
2.05642883 1.17096189 -0.00486451 0.00000000
2.68893637 1.45151942 -0.00091197 0.00000000
0.22940312 2.04895323 0.00403020 0.00000000
4.13540476 1.56250295 0.00247371 0.00000000
1.36589218 2.08052732 -0.00485932 0.00000000
3.33370706 1.19856389 -0.00063380 0.00000000
1.32253601 1.42485753 -0.00078616 0.00000000
1.08804599 1.47546603 -0.00549943 0.00000000
1.07130000 0.12244077 0.00025977 0.00000000
2.03755603 0.72603333 -0.00032444 0.00000000
4.33479419 0.07076669 0.00135648 0.00000000
0.23322688 1.27967609 0.00405498 0.00000000
0.78939552 1.66671690 -0.00152913 0.00000000
1.14408105 1.41574235 -0.00064600 0.00000000
3.87982135 0.02787638 -0.00049463 0.00000000
4.04343016 1.42691061 0.00025612 0.00000000
3.66146508 1.64907476 0.00049255 0.00000000
0.22816675 1.43366319 0.00457221 0.00000000
4.11500331 0.70864505 -0.00074246 0.00000000
2.44665535 0.90399216 -0.00194892 0.00000000
0.65820495 1.36126600 0.00301028 0.00000000
0.42023380 1.44432617 -0.00249048 0.00000000
0.92704307 1.70054297 -0.00315746 0.00000000
0.56726949 0.21025899 0.00135978 0.00000000
0.07768834 1.82973041 -0.00723434 0.00000000
2.99533143 1.97514290 -0.00031033 0.00000000
0.43371029 1.39491898 -0.00478290 0.00000000
2.19313907 0.98462913 -0.00058066 0.00000000
3.28860349 1.66912646 0.00372243 0.00000000
2.56255638 0.71870099 0.00127647 0.00000000
2.77849081 0.41440849 0.00024325 0.00000000
3.44428662 0.18440322 0.00052799 0.00000000
2.13813027 1.33955440 0.00489746 0.00000000
3.67012559 1.23872252 0.00125091 0.00000000
4.00615889 0.42887994 0.00408901 0.00000000
3.47833379 1.07167905 0.00070376 0.00000000
3.53247942 0.44220744 -0.00125378 0.00000000
0.08037108 1.88123164 -0.00224126 0.00000000
2.66231409 0.76862970 0.00217410 0.00000000
4.37165668 1.12551451 -0.00695191 0.00000000
4.05648743 1.30894045 -0.00278666 0.00000000
3.93661299 1.55077842 0.00100096 0.00000000
3.09596453 0.90995568 -0.00259330 0.00000000
2.60069586 0.98146557 0.00081383 0.00000000
0.05062633 0.62547138 -0.00092176 0.00000000
3.13691034 1.63649256 -0.00059083 0.00000000
1.59673716 1.21550556 0.00025655 0.00000000
2.25878295 0.45139430 -0.00518120 0.00000000
3.11803992 1.05478718 0.00130382 0.00000000
1.97873785 1.73281003 -0.00074261 0.00000000
1.61427900 1.41069870 0.00138519 0.00000000
2.17603805 1.26053561 -0.00195009 0.00000000
1.79761918 1.44217024 0.00226646 0.00000000
2.62797507 1.94117055 -0.00154880 0.00000000
4.14230710 0.61988612 0.00186226 0.00000000
3.95348477 0.47844254 -0.00132504 0.00000000
3.94688054 1.43364277 -0.00024400 0.00000000
4.05538461 1.98236722 0.00147402 0.00000000
2.52132676 0.26588959 -0.00231072 0.00000000
4.17630750 0.09498685 -0.00128325 0.00000000
0.30441825 0.68479312 0.00113631 0.00000000
2.46001927 0.43105196 0.00122377 0.00000000
3.00461445 2.07447141 -0.00157306 0.00000000
1.70469496 1.69677685 0.00082707 0.00000000
1.98424754 0.61283057 0.00128940 0.00000000
4.22072394 0.10676157 0.00222830 0.00000000
2.33563078 0.63286006 0.00397219 0.00000000
3.82045804 0.48073837 0.00202214 0.00000000
2.27710987 0.23935398 -0.00186842 0.00000000
0.09732542 1.34880901 -0.00338020 0.00000000
3.78924715 1.11420277 -0.00310368 0.00000000
3.15125806 1.34535188 0.00049290 0.00000000
2.08959267 1.09793737 -0.00186576 0.00000000
0.28216259 0.25569488 -0.00003428 0.00000000
0.48665279 1.35253238 -0.00316392 0.00000000
1.72985211 1.46559337 0.00280578 0.00000000
0.62094265 1.32920342 -0.00238276 0.00000000
2.19575032 1.45018166 0.00003278 0.00000000
2.95501848 0.30260189 -0.00183137 0.00000000
0.13600225 0.60634549 0.00048787 0.00000000
0.01531658 1.70602908 -0.00178442 0.00000000
1.09871876 0.33376611 -0.00252001 0.00000000
0.25834669 1.50707238 -0.00180946 0.00000000
3.59803798 2.00232066 -0.00714287 0.00000000
3.92097533 1.95696441 0.00103204 0.00000000
1.10238907 0.39944412 -0.00108829 0.00000000
3.09682340 1.86632312 -0.00162264 0.00000000
1.73919639 1.75773444 -0.00079777 0.00000000
3.29791680 1.90434630 0.00326080 0.00000000
0.57634511 1.58881250 -0.00105388 0.00000000
4.39024867 1.34899529 -0.00278551 0.00000000
0.45792910 0.82958089 -0.00106597 0.00000000
1.71925982 1.73775078 -0.00230171 0.00000000
2.58401730 0.13759261 0.00219900 0.00000000
3.43373346 0.09412564 0.00155413 0.00000000
2.02855905 1.43400855 0.00208428 0.00000000
0.94114178 2.03436877 0.00314310 0.00000000
2.79236533 0.47988627 0.00306509 0.00000000
2.80426392 0.49393576 -0.00472299 0.00000000
2.53230842 0.40786318 -0.00382208 0.00000000
3.39829549 1.78220144 -0.00118393 0.00000000
2.89880118 2.01543972 -0.00502856 0.00000000
1.67564550 1.61802360 -0.00076659 0.00000000
2.17883941 0.64439225 0.00244838 0.00000000
1.46427486 1.39497820 -0.00353156 0.00000000
3.59265486 0.15523263 0.00161414 0.00000000
3.42485538 1.68324540 0.00022253 0.00000000
1.38409993 0.00184790 0.00175820 1.00000000
0.58360321 0.00430163 -0.00316291 1.00000000
2.18403102 0.00247644 0.00240931 1.00000000
3.44476561 0.00007252 0.00269158 1.00000000
2.86266802 0.00302471 0.00011031 1.00000000
0.00779922 -0.00368303 -0.00279902 1.00000000
1.97567528 0.00376764 0.00077284 1.00000000
3.23602410 -0.00322118 0.00303189 1.00000000
4.10384906 -0.00236184 -0.00350829 1.00000000
0.92473476 0.00015267 -0.00146377 1.00000000
0.02097906 -0.00136454 -0.00110188 1.00000000
1.73115946 0.00496089 -0.00045366 1.00000000
3.86833443 0.00009183 0.00224089 1.00000000
1.87814658 -0.00260203 0.00098285 1.00000000
0.63383154 0.00052505 0.00137382 1.00000000
1.40422425 0.00167105 -0.00190166 1.00000000
4.11396344 0.00064553 -0.00400739 1.00000000
2.05200552 -0.00173991 -0.00278325 1.00000000
0.82548095 -0.00111304 -0.00625275 1.00000000
3.97651922 -0.00268492 -0.00324186 1.00000000
1.19787709 0.00021864 -0.00123824 1.00000000
4.29211201 -0.00542200 -0.00118569 1.00000000
4.03398896 -0.00106670 -0.00050820 1.00000000
0.97601913 -0.00121274 0.00164792 1.00000000
3.95744455 -0.00476190 0.00114185 1.00000000
3.02694176 -0.00070088 0.00214702 1.00000000
0.34646387 -0.00041932 0.00073391 1.00000000
1.36575567 0.00223368 -0.00008491 1.00000000
2.30268518 -0.00089624 -0.00085732 1.00000000
2.00395342 -0.00141957 0.00028281 1.00000000
1.26232737 0.00177121 0.00136849 1.00000000
1.26004242 -0.00280235 0.00173277 1.00000000
4.24530005 -0.00467417 -0.00041141 1.00000000
4.30580642 0.00106009 -0.00280588 1.00000000
1.06710797 -0.00069976 -0.00117921 1.00000000
3.54977940 -0.00191526 -0.00268386 1.00000000
4.21645380 -0.00099200 0.00267271 1.00000000
4.21514072 0.00307172 0.00241366 1.00000000
1.13119277 -0.00003762 -0.00225932 1.00000000
2.91173800 -0.00671932 -0.00243464 1.00000000
1.02311505 -0.00242505 -0.00410357 1.00000000
2.89145688 -0.00078698 -0.00305946 1.00000000
3.12345240 0.00207343 -0.00045442 1.00000000
0.07847930 0.00102312 0.00301233 1.00000000
3.61459102 -0.00247312 -0.00251854 1.00000000
0.82286207 0.00143270 -0.00202015 1.00000000
3.78838468 0.00070677 -0.00308400 1.00000000
2.78511713 -0.00077526 -0.00043882 1.00000000
0.50376403 -0.00054647 0.00222235 1.00000000
0.19221672 0.00226444 0.00264648 1.00000000
1.63204076 0.00555529 0.00268071 1.00000000
1.52213551 -0.00197982 -0.00300086 1.00000000
0.90993140 0.00181494 0.00165209 1.00000000
4.36310333 0.00415796 0.00192736 1.00000000
2.22904677 -0.00259565 -0.00227787 1.00000000
3.32265577 0.00123604 -0.00014730 1.00000000
2.00292825 0.00058927 0.00332077 1.00000000
2.72548744 0.00195315 0.00333419 1.00000000
2.62091017 0.00260451 0.00021858 1.00000000
4.01890674 -0.00132295 -0.00148477 1.00000000
0.96234865 0.00317491 -0.00035431 1.00000000
0.40632528 -0.00119655 0.00012797 1.00000000
2.43467682 -0.00170106 0.00251827 1.00000000
1.56786919 0.00195174 0.00125978 1.00000000
3.77594753 -0.00037402 0.00187118 1.00000000
3.64759322 -0.00208836 0.00323743 1.00000000
1.48436995 0.00203708 -0.00191544 1.00000000
1.33049592 0.00365731 -0.00282776 1.00000000
2.90839104 0.00054947 0.00185999 1.00000000
3.93315451 -0.00475861 -0.00287602 1.00000000
4.35378827 -0.00174101 -0.00042616 1.00000000
2.07319706 0.00489042 -0.00034572 1.00000000
0.34615117 -0.00031524 -0.00106004 1.00000000
2.20806486 0.00482307 0.00363200 1.00000000
0.89910811 -0.00441625 -0.00250718 1.00000000
0.23214357 0.00077919 -0.00192519 1.00000000
3.78387268 0.00134131 0.00125574 1.00000000
2.23295405 -0.00179419 0.00143013 1.00000000
2.34502001 0.00127983 -0.00100736 1.00000000
1.05325988 -0.00523316 -0.00127827 1.00000000
3.39871133 -0.00190732 0.00547656 1.00000000
4.21606370 0.00085125 0.00119786 1.00000000
1.88370630 0.00046630 0.00595795 1.00000000
2.88988933 -0.00033857 -0.00034580 1.00000000
2.74341128 0.00314089 0.00305601 1.00000000
2.53105326 0.00115550 -0.00127811 1.00000000
1.93042353 -0.00404221 0.00015606 1.00000000
0.56412425 -0.00040980 -0.00032231 1.00000000
2.79791525 0.00496889 -0.00088131 1.00000000
3.77684281 -0.00149492 0.00193058 1.00000000
2.74873064 0.00183675 -0.00131543 1.00000000
0.66635039 -0.00544189 -0.00089171 1.00000000
0.41001963 -0.00172594 -0.00156175 1.00000000
3.18579295 -0.00125021 -0.00022994 1.00000000
0.33005180 0.00211897 0.00411909 1.00000000
0.54331224 0.00139364 0.00014931 1.00000000
2.37043500 0.00099586 -0.00008094 1.00000000
2.88866093 -0.00317539 -0.00133862 1.00000000
1.47194194 0.00017886 -0.00059460 1.00000000
3.39356057 0.00174156 0.00159525 1.00000000
1.35007212 0.00217584 -0.00304083 1.00000000
4.31952925 -0.00403486 0.00470608 1.00000000
3.44853409 0.00388976 -0.00351146 1.00000000
1.85015351 0.00124290 -0.00246282 1.00000000
0.22261201 -0.00228314 -0.00274957 1.00000000
3.04533003 -0.00039511 -0.00051494 1.00000000
4.25327745 -0.00214441 -0.00263456 1.00000000
2.48496737 -0.00070284 -0.00374076 1.00000000
2.74281602 0.00177810 0.00016106 1.00000000
0.26789562 0.00010618 -0.00181266 1.00000000
2.68352929 -0.00206525 0.00442301 1.00000000
1.70261081 0.00000360 -0.00110022 1.00000000
3.34480970 0.00076858 -0.00251118 1.00000000
2.71800759 0.00368723 0.00481603 1.00000000
3.59799606 0.00357928 0.00096328 1.00000000
3.92952368 -0.00085251 -0.00435809 1.00000000
2.90957334 0.00099710 0.00017121 1.00000000
4.38306607 0.00050530 -0.00264593 1.00000000
0.45315390 0.00176464 0.00274684 1.00000000
3.89706676 -0.00026035 -0.00224849 1.00000000
2.40993891 0.00001602 0.00113735 1.00000000
3.27369864 0.00610467 0.00170601 1.00000000
3.06468716 0.00146513 -0.00106140 1.00000000
3.58000015 0.00033646 -0.00269798 1.00000000
1.35644518 -0.00527317 -0.00106655 1.00000000
1.36426918 0.00161277 0.00134193 1.00000000
0.61436323 0.00104813 -0.00031722 1.00000000
2.18949543 0.00479466 0.00306534 1.00000000
1.43418968 -0.00136553 -0.00485654 1.00000000
2.56793338 0.00227710 -0.00123009 1.00000000
0.81435042 0.00103599 0.00079207 1.00000000
0.45151364 -0.00090463 0.00127033 1.00000000
1.18238598 -0.00190188 -0.00252463 1.00000000
0.33818551 -0.00026192 -0.00124578 1.00000000
1.33473704 -0.00338201 0.00350802 1.00000000
4.24648806 0.00342120 0.00203872 1.00000000
0.90500685 0.00008091 -0.00269706 1.00000000
0.84574041 0.00232510 0.00439155 1.00000000
1.32323476 -0.00537870 -0.00276381 1.00000000
2.55364410 -0.00346329 0.00139200 1.00000000
2.04090478 0.00326761 -0.00027665 1.00000000
0.37758981 -0.00374797 0.00416752 1.00000000
1.72749020 0.00366412 0.00063735 1.00000000
0.60064999 0.00311016 -0.00138802 1.00000000
4.20634315 -0.00153811 0.00225373 1.00000000
2.01853440 0.00164731 -0.00644270 1.00000000
0.05476353 -0.00201095 -0.00060841 1.00000000
3.85016149 -0.00385425 -0.00060475 1.00000000
1.55147170 -0.00012533 -0.00102635 1.00000000
1.13507820 -0.00003767 -0.00043224 1.00000000
3.41948556 0.00011368 0.00359246 1.00000000
0.07422465 0.00193356 -0.00271289 1.00000000
2.17664997 -0.00079802 0.00213607 1.00000000
0.75160404 0.00110274 -0.00367669 1.00000000
4.08131292 0.00124338 0.00130849 1.00000000
3.14050416 -0.00058715 -0.00195799 1.00000000
2.97904719 0.00400449 -0.00368839 1.00000000
0.12917580 -0.00073476 0.00212429 1.00000000
1.59816518 0.00419574 0.00165187 1.00000000
0.12323739 -0.00507066 0.00304341 1.00000000
0.67386767 -0.00498287 -0.00005437 1.00000000
0.42465500 -0.00038499 -0.00065549 1.00000000
4.32017437 0.00111048 0.00132432 1.00000000
3.96738644 -0.00045088 0.00093774 1.00000000
2.38939631 0.00207340 0.00415287 1.00000000
0.41487110 0.00300740 0.00042072 1.00000000
0.37791796 0.00328402 -0.00266192 1.00000000
0.43979757 -0.00115199 -0.00107484 1.00000000
2.62179555 -0.00229674 0.00503703 1.00000000
1.05260264 -0.00013833 -0.00400509 1.00000000
0.17286881 -0.00259123 0.00048341 1.00000000
0.06695180 -0.00075834 -0.00072345 1.00000000
3.44980755 0.00183127 0.00089700 1.00000000
1.64084332 0.00068962 0.00424112 1.00000000
0.55834699 -0.00218134 -0.00060977 1.00000000
0.25669192 -0.00015212 0.00155712 1.00000000
2.32568013 0.00034432 0.00333187 1.00000000
2.10534092 0.00117181 0.00172797 1.00000000
0.88063878 0.00109185 -0.00316529 1.00000000
1.38892419 0.00130306 -0.00447369 1.00000000
0.44956885 0.00243256 -0.00076036 1.00000000
3.36232192 -0.00359064 0.00169305 1.00000000
3.00965729 0.00305232 -0.00178798 1.00000000
3.64255055 -0.00032878 -0.00135723 1.00000000
4.38141384 0.00252300 -0.00058330 1.00000000
1.60728096 0.00273478 0.00359687 1.00000000
3.32844682 0.00327542 -0.00361237 1.00000000
0.92054976 -0.00074219 -0.00127097 1.00000000
2.62329754 -0.00332541 -0.00214537 1.00000000
3.74313052 0.00271571 -0.00184287 1.00000000
2.70543828 -0.00780592 -0.00574452 1.00000000
4.23950618 -0.00091310 0.00150671 1.00000000
3.97259533 0.00218435 0.00110347 1.00000000
2.04855752 0.00323236 -0.00039735 1.00000000
2.71521814 -0.00280556 0.00118747 1.00000000
2.98539284 0.00230066 0.00139890 1.00000000
4.21580279 -0.00091213 0.00517942 1.00000000
2.23836198 0.00423110 -0.00092780 1.00000000
2.39040118 0.00067071 -0.00014333 1.00000000
3.08308658 -0.00402255 0.00027310 1.00000000
0.25840769 -0.00050779 -0.00133576 1.00000000
0.91754575 -0.00133963 -0.00675719 1.00000000
2.70351686 0.00221766 0.00001481 1.00000000
3.62673014 0.00302234 0.00297053 1.00000000
1.37117423 -0.00031258 -0.00140314 1.00000000
2.67528663 -0.00256788 -0.00143956 1.00000000
0.55784045 0.00033446 -0.00052080 1.00000000
2.16771244 0.00200695 0.00494570 1.00000000
1.46867054 0.00125894 -0.00126327 1.00000000
2.62171294 0.00291350 -0.00254926 1.00000000
0.59958036 0.00102301 -0.00207229 1.00000000
0.98207661 -0.00058132 -0.00130959 1.00000000
4.02012857 -0.00109759 -0.00227794 1.00000000
0.43887608 -0.00074988 -0.00491041 1.00000000
3.86847528 0.00137636 -0.00255221 1.00000000
2.46624233 0.00024666 -0.00009610 1.00000000
3.82037997 0.00018795 0.00498034 1.00000000
1.88245895 -0.00156362 -0.00060856 1.00000000
0.30930853 0.00268229 0.00094929 1.00000000
1.10574804 0.00338665 0.00031008 1.00000000
1.32536471 0.00010883 0.00242536 1.00000000
0.89387822 0.00064548 0.00028755 1.00000000
1.98764604 -0.00003328 0.00201026 1.00000000
3.26883033 0.00228561 -0.00012255 1.00000000
0.91007979 -0.00249719 0.00315101 1.00000000
2.49840080 0.00079006 -0.00227776 1.00000000
4.07702192 0.00259834 0.00393362 1.00000000
0.97654007 -0.00096933 -0.00573524 1.00000000
3.58694559 -0.00120747 -0.00036802 1.00000000
1.44361200 0.00277616 -0.00134558 1.00000000
1.75775543 0.00402439 -0.00117267 1.00000000
-0.00115353 -0.00006781 0.00235831 1.00000000
3.82031900 -0.00253209 0.00014201 1.00000000
3.04254903 0.00270010 0.00225196 1.00000000
2.45934847 -0.00019517 -0.00117921 1.00000000
3.58452038 -0.00160850 -0.00284281 1.00000000
1.67844309 -0.00109912 -0.00207262 1.00000000
3.84071813 0.00358610 0.00112659 1.00000000
2.47413884 0.00018699 0.00871495 1.00000000
1.68819940 -0.00376182 0.00052594 1.00000000
2.64411686 -0.00355583 0.00250760 1.00000000
2.62470548 -0.00040715 -0.00015333 1.00000000
3.27719474 0.00056215 -0.00052657 1.00000000
1.78990490 -0.00389652 -0.00395874 1.00000000
3.68763621 -0.00000997 0.00444815 1.00000000
2.09814790 0.00363129 0.00131085 1.00000000
2.33866538 0.00021919 0.00189017 1.00000000
2.94559995 0.00116717 0.00127920 1.00000000
0.03179909 0.00095339 -0.00137681 1.00000000
2.68944386 -0.00768219 -0.00272070 1.00000000
0.01798390 -0.00145312 -0.00278326 1.00000000
0.45616904 0.00529176 0.00278357 1.00000000
3.13879360 0.00262613 0.00104229 1.00000000
3.90317295 0.00298541 0.00032312 1.00000000
0.17829500 -0.00060742 -0.00014815 1.00000000
3.92561614 0.00043946 -0.00036744 1.00000000
3.67494335 0.00433054 -0.00091534 1.00000000
3.13524704 0.00118941 0.00256446 1.00000000
1.53039094 -0.00026256 -0.00020033 1.00000000
1.99760705 0.00328463 -0.00509148 1.00000000
4.20461960 -0.00476708 0.00207945 1.00000000
2.82246723 -0.00163294 0.00015998 1.00000000
1.76883687 -0.00498543 -0.00021331 1.00000000
3.64858067 -0.00364996 -0.00027728 1.00000000
1.22090299 -0.00033791 -0.00627333 1.00000000
0.95294718 0.00163257 0.00190925 1.00000000
3.88330697 0.00114763 0.00061035 1.00000000
0.89935700 0.00380035 -0.00357440 1.00000000
0.55309338 0.00133308 -0.00181848 1.00000000
2.80659826 0.00367250 0.00186840 1.00000000
2.72800290 -0.00393669 -0.00163782 1.00000000
1.32212364 -0.00286582 -0.00053437 1.00000000
2.52269180 0.00194213 -0.00143438 1.00000000
4.16518783 -0.00059090 0.00378571 1.00000000
1.34125122 0.00067710 -0.00299865 1.00000000
1.87566167 0.00386861 0.00389873 1.00000000
1.03733495 -0.00172714 -0.00189799 1.00000000
2.49291169 0.00000731 0.00236864 1.00000000
0.85782977 -0.00095113 -0.00314390 1.00000000
2.45717423 -0.00048837 -0.00327012 1.00000000
2.90148673 0.00211234 0.00169712 1.00000000
2.51811831 -0.00148218 -0.00279102 1.00000000
0.13447826 0.00438700 0.00492996 1.00000000
4.32772926 -0.00175625 -0.00183262 1.00000000
2.08089896 0.00266275 0.00031484 1.00000000
2.21485609 0.00220579 -0.00094595 1.00000000
2.89946254 0.00655147 -0.00161806 1.00000000
4.33419614 0.00092237 -0.00346700 1.00000000
1.49487657 -0.00097994 -0.00101830 1.00000000
1.98346017 0.00225625 -0.00129544 1.00000000
4.03373156 0.00175433 -0.00009074 1.00000000
2.77263663 0.00390589 -0.00353587 1.00000000
3.35706552 0.00269945 -0.00121332 1.00000000
3.17936761 -0.00097082 -0.00041846 1.00000000
0.69146814 0.00206609 -0.00008189 1.00000000
4.11533708 -0.00074794 0.00267444 1.00000000
4.15898695 0.00042803 0.00117619 1.00000000
1.07625755 0.00189779 -0.00083717 1.00000000
3.38923909 0.00057070 -0.00275040 1.00000000
1.69697733 0.00246482 0.00104932 1.00000000
2.99421499 -0.00034692 -0.00458908 1.00000000
3.93320534 -0.00055157 -0.00367408 1.00000000
3.13592274 0.00765940 -0.00039523 1.00000000
3.89846931 0.00075992 -0.00489261 1.00000000
3.99987495 -0.00221698 -0.00332480 1.00000000
3.41934646 0.00228240 0.00140719 1.00000000
3.02088559 -0.00099939 0.00162396 1.00000000
3.31237241 0.00008203 -0.00166465 1.00000000
4.38437034 0.00119680 -0.00291659 1.00000000
3.85397600 -0.00424489 0.00262520 1.00000000
2.52815440 -0.00577505 -0.00250619 1.00000000
3.26054661 0.00272903 0.00258068 1.00000000
1.12297434 -0.00103702 0.00199395 1.00000000
0.11974979 0.00381275 -0.00376943 1.00000000
1.34489654 0.00031122 -0.00305737 1.00000000
3.72277248 0.00082174 0.00414640 1.00000000
3.99391880 -0.00171094 0.00096638 1.00000000
2.45502131 -0.00119629 -0.00047048 1.00000000
1.15534621 0.00023167 -0.00174209 1.00000000
2.72267988 -0.00207675 0.00110338 1.00000000
0.16408368 0.00039532 0.00289749 1.00000000
2.96811404 -0.00355147 -0.00201389 1.00000000
0.35770652 0.00162549 0.00013732 1.00000000
1.06707707 -0.00249970 -0.00172224 1.00000000
1.87886819 -0.00044873 -0.00016294 1.00000000
2.69867084 -0.00630846 -0.00232391 1.00000000
3.00085397 0.00173973 0.00234350 1.00000000
0.61363070 -0.00315714 0.00338541 1.00000000
1.33884622 0.00156890 0.00161832 1.00000000
1.49486455 0.00078249 -0.00380274 1.00000000
1.99703521 -0.00195355 0.00381208 1.00000000
0.63354474 -0.00224162 -0.00005834 1.00000000
0.61792998 -0.00172672 -0.00131355 1.00000000
0.75116005 -0.00076856 0.00165736 1.00000000
4.24023813 0.00210149 0.00073385 1.00000000
3.44312578 0.00266781 0.00391983 1.00000000
0.06254696 0.00261615 0.00169149 1.00000000
1.13324443 -0.00021361 -0.00181717 1.00000000
4.25049799 -0.00109041 0.00236623 1.00000000
0.25767915 0.00179068 -0.00331728 1.00000000
0.89164021 0.00259275 0.00304059 1.00000000
2.24605393 0.00019778 -0.00040943 1.00000000
0.59372781 -0.00119549 0.00025332 1.00000000
1.59511721 0.00202286 -0.00584079 1.00000000
2.67994020 0.00248713 0.00016516 1.00000000
2.89550733 -0.00042471 0.00173510 1.00000000
1.44404387 -0.00153735 -0.00095543 1.00000000
1.06452767 -0.00224233 0.00203478 1.00000000
3.99686887 0.00380817 -0.00348895 1.00000000
1.39685874 -0.00128889 0.00721788 1.00000000
2.50700441 0.00337236 -0.00148522 1.00000000
3.25153833 -0.00127107 0.00087859 1.00000000
2.79365275 0.00070002 -0.00185037 1.00000000
4.35556347 0.00763897 0.00304359 1.00000000
2.84690077 0.00173543 0.00048981 1.00000000
3.69546298 0.00062120 0.00004343 1.00000000
4.14560577 0.00241571 0.00128404 1.00000000
2.52021318 -0.00163423 -0.00017774 1.00000000
1.44541824 0.00357697 0.00016139 1.00000000
1.66656849 -0.00193533 -0.00033292 1.00000000
3.11488630 0.00119892 0.00165886 1.00000000
0.87180219 0.00117376 -0.00333171 1.00000000
3.10915056 0.00193855 0.00319697 1.00000000
3.26652962 -0.00046115 -0.00314547 1.00000000
1.02101553 0.00282795 0.00166574 1.00000000
4.37903935 -0.00327271 0.00046406 1.00000000
0.33547914 -0.00218951 0.00169677 1.00000000
3.95931295 -0.00319271 -0.00064379 1.00000000
2.68452756 0.00161126 0.00111344 1.00000000
2.99216411 -0.00149898 0.00071681 1.00000000
4.38011133 0.00312026 -0.00036625 1.00000000
3.01983092 -0.00033390 -0.00067787 1.00000000
0.87761876 0.00116438 -0.00074831 1.00000000
3.98703181 -0.00199883 -0.00314413 1.00000000
3.93408393 0.00242439 0.00038125 1.00000000
2.19381455 0.00354557 0.00167263 1.00000000
2.33374088 0.00015917 0.00007754 1.00000000
4.09464379 0.00314006 0.00130584 1.00000000
3.15880825 0.00174351 0.00128525 1.00000000
2.20706031 -0.00200526 0.00095612 1.00000000
2.61709929 0.00069362 -0.00282409 1.00000000
1.79881056 0.00278574 -0.00176790 1.00000000
1.63581708 -0.00153657 0.00192160 1.00000000
2.19848320 0.00199528 -0.00029539 1.00000000
0.15672450 0.00328491 0.00208274 1.00000000
3.79699692 -0.00099346 0.00304903 1.00000000
3.50265879 0.00083324 0.00188548 1.00000000
2.09484438 0.00248081 0.00449843 1.00000000
0.58730510 -0.00020588 0.00303375 1.00000000
2.33607266 -0.00207091 -0.00148622 1.00000000
2.08910162 0.00143039 -0.00138300 1.00000000
1.14508409 -0.00093077 0.00011601 1.00000000
2.61945725 -0.00545950 0.00143128 1.00000000
3.00769628 -0.00102164 -0.00221376 1.00000000
2.43633863 -0.00156419 0.00056057 1.00000000
3.43383868 -0.00158479 -0.00036050 1.00000000
3.44193939 0.00010155 -0.00344164 1.00000000
2.47428941 -0.00191798 -0.00530363 1.00000000
4.15293713 0.00315073 -0.00298643 1.00000000
0.38360575 0.00048576 -0.00024145 1.00000000
2.28391795 -0.00462005 -0.00192454 1.00000000
3.37250365 -0.00268470 0.00162293 1.00000000
3.54522673 0.00090387 -0.00109014 1.00000000
3.55280047 0.00197463 0.00112974 1.00000000
3.97382264 -0.00114456 -0.00227424 1.00000000
1.78759521 0.00170142 0.00174599 1.00000000
1.23406423 -0.00074143 -0.00104111 1.00000000
0.14834643 -0.00038491 -0.00012672 1.00000000
3.03150006 -0.00065658 0.00218120 1.00000000
2.00694145 -0.00093724 -0.00159721 1.00000000
0.28298373 -0.00550972 0.00196888 1.00000000
1.36799736 0.00298853 -0.00135728 1.00000000
3.12276640 -0.00070725 0.00158007 1.00000000
2.87860033 -0.00308825 -0.00086129 1.00000000
0.43144179 0.00078775 0.00071293 1.00000000
1.58214305 0.00140443 0.00112547 1.00000000
1.14518003 0.00243701 0.00130854 1.00000000
3.78777081 -0.00304213 -0.00136762 1.00000000
2.25159814 -0.00026085 0.00271087 1.00000000
1.18076429 -0.00270464 0.00104267 1.00000000
3.17153359 0.00059253 0.00248448 1.00000000
4.07687178 0.00288083 0.00030515 1.00000000
3.24466190 -0.00065368 -0.00209346 1.00000000
3.67765815 0.00082545 -0.00491348 1.00000000
4.15592796 0.00342277 -0.00090372 1.00000000
1.00474859 -0.00224707 0.00256637 1.00000000
3.24999237 -0.00174305 -0.00053240 1.00000000
0.44901054 0.00376341 0.00271152 1.00000000
3.66079463 0.00104948 -0.00326777 1.00000000
1.71112010 0.00056409 0.00378944 1.00000000
2.02510329 0.00154891 0.00215043 1.00000000
2.51375678 -0.00026672 -0.00168203 1.00000000
3.36372575 0.00074225 -0.00459676 1.00000000
0.12609353 0.00034306 0.00228621 1.00000000
0.66202764 -0.00248535 0.00308657 1.00000000
1.99947953 -0.00156536 -0.00018752 1.00000000
1.27414675 0.00412814 -0.00083953 1.00000000
2.47328105 -0.00234735 0.00173174 1.00000000
3.98854124 -0.00449353 0.00227411 1.00000000
0.06364554 -0.00050205 -0.00184114 1.00000000
0.11755866 -0.00070852 0.00014551 1.00000000
2.58873850 -0.00141090 -0.00208150 1.00000000
1.02058935 0.00355326 -0.00314824 1.00000000
1.17697915 -0.00178313 0.00133480 1.00000000
2.66953934 0.00116597 0.00507685 1.00000000
0.25627637 -0.00474628 0.00162229 1.00000000
1.50060640 0.00023685 -0.00671870 1.00000000
2.78140486 -0.00210366 -0.00159372 1.00000000
0.34696848 -0.00043098 -0.00548011 1.00000000
1.45100679 -0.00251163 -0.00319209 1.00000000
1.57835327 -0.00619874 0.00162553 1.00000000
2.28046669 0.00089665 -0.00050341 1.00000000
4.27755271 0.00156998 0.00100679 1.00000000
0.78888173 0.00382433 -0.00305601 1.00000000
2.94253295 0.00186152 0.00075480 1.00000000
4.08034934 -0.00297569 0.00518171 1.00000000
0.59727845 0.00202045 -0.00336492 1.00000000
0.03926528 0.00122558 -0.00024071 1.00000000
4.04339340 0.00002404 0.00120140 1.00000000
0.43318117 0.00298742 -0.00132829 1.00000000
1.81800417 0.00327634 -0.00288144 1.00000000
3.21783440 0.00274819 0.00281557 1.00000000
0.85615183 0.00142873 -0.16642325 0.00000000
3.96858517 0.00268888 -0.09722956 0.00000000
4.21430290 0.00013100 -0.10437833 0.00000000
3.59457735 -0.00078133 -0.14386179 0.00000000
2.49895109 0.00326764 -0.13058085 0.00000000
4.32942216 0.00040317 -0.07918854 0.00000000
3.86750203 0.00223171 -0.09757553 0.00000000
3.10388591 0.00171041 -0.05334840 0.00000000
4.14701203 -0.00468341 -0.05779135 0.00000000
2.36076928 -0.00439223 -0.04237865 0.00000000
2.64971804 -0.00470242 -0.16938973 0.00000000
2.61320360 -0.00234670 -0.06677780 0.00000000
3.10074398 0.00048452 -0.13448665 0.00000000
0.46838030 0.00679553 -0.03852167 0.00000000
0.98680423 -0.00015867 -0.17796023 0.00000000
3.14932891 -0.00041196 -0.07280605 0.00000000
4.21437827 -0.00303617 -0.10550340 0.00000000
3.69770997 -0.00263802 -0.15268842 0.00000000
0.81141921 0.00012060 -0.18237878 0.00000000
0.40098687 0.00117102 -0.05079792 0.00000000
3.00165870 0.00031355 -0.18364011 0.00000000
0.67783778 0.00051306 -0.04691839 0.00000000
2.33680323 -0.00596196 -0.15012064 0.00000000
1.38898729 -0.00066709 -0.00509924 0.00000000
2.71673961 0.00152940 -0.17513792 0.00000000
3.36100003 -0.00138817 -0.05875654 0.00000000
3.37355316 -0.00315414 -0.12427353 0.00000000
0.34567246 -0.00064798 -0.18433227 0.00000000
3.73056585 -0.00016102 -0.00009705 0.00000000
1.92940564 -0.00013302 -0.10680048 0.00000000
0.06272335 -0.00945894 -0.05437262 0.00000000
3.02464789 -0.00270081 -0.14459926 0.00000000
2.81432530 0.00298936 -0.02031431 0.00000000
0.50389089 0.00115051 -0.06302965 0.00000000
1.81112942 -0.00410833 -0.16115551 0.00000000
2.84382343 -0.00022815 -0.10310154 0.00000000
0.14405648 -0.00155511 -0.01834268 0.00000000
2.59849386 -0.00417304 -0.09036764 0.00000000
1.85022890 -0.00271095 -0.17274361 0.00000000
1.65165868 -0.00459424 -0.17535257 0.00000000
3.04732144 0.00253406 -0.04084775 0.00000000
1.02496826 0.00120696 -0.09182312 0.00000000
4.25988222 -0.00241709 -0.16220783 0.00000000
2.71342974 -0.00454887 -0.07669599 0.00000000
3.99405287 -0.00280832 -0.02418436 0.00000000
4.39296218 -0.00521323 -0.08227053 0.00000000
2.77502806 0.00114406 -0.14618770 0.00000000
1.97350557 0.00346323 -0.03733719 0.00000000
3.81079443 -0.00130395 -0.07952714 0.00000000
0.43110380 -0.00228104 -0.02751970 0.00000000
3.88347942 0.00101818 -0.01748272 0.00000000
0.95973363 -0.00140754 -0.02317998 0.00000000
1.14601997 -0.00076470 -0.03276576 0.00000000
0.79609602 -0.00156747 -0.02257942 0.00000000
0.50995605 -0.00254299 -0.17856156 0.00000000
2.92564233 -0.00367303 -0.15231728 0.00000000
0.99933387 -0.00398967 -0.05436672 0.00000000
3.64297265 0.00242730 -0.02574471 0.00000000
2.23837135 -0.00649993 -0.08938928 0.00000000
1.06249166 -0.00068675 -0.01081955 0.00000000
0.12754988 0.00205662 -0.08532349 0.00000000
1.17438255 -0.00278294 -0.17220096 0.00000000
1.38720707 -0.00014231 -0.04829915 0.00000000
4.24363554 0.00029842 -0.00309609 0.00000000
0.58762427 -0.00175530 -0.07648420 0.00000000
1.35016728 0.00320483 -0.03059290 0.00000000
0.63160550 -0.00373615 -0.11583870 0.00000000
3.75985822 -0.00086802 -0.16615305 0.00000000
1.57922202 -0.00245535 -0.04759255 0.00000000
1.28888069 -0.00056290 -0.04228470 0.00000000
0.45980893 -0.00448727 -0.10428502 0.00000000
0.42729966 -0.00029383 -0.03047702 0.00000000
4.15797619 0.00343362 -0.10042181 0.00000000
1.37767170 -0.00317726 -0.06080756 0.00000000
3.06962972 -0.00363369 -0.05199808 0.00000000
0.62260259 -0.00242894 -0.02578514 0.00000000
1.06592467 0.00045398 -0.18058358 0.00000000
2.51501720 -0.00255270 -0.16725395 0.00000000
1.47983535 0.00470032 -0.12025827 0.00000000
2.66589406 0.00026828 -0.16965211 0.00000000
0.08411058 -0.00535963 -0.04515368 0.00000000
1.41146844 -0.00185676 -0.15944497 0.00000000
0.05169777 -0.00114649 -0.11138367 0.00000000
1.92627614 0.00049562 -0.07557880 0.00000000
3.44057968 -0.00741840 -0.16265942 0.00000000
0.25530421 0.00131638 -0.10361039 0.00000000
1.39834601 0.00583035 -0.08697592 0.00000000
4.29108382 0.00132128 -0.18050777 0.00000000
2.43895953 0.00057761 -0.11952826 0.00000000
0.85992513 -0.00029447 -0.07894144 0.00000000
2.21394884 -0.00031607 -0.00398810 0.00000000
1.45491239 0.00206120 -0.11111179 0.00000000
3.71463683 -0.00261700 -0.05906282 0.00000000
3.57653269 -0.00232050 -0.16578871 0.00000000
0.40636239 -0.00234064 -0.13149824 0.00000000
0.86748497 -0.00606854 -0.09415378 0.00000000
0.98921952 -0.00281326 -0.00265320 0.00000000
1.30235969 -0.00161808 -0.07402411 0.00000000
0.84329678 0.00058271 -0.05627858 0.00000000
0.09459955 -0.00248488 -0.03970315 0.00000000
2.86719258 0.00223239 -0.07408766 0.00000000
4.37216215 0.00115230 -0.02629120 0.00000000
0.73337556 -0.00442723 -0.16312780 0.00000000
0.91530644 -0.00177025 -0.00054774 0.00000000
3.08725648 -0.00470753 -0.11294120 0.00000000
1.38566877 0.00020446 -0.18329283 0.00000000
2.35497709 0.00277417 -0.03472491 0.00000000
1.65419522 -0.00050015 -0.08698705 0.00000000
0.22281849 0.00095870 -0.10548109 0.00000000
4.30167678 0.00108085 -0.09920540 0.00000000
0.06759335 0.00209622 -0.02960458 0.00000000
4.07882092 -0.00341974 -0.05622605 0.00000000
0.38502123 -0.00428358 -0.17135191 0.00000000
3.02755117 0.00037983 -0.03769842 0.00000000
2.01175006 0.00271084 -0.15866432 0.00000000
0.90185780 -0.00078344 -0.05608068 0.00000000
1.24632238 0.00219977 -0.18378573 0.00000000
1.51057212 -0.00129848 -0.10156141 0.00000000
2.09191178 -0.00056048 -0.13585162 0.00000000
2.38196664 0.00008772 -0.07054965 0.00000000
1.35899738 0.00384168 -0.12219962 0.00000000
3.73581956 -0.00139795 -0.00516866 0.00000000
0.86215198 0.00076816 -0.14007419 0.00000000
1.77657861 -0.00161639 -0.17259565 0.00000000
3.18168108 0.00325919 -0.16475188 0.00000000
3.01013887 -0.00152368 -0.13432301 0.00000000
0.37093762 -0.00253564 -0.04906560 0.00000000
3.18200208 0.00185039 -0.08554247 0.00000000
0.75261925 -0.00304045 -0.02691669 0.00000000
3.79072253 -0.00216863 -0.17644588 0.00000000
0.24972560 -0.00051126 -0.06603695 0.00000000
3.20698398 0.00024602 -0.03109137 0.00000000
0.58016383 0.00096846 -0.08896697 0.00000000
0.59189560 0.00195035 -0.06315366 0.00000000
2.45204172 -0.00284579 -0.02655806 0.00000000
3.70034802 -0.00227437 -0.06231698 0.00000000
2.67403928 -0.00300207 -0.02252809 0.00000000
1.21991171 0.00166886 -0.03227889 0.00000000
3.57775387 -0.00497330 -0.08706507 0.00000000
3.60473130 -0.00246566 -0.08340092 0.00000000
0.40906603 0.00056803 -0.14784270 0.00000000
3.17307798 -0.00185860 -0.02434404 0.00000000
2.56732001 -0.00373994 -0.15251503 0.00000000
0.87377390 -0.00186814 -0.17282826 0.00000000
2.52906402 -0.00164583 -0.08828884 0.00000000
2.50763741 0.00466909 -0.04585986 0.00000000
1.69348015 -0.00276396 -0.13419846 0.00000000
3.36886981 -0.00566502 -0.11145301 0.00000000
1.95254396 -0.00019025 -0.16129642 0.00000000
3.35103417 -0.00455497 -0.07659287 0.00000000
2.08049474 -0.00025498 -0.06695350 0.00000000
2.91248207 -0.00231562 -0.17660959 0.00000000
1.84001960 0.00465192 -0.10501690 0.00000000
0.26018695 -0.00343793 -0.08787476 0.00000000
0.24430915 0.00031789 -0.18071672 0.00000000
0.33791595 0.00023275 -0.09515198 0.00000000
2.80466956 -0.00421919 -0.01521374 0.00000000
2.47026027 -0.00086071 -0.16250713 0.00000000
3.25691944 -0.00104065 -0.14769196 0.00000000
3.34763269 0.00345511 -0.04280182 0.00000000
3.76211575 -0.00401543 -0.06148843 0.00000000
3.01399852 -0.00060615 -0.17561813 0.00000000
0.54445034 -0.00295960 -0.08535590 0.00000000
1.20146648 -0.00010741 -0.09798707 0.00000000
3.35080558 -0.00074315 -0.16964141 0.00000000
2.02988830 -0.00302258 -0.17300071 0.00000000
0.18147163 0.00169295 -0.12195252 0.00000000
0.33037006 -0.00199117 -0.07794597 0.00000000
2.37340598 0.00242460 -0.06360274 0.00000000
2.04095099 0.00104097 -0.02152769 0.00000000
2.20597267 0.00011511 -0.04813586 0.00000000
0.22257407 0.00129837 -0.00405257 0.00000000
2.68202230 -0.00139904 -0.15007894 0.00000000
2.60849501 -0.00605325 -0.10416046 0.00000000
3.29636669 -0.00021395 -0.09039148 0.00000000
1.08466439 -0.00010540 -0.02229298 0.00000000
0.22907229 0.00366869 -0.00608732 0.00000000
0.27416716 0.00195640 -0.11592762 0.00000000
1.48576662 -0.00232656 -0.03903183 0.00000000
2.05768820 0.00135541 -0.10402096 0.00000000
1.15741059 0.00100029 -0.02262756 0.00000000
2.22766281 -0.00129681 -0.08694920 0.00000000
4.07677913 -0.00202347 -0.17175413 0.00000000
2.55005495 -0.00110712 -0.01040312 0.00000000
3.72194871 -0.00582987 -0.14236761 0.00000000
3.49437301 -0.00484538 -0.05454823 0.00000000
1.31325174 0.00286265 -0.02553046 0.00000000
3.12218915 0.00182993 -0.02204235 0.00000000
1.55820222 0.00116528 -0.16734271 0.00000000
2.67431988 0.00113806 -0.15646905 0.00000000
0.46488972 -0.00201257 -0.12788218 0.00000000
0.53563666 0.00135000 -0.11262636 0.00000000
3.40050445 -0.00026426 -0.02405296 0.00000000
3.98192329 -0.00288054 -0.16920549 0.00000000
3.26191690 -0.00073371 -0.07567729 0.00000000
4.39170111 0.00544350 -0.15726616 0.00000000
4.29048078 -0.00066134 -0.01495565 0.00000000
4.32650809 0.00002988 -0.13872968 0.00000000
4.12800836 -0.00249686 -0.11679994 0.00000000
2.44921585 -0.00311243 -0.14101270 0.00000000
1.49627467 -0.00055950 -0.14781456 0.00000000
2.59635424 -0.00617524 -0.17595132 0.00000000
2.21285713 0.00312747 -0.01016552 0.00000000
4.02143758 0.00221204 -0.04701903 0.00000000
0.97098786 0.00197590 -0.01587510 0.00000000
2.38797553 -0.00088537 -0.07498705 0.00000000
0.01663746 -0.00095857 -0.07003196 0.00000000
0.80841327 -0.00124724 -0.17655787 0.00000000
2.33679612 -0.00233649 -0.15608013 0.00000000
3.65342491 0.00158321 -0.01307296 0.00000000
4.21980610 0.00152361 -0.15360979 0.00000000
0.70173703 0.00013897 -0.04380509 0.00000000
4.09263301 -0.00006431 -0.13717586 0.00000000
0.97635645 0.00048434 -0.16553413 0.00000000
3.59308124 -0.00028698 -0.03524097 0.00000000
4.17545463 -0.00271083 -0.16539755 0.00000000
1.74201968 -0.00168940 -0.11620717 0.00000000
3.81250809 -0.00445142 -0.07047097 0.00000000
0.09496713 -0.00287344 -0.10175145 0.00000000
2.39349716 0.00279470 -0.00031717 0.00000000
2.63896786 -0.00346704 -0.01446970 0.00000000
0.73709015 -0.00072187 -0.10875566 0.00000000
2.35295393 -0.00306996 -0.17721590 0.00000000
1.58201820 -0.00033422 -0.11215925 0.00000000
3.66643685 0.00132540 -0.05674002 0.00000000
3.98600272 -0.00043581 -0.01507643 0.00000000
1.83037181 0.00161056 -0.11371413 0.00000000
2.08498640 0.00129839 -0.06562225 0.00000000
4.35055886 0.00297654 -0.12504228 0.00000000
0.64530290 -0.00070393 -0.01890090 0.00000000
0.31096020 0.00001306 -0.13711524 0.00000000
1.63803944 0.00044444 -0.06102507 0.00000000
4.33270197 -0.00050823 -0.16452176 0.00000000
4.15723800 0.00395317 -0.13095462 0.00000000
3.37762655 0.00116443 -0.05629984 0.00000000
2.38158141 0.00096270 -0.01125170 0.00000000
2.89343151 -0.00174095 -0.16883198 0.00000000
1.52448843 -0.00061500 -0.14909291 0.00000000
2.44342020 0.00353235 -0.11451222 0.00000000
4.17509405 -0.00514624 -0.02735171 0.00000000
2.10842667 -0.00072956 -0.12491624 0.00000000
0.25868356 -0.00189617 -0.17155653 0.00000000
0.31575844 0.00156560 -0.16504700 0.00000000
0.01167815 -0.00554160 -0.04709774 0.00000000
3.65996680 -0.00310655 -0.15997145 0.00000000
1.17768067 0.00233029 -0.02375523 0.00000000
1.21624865 0.00121047 -0.05842900 0.00000000
3.98975262 0.00038455 -0.11865841 0.00000000
1.14669401 0.00078659 -0.06710077 0.00000000
3.75082750 0.00354816 -0.06430548 0.00000000
3.53578984 0.00219489 -0.05551319 0.00000000
4.07265049 0.00082729 -0.03829836 0.00000000
0.01683383 -0.00147806 -0.16670266 0.00000000
2.18103933 0.00226309 -0.04134991 0.00000000
2.87728092 -0.00597809 -0.01755228 0.00000000
1.46486740 0.00110582 -0.13301692 0.00000000
0.41569127 -0.00018176 -0.14980835 0.00000000
1.57558410 -0.00214240 -0.00647631 0.00000000
1.98090097 0.00231899 -0.15247859 0.00000000
0.63651010 -0.00530526 -0.08709224 0.00000000
0.80886330 -0.00211877 -0.09134833 0.00000000
3.55878004 0.00348803 -0.00875184 0.00000000
2.47558649 0.00090894 -0.08365404 0.00000000
3.50449138 0.00086646 -0.18258545 0.00000000
2.29414512 -0.00069152 -0.16330403 0.00000000
0.17512785 -0.00208151 -0.00451210 0.00000000
3.81027156 -0.00273527 -0.06403371 0.00000000
2.44157031 -0.00284381 -0.16923807 0.00000000
3.18734635 0.00240918 -0.12513964 0.00000000
0.80243496 0.00077120 -0.05682051 0.00000000
1.58816420 0.00035374 -0.11037540 0.00000000
0.27455934 0.00213800 -0.10252467 0.00000000
1.66667939 -0.00250449 -0.10997947 0.00000000
1.60854431 -0.00499522 -0.11903441 0.00000000
1.74467713 -0.00362654 -0.13500636 0.00000000
2.04806029 0.00514801 -0.16917070 0.00000000
0.81996390 -0.00408090 -0.12496614 0.00000000
2.34072650 0.00172338 -0.07961343 0.00000000
0.58014625 -0.00523330 -0.17260787 0.00000000
2.22064886 -0.00268663 -0.02953458 0.00000000
4.20577300 0.00303997 -0.17043239 0.00000000
2.92930932 -0.00048239 -0.16570416 0.00000000
0.39027977 -0.00528492 -0.02146265 0.00000000
3.59468955 0.00635460 -0.03414055 0.00000000
1.12692256 0.00199510 -0.02766534 0.00000000
1.40517387 -0.00593524 -0.05739194 0.00000000
4.32008080 0.00118273 -0.00978426 0.00000000
3.16981325 -0.00078788 -0.04684234 0.00000000
0.44321809 -0.00269549 -0.14854005 0.00000000
2.96881451 -0.00011997 -0.11781779 0.00000000
3.89609674 -0.00031948 -0.10285287 0.00000000
0.42247558 -0.00189180 -0.18243805 0.00000000
3.47583458 -0.00069906 -0.13369694 0.00000000
2.74814562 -0.00015415 -0.15742527 0.00000000
4.24575245 0.00108986 -0.13671215 0.00000000
1.74408908 0.00179059 -0.14602382 0.00000000
3.54641756 -0.00224778 -0.13221289 0.00000000
4.35484206 -0.00208700 -0.04621108 0.00000000
2.22119049 -0.00006847 -0.07049219 0.00000000
0.75094770 -0.00029497 -0.12015320 0.00000000
3.55868260 0.00101488 -0.02581922 0.00000000
2.62300606 -0.00462550 -0.08329492 0.00000000
0.39448943 -0.00517400 -0.17914197 0.00000000
0.04486715 -0.00226502 -0.16503242 0.00000000
4.22685919 -0.00013701 -0.01804383 0.00000000
1.13914236 0.00017274 -0.07462310 0.00000000
2.88325718 -0.00048143 -0.01975593 0.00000000
0.51666856 0.00041900 -0.01241451 0.00000000
2.93464745 -0.00300235 -0.08847178 0.00000000
1.02495133 -0.00289165 -0.17052185 0.00000000
0.34929310 -0.00089588 -0.04064849 0.00000000
2.15001140 -0.00463646 -0.06290649 0.00000000
2.66008266 -0.00423257 -0.02955744 0.00000000
4.36256557 0.00283350 -0.15851431 0.00000000
2.49383428 -0.00271621 -0.07962014 0.00000000
2.10993294 0.00309831 -0.15395698 0.00000000
4.34360758 0.00131408 -0.14344260 0.00000000
1.60886122 -0.00138338 -0.11475412 0.00000000
1.58357444 0.00017800 -0.18153267 0.00000000
3.46694361 -0.00235108 -0.16393711 0.00000000
1.26523961 -0.00046317 -0.16008950 0.00000000
0.25577067 -0.00198498 -0.03450751 0.00000000
3.92818300 0.00103490 -0.16132169 0.00000000
1.97201862 -0.00106567 -0.15828530 0.00000000
2.59543079 -0.00529095 -0.06892653 0.00000000
1.19838667 -0.00157746 -0.09438412 0.00000000
2.27358109 0.00043481 -0.10952553 0.00000000
1.11539854 -0.00545216 -0.15448047 0.00000000
1.22709774 -0.00108730 -0.08899792 0.00000000
4.01608034 -0.00278177 -0.17537568 0.00000000
0.00335839 -0.00647445 -0.06592256 0.00000000
2.34462821 -0.00246065 -0.02619275 0.00000000
0.66968286 0.00066283 -0.05717120 0.00000000
3.95670006 0.00205886 -0.17970406 0.00000000
2.48365108 0.00056739 -0.12451827 0.00000000
0.36261025 0.00067353 -0.09579119 0.00000000
0.46190708 0.00514413 -0.10082037 0.00000000
3.73201511 -0.00547750 -0.02913188 0.00000000
1.26843030 -0.00294898 -0.14755923 0.00000000
3.01224535 -0.00510459 -0.00361860 0.00000000
3.98871061 0.00020602 -0.05330273 0.00000000
1.16565173 0.00295017 -0.05911135 0.00000000
1.90495174 -0.00344184 -0.09255737 0.00000000
4.33042892 -0.00325628 -0.14412257 0.00000000
1.78636317 0.00581369 -0.06058915 0.00000000
1.98638201 0.00218952 -0.10145869 0.00000000
2.47795079 -0.00410720 -0.05213732 0.00000000
1.38996760 -0.00349962 -0.11215321 0.00000000
3.66621633 -0.00084742 -0.06550926 0.00000000
0.94098999 0.00264373 -0.00321839 0.00000000
0.25218632 0.00104123 -0.09695509 0.00000000
0.09652898 0.00381684 -0.11041356 0.00000000
3.04746972 -0.00190041 -0.15797361 0.00000000
3.37449171 -0.00168929 -0.09377999 0.00000000
0.83159970 0.00025454 -0.10973757 0.00000000
1.24159915 0.00354175 -0.05507386 0.00000000
2.44357809 -0.00542284 -0.02986557 0.00000000
0.55219825 0.00270607 -0.13019858 0.00000000
