0.636234 0.934074 0.000247 0.0
3.455709 0.951693 -0.004045 0.0
2.090158 1.005453 -0.000072 0.0
3.470418 1.143000 -0.000682 0.0
4.438782 1.184633 -0.000363 0.0
2.261471 0.490212 -0.001436 0.0
0.235345 0.000572 -0.002337 0.0
1.627273 0.117574 0.001729 0.0
4.473415 1.164389 0.002452 0.0
2.894860 1.476981 0.004113 0.0
0.173389 1.395479 0.001065 0.0
4.239214 0.730819 -0.001876 0.0
3.372364 0.831604 -0.003855 0.0
0.149989 0.865466 0.002842 0.0
0.823230 0.362802 -0.000452 0.0
3.012491 0.502846 -0.001692 0.0
2.317719 0.131393 0.000960 0.0
1.173726 0.965885 0.002287 0.0
1.784472 0.183035 0.002644 0.0
2.715379 0.222407 -0.001121 0.0
4.533826 1.029662 -0.001507 0.0
3.062736 0.807232 -0.000231 0.0
2.072567 1.587425 0.000814 0.0
4.364967 1.129513 -0.002320 0.0
2.576867 0.936970 -0.002440 0.0
1.054608 0.893018 0.001416 0.0
2.415516 1.162007 -0.000927 0.0
3.335391 0.535596 0.001863 0.0
4.398489 0.441795 -0.000562 0.0
1.839549 0.726713 -0.003736 0.0
0.284920 1.108380 0.005038 0.0
2.812985 0.411214 0.001405 0.0
2.031529 1.234363 -0.002838 0.0
4.179965 0.913205 0.000684 0.0
1.030978 1.085136 0.003038 0.0
4.080424 1.410088 -0.001503 0.0
2.842955 0.029139 -0.000271 0.0
0.880352 0.788914 0.005201 0.0
0.819591 0.855401 0.003243 0.0
0.778367 0.949432 -0.000942 0.0
0.359349 0.807909 0.001073 0.0
2.381552 0.963028 -0.000005 0.0
1.447278 0.199215 0.001702 0.0
4.020495 0.972083 0.002230 0.0
2.132037 0.184296 -0.002826 0.0
2.061821 1.370472 0.000543 0.0
0.664022 0.371251 0.001907 0.0
3.919649 1.526405 -0.000845 0.0
2.007727 0.583162 -0.000350 0.0
2.657856 1.157227 -0.005866 0.0
1.409158 1.191557 0.001535 0.0
3.072478 1.543647 -0.000458 0.0
2.692027 1.604030 0.001551 0.0
4.083584 1.149684 0.001909 0.0
2.747988 0.200302 0.000488 0.0
2.480129 0.544958 0.002832 0.0
4.508365 0.475246 -0.001112 0.0
0.336699 0.030833 -0.000694 0.0
4.504338 0.817039 -0.001034 0.0
0.432473 0.057156 -0.001954 0.0
2.186827 0.718857 -0.000766 0.0
3.528229 0.669242 0.002060 0.0
3.304588 1.491659 0.002647 0.0
4.540795 0.721517 -0.003673 0.0
2.485024 0.304847 -0.003410 0.0
2.207765 0.379264 -0.001514 0.0
0.124814 1.437009 -0.000430 0.0
1.338297 1.513707 0.006046 0.0
1.792042 0.299812 -0.000376 0.0
0.720775 1.240106 -0.000539 0.0
3.507205 0.420434 -0.002008 0.0
3.721456 1.164642 -0.002022 0.0
1.183549 0.716093 0.000072 0.0
3.573898 0.640790 0.000968 0.0
1.957630 1.179659 0.002231 0.0
2.883944 0.680056 -0.002515 0.0
1.538030 1.269900 -0.002994 0.0
2.526579 1.292324 0.003386 0.0
4.462000 0.099369 0.001225 0.0
4.520369 0.760962 0.001819 0.0
2.185092 0.235888 0.000415 0.0
2.161925 0.554760 -0.001503 0.0
1.284689 1.557960 0.001512 0.0
3.676759 0.479551 0.004022 0.0
4.216129 1.180599 -0.004471 0.0
3.928043 0.711342 -0.000989 0.0
0.790305 1.281899 -0.000414 0.0
3.253041 0.180638 -0.001109 0.0
2.734746 0.539532 0.002664 0.0
3.024899 0.215346 0.001544 0.0
1.949047 0.454633 -0.002119 0.0
2.237020 0.705546 -0.000633 0.0
4.215815 0.404925 0.001949 0.0
4.545892 1.120654 -0.001593 0.0
2.482857 1.247373 -0.000636 0.0
1.551734 0.158758 -0.001577 0.0
0.471981 0.453176 0.001141 0.0
4.098837 0.065986 0.000597 0.0
0.252801 0.385959 0.000942 0.0
1.610382 0.385730 0.005582 0.0
2.433052 1.328284 -0.002000 0.0
0.804614 0.541006 0.002554 0.0
1.811211 0.156676 0.002838 0.0
4.368793 0.519142 0.001757 0.0
3.637433 1.475965 0.000493 0.0
3.260530 0.707987 -0.002899 0.0
4.146833 1.232302 0.004338 0.0
2.161289 0.484013 -0.000259 0.0
1.049104 0.202899 -0.002089 0.0
0.766274 1.243432 -0.000018 0.0
1.569881 0.016060 0.001101 0.0
0.682691 0.739302 0.000929 0.0
0.048943 0.583468 -0.002100 0.0
4.337846 0.190869 -0.001387 0.0
0.747414 0.068466 -0.001475 0.0
2.206173 0.502167 -0.000052 0.0
0.990117 0.682357 0.005737 0.0
2.928368 0.786248 -0.003974 0.0
4.392401 1.077509 0.000718 0.0
1.283693 0.706164 -0.005055 0.0
2.212536 0.919975 0.000021 0.0
2.143062 1.014231 0.001158 0.0
1.299016 0.040517 -0.001137 0.0
3.354636 1.066503 -0.002011 0.0
4.386906 1.333701 0.004061 0.0
3.056369 0.514534 0.000494 0.0
1.112649 0.676015 -0.000960 0.0
3.280828 0.517304 0.000322 0.0
0.539470 0.335364 0.001489 0.0
0.420506 0.806156 -0.001095 0.0
4.204549 1.582238 0.003646 0.0
1.263237 0.960406 0.000698 0.0
4.427825 0.933414 -0.000980 0.0
4.292058 0.317160 0.000692 0.0
1.658426 0.750819 -0.003017 0.0
2.993073 0.242874 0.001449 0.0
0.328048 1.403292 -0.001403 0.0
2.741577 0.586941 -0.001514 0.0
0.833240 0.261606 -0.002491 0.0
1.489717 1.401188 -0.000514 0.0
1.658133 0.637466 -0.004035 0.0
0.563730 0.856603 -0.000455 0.0
2.657270 0.655458 0.000890 0.0
0.400847 0.915387 0.001713 0.0
4.504508 0.765947 0.000904 0.0
1.917597 0.421665 0.002201 0.0
0.709905 0.664502 0.001940 0.0
3.948424 0.567260 -0.000774 0.0
1.364969 0.221615 0.003755 0.0
2.365182 1.171935 0.000640 0.0
2.144408 0.805788 0.000588 0.0
4.240304 1.462075 -0.002385 0.0
1.786826 1.023240 0.003474 0.0
1.054816 0.634312 -0.002244 0.0
1.348412 0.515079 0.002942 0.0
1.551792 1.212101 0.003690 0.0
3.601127 0.726258 -0.001570 0.0
4.086520 0.307424 0.000916 0.0
0.629925 0.254253 -0.004576 0.0
2.107656 0.350628 0.000218 0.0
0.190695 0.592382 0.000343 0.0
3.555794 0.174184 -0.005190 0.0
0.004540 1.303053 -0.000811 0.0
0.459184 1.011781 -0.000638 0.0
1.315504 1.278888 0.005380 0.0
4.529650 1.521789 -0.004637 0.0
2.975615 0.295301 0.004687 0.0
0.931758 0.362608 -0.001362 0.0
2.746562 0.071584 0.003257 0.0
0.939217 0.033331 -0.000685 0.0
3.503398 0.441378 -0.001802 0.0
0.132884 1.087394 -0.000847 0.0
2.576203 0.457675 0.001345 0.0
2.632186 1.553601 0.004178 0.0
3.465457 1.527605 0.001604 0.0
3.780856 0.302619 0.000882 0.0
2.187958 1.572294 -0.001330 0.0
1.195497 0.673157 0.001451 0.0
1.075071 1.020467 0.001493 0.0
4.510267 0.671559 0.004500 0.0
1.772784 0.215773 0.000477 0.0
1.182036 0.711609 -0.001117 0.0
4.063086 1.135913 0.000400 0.0
4.132845 0.881590 0.000543 0.0
3.210422 1.006722 0.001444 0.0
2.423142 0.980286 -0.003323 0.0
4.375329 0.623879 0.001921 0.0
0.591048 0.316228 -0.002482 0.0
4.497822 1.120013 -0.004014 0.0
3.351805 0.859084 0.000514 0.0
2.301182 0.391514 -0.003203 0.0
2.312095 0.432235 -0.005445 0.0
1.013029 1.143184 0.002178 0.0
0.769057 0.419941 0.000786 0.0
2.568114 0.794532 0.001294 0.0
0.462214 0.626725 0.002232 0.0
1.890874 0.211083 0.001985 0.0
1.594802 0.207539 -0.001273 0.0
0.637315 1.136548 -0.003596 0.0
2.946994 0.991135 -0.000739 0.0
2.616395 1.435434 -0.004078 0.0
2.125593 0.779885 -0.000791 0.0
4.373152 1.451775 -0.003700 0.0
2.112951 1.464222 0.000528 0.0
4.140196 1.367437 -0.001294 0.0
1.226127 1.137102 -0.000972 0.0
3.533854 0.982109 -0.002222 0.0
2.735454 0.107736 0.000159 0.0
0.652606 0.726763 -0.001824 0.0
2.853424 0.199392 -0.000376 0.0
0.406264 0.011900 0.000372 0.0
0.150328 1.188097 0.001276 0.0
3.531730 1.515858 -0.001842 0.0
1.375118 1.335845 0.000077 0.0
2.337654 0.134717 -0.000947 0.0
4.183089 0.998189 0.000801 0.0
0.163325 1.438765 0.004731 0.0
1.616773 0.925876 0.001408 0.0
4.518088 0.900698 0.003587 0.0
1.725877 0.156395 -0.003778 0.0
4.507383 0.748619 0.000305 0.0
0.156613 1.601135 0.002341 0.0
3.005380 0.746747 0.000594 0.0
4.332595 0.585755 0.002185 0.0
4.391610 1.538030 -0.000740 0.0
2.389307 0.261238 -0.000777 0.0
0.665046 0.508528 -0.001246 0.0
1.722764 1.583104 0.004997 0.0
4.400603 1.273394 -0.001221 0.0
3.005312 0.284117 -0.003790 0.0
4.063210 0.787515 0.002153 0.0
4.545414 1.394382 -0.003222 0.0
3.869682 0.456184 -0.002243 0.0
2.005543 0.771148 0.000068 0.0
2.401382 0.899752 -0.001827 0.0
0.371758 0.854358 0.000178 0.0
3.512063 1.519099 -0.005386 0.0
3.907743 0.691004 -0.002198 0.0
3.542563 0.166100 -0.001167 0.0
2.828769 0.417247 0.001736 0.0
1.539045 1.179519 -0.000784 0.0
4.111129 0.170621 0.001953 0.0
0.122813 1.392511 -0.001366 0.0
1.693273 0.915117 -0.003025 0.0
1.622261 0.554587 0.004595 0.0
0.449371 0.273516 -0.003929 0.0
1.087468 0.477621 -0.000889 0.0
2.990045 1.023607 0.000129 0.0
1.193958 0.104686 -0.000337 0.0
2.188700 0.236994 0.001504 0.0
1.943862 1.326194 -0.003297 0.0
1.109229 0.217631 -0.000261 0.0
4.001459 0.097578 -0.002546 0.0
4.502441 0.726888 -0.001050 0.0
2.448479 1.348076 -0.001924 0.0
3.222948 0.477076 0.003514 0.0
2.260983 0.340254 0.001753 0.0
2.724120 1.424020 0.002423 0.0
1.127537 0.158192 0.000325 0.0
3.847183 1.169296 0.000331 0.0
2.734167 0.240291 0.001912 0.0
2.884326 1.148293 -0.006702 0.0
3.292453 1.595278 0.004543 0.0
4.270084 1.385980 0.003246 0.0
0.746388 0.001666 0.004419 0.0
0.582310 0.249612 0.003096 0.0
0.990142 0.036371 0.003798 0.0
2.227931 0.833127 -0.008855 0.0
2.412721 0.903922 -0.003434 0.0
4.421408 1.411842 0.003062 0.0
0.287237 0.436323 -0.004229 0.0
0.679545 0.568754 -0.000135 0.0
4.179236 0.538039 -0.002248 0.0
0.157382 0.967832 -0.000845 0.0
2.180231 0.270346 -0.000104 0.0
2.262532 1.413972 0.000312 0.0
1.014689 0.088643 -0.002179 0.0
2.424625 0.655271 -0.002407 0.0
3.355042 0.174548 -0.003219 0.0
3.203257 1.520171 0.001015 0.0
3.592034 0.340922 -0.000282 0.0
1.924767 1.542864 -0.002221 0.0
4.482255 0.735881 -0.001142 0.0
0.401293 0.047599 0.003852 0.0
1.426514 0.041647 -0.001822 0.0
0.533890 1.595394 -0.003591 0.0
1.747776 0.445379 -0.002730 0.0
3.604377 0.482900 -0.001408 0.0
4.372514 0.109068 0.002750 0.0
1.816812 1.150932 0.000296 0.0
1.713658 0.764622 -0.002412 0.0
3.214607 0.209460 -0.000479 0.0
4.535121 0.219597 -0.000913 0.0
0.693268 0.939230 -0.001228 0.0
1.020079 0.777864 0.001061 0.0
1.606978 0.626790 0.004276 0.0
0.676024 0.213694 -0.001490 0.0
1.297800 0.821339 0.004308 0.0
2.419083 1.167536 0.001375 0.0
1.624375 0.211135 0.002516 0.0
3.543277 0.715776 0.001330 0.0
2.783777 1.077927 -0.001555 0.0
1.293992 0.444987 -0.000951 0.0
2.122600 1.128794 0.002869 0.0
0.754616 0.587473 0.001262 0.0
3.911602 0.674083 0.000001 0.0
3.623481 1.214184 0.002279 0.0
0.151698 0.324770 -0.000283 0.0
4.125983 0.276312 0.004112 0.0
0.318806 1.468925 0.001607 0.0
1.635644 0.571082 0.003399 0.0
3.312919 0.115903 0.003167 0.0
3.016883 0.208222 -0.002890 0.0
3.853301 0.832086 -0.003840 0.0
2.028811 0.817580 0.002383 0.0
2.334066 1.521010 -0.006764 0.0
2.461522 0.407545 0.002540 0.0
2.009819 1.093822 0.000124 0.0
3.145116 1.006089 -0.004085 0.0
1.121081 0.731745 0.002803 0.0
1.648226 0.992476 0.007787 0.0
0.255010 1.156368 0.003766 0.0
0.079580 1.351498 0.001665 0.0
0.692806 1.165310 -0.000591 0.0
3.507849 0.611375 -0.001835 0.0
3.400227 0.530059 0.002476 0.0
2.639190 0.417621 -0.004222 0.0
3.183965 0.537573 0.000835 0.0
3.265158 1.172156 -0.001409 0.0
0.240189 1.344519 0.000393 0.0
0.424877 0.978969 0.003397 0.0
2.651596 0.211970 -0.000074 0.0
3.408180 0.616061 -0.001008 0.0
2.637885 0.749162 -0.003070 0.0
1.499875 0.634081 -0.001899 0.0
2.968582 0.289355 -0.000488 0.0
3.820912 0.294067 -0.003518 0.0
1.384472 1.040408 0.001997 0.0
2.599852 1.274040 -0.004950 0.0
3.056632 1.281109 -0.000694 0.0
0.650159 1.128989 -0.002969 0.0
2.496539 0.517972 -0.003381 0.0
0.342242 0.468162 0.003549 0.0
3.641568 0.103130 -0.003204 0.0
0.551615 1.400714 0.005973 0.0
3.721399 0.172102 -0.000100 0.0
3.350547 0.428467 0.002148 0.0
4.377040 0.419013 -0.000789 0.0
1.226028 0.691664 0.001168 0.0
4.202835 0.774304 0.000596 0.0
0.214106 0.717418 0.004237 0.0
1.616382 1.032152 -0.000312 0.0
3.713695 0.359798 0.004096 0.0
2.013296 0.446006 -0.002605 0.0
1.926996 0.837711 -0.002848 0.0
3.129780 0.622584 0.003382 0.0
3.107185 0.790381 0.000869 0.0
1.514623 0.839541 0.004869 0.0
1.005358 0.400794 0.002405 0.0
4.327602 0.458023 0.002868 0.0
1.591104 1.259191 0.003906 0.0
1.852751 1.583754 0.000948 0.0
0.140703 0.782437 -0.001772 0.0
1.219936 0.995072 0.002295 0.0
2.448346 0.439980 -0.005502 0.0
3.994032 0.343693 0.000138 0.0
2.777315 1.503394 -0.000237 0.0
0.869162 0.554104 -0.001139 0.0
2.415100 0.569242 0.002330 0.0
2.188055 0.527019 -0.000773 0.0
0.925378 1.214867 -0.002055 0.0
3.531984 1.322603 -0.000018 0.0
0.466436 0.330933 0.000035 0.0
0.356249 1.507302 0.002188 0.0
3.755090 1.594078 0.001758 0.0
1.731181 1.167249 0.002206 0.0
3.812636 1.107030 -0.005604 0.0
0.049953 0.730777 0.003184 0.0
1.653585 0.060996 -0.004766 0.0
0.805853 1.424631 0.001315 0.0
1.701221 1.469034 0.005521 0.0
4.401840 0.298249 0.001536 0.0
2.076563 0.663444 -0.005126 0.0
0.095869 0.003761 0.004978 0.0
2.213297 1.122642 -0.003433 0.0
0.000326 0.694804 -0.001624 0.0
3.234270 0.268714 0.001609 0.0
0.578261 1.528241 0.001466 0.0
3.671090 0.561266 0.001199 0.0
4.551392 1.248852 -0.000515 0.0
2.662513 0.205831 -0.002051 0.0
1.760251 1.483928 0.000942 0.0
3.636188 1.078464 -0.004758 0.0
2.995840 1.578862 0.001361 0.0
0.262224 0.784364 0.003118 0.0
2.896437 0.733036 -0.000189 0.0
3.527624 0.918842 0.000692 0.0
3.910032 1.255297 -0.002058 0.0
0.691467 0.100810 -0.001480 0.0
1.523065 0.367216 0.005031 0.0
2.699652 0.667971 0.001790 0.0
2.961530 1.222674 -0.001155 0.0
3.054304 1.096164 -0.000320 0.0
4.420417 0.804311 -0.001465 0.0
1.073827 0.531478 -0.003081 0.0
3.556695 1.458774 0.000283 0.0
2.620055 1.470177 0.000719 0.0
2.414150 0.568384 0.002206 0.0
1.417782 0.491874 -0.002596 0.0
4.288832 1.122998 0.002280 0.0
2.046165 0.321577 -0.002664 0.0
4.329225 0.405866 0.001339 0.0
1.017676 0.618475 0.001050 0.0
4.312700 1.198658 -0.004324 0.0
0.201493 0.734585 -0.000347 0.0
0.289897 1.235582 -0.001549 0.0
4.038114 0.376648 0.004932 0.0
1.097940 1.523818 0.000633 0.0
1.681961 0.527842 0.000797 0.0
2.395274 0.001759 -0.004313 0.0
4.436434 1.387147 0.002060 0.0
1.354694 0.883929 0.001676 0.0
2.541182 1.377145 -0.000827 0.0
0.814562 1.277302 0.001139 0.0
2.048230 0.498147 -0.002055 0.0
3.670858 0.637843 0.003874 0.0
3.309807 1.107272 0.000145 0.0
1.838353 0.479852 -0.000983 0.0
0.157875 0.463601 -0.002654 0.0
2.498738 0.869079 -0.002083 0.0
4.193749 0.741679 -0.009231 0.0
3.437124 0.538246 0.005425 0.0
1.569298 1.133318 0.001031 0.0
4.101584 0.764735 -0.002396 0.0
1.507410 0.476825 -0.006553 0.0
2.427326 1.545489 0.000251 0.0
1.330634 1.476145 0.001160 0.0
2.197989 0.201745 -0.000852 0.0
2.388717 0.680542 0.000101 0.0
4.283301 1.080398 0.003417 0.0
3.006596 1.227923 -0.001588 0.0
3.858505 0.635232 -0.001096 0.0
1.652598 0.403207 0.002922 0.0
2.613762 0.983417 0.001590 0.0
1.490286 0.580223 -0.002351 0.0
1.165689 0.422776 -0.000481 0.0
4.224561 0.031296 -0.002023 0.0
1.800145 0.732124 -0.000819 0.0
1.715162 1.068257 0.003307 0.0
2.982653 0.783968 0.003711 0.0
0.933433 0.946335 -0.000622 0.0
2.230167 0.177837 0.002432 0.0
3.714741 0.220120 0.000205 0.0
0.818264 1.431037 -0.001991 0.0
4.095582 0.150595 0.003210 0.0
1.119928 0.566537 0.000343 0.0
2.363110 0.963475 -0.001754 0.0
0.616233 0.412987 -0.003602 0.0
3.373858 0.504008 0.001743 0.0
1.755014 1.171168 0.003391 0.0
3.992387 0.943102 -0.002275 0.0
0.305768 1.588927 0.004669 0.0
1.097867 0.718899 0.004183 0.0
1.081328 0.766669 -0.001664 0.0
3.041436 1.150449 -0.000018 0.0
2.970291 1.564713 -0.002920 0.0
3.489999 1.566211 0.002146 0.0
2.011481 0.761327 0.000493 0.0
1.302405 0.946788 0.001894 0.0
0.499192 0.901047 -0.001032 0.0
0.543879 0.038092 0.001515 0.0
1.613564 0.614208 -0.003691 0.0
1.761312 0.371661 0.002737 0.0
3.432902 0.147176 0.004202 0.0
4.301198 0.491433 -0.002083 0.0
1.861370 0.998061 0.003460 0.0
4.127137 1.260128 0.007504 0.0
4.309330 1.590755 -0.005035 0.0
0.243969 0.935863 -0.002202 0.0
4.298206 0.503469 -0.002472 0.0
0.390502 0.752869 0.000372 0.0
2.078158 0.481057 0.000414 0.0
2.505089 1.414565 0.002118 0.0
3.178713 0.896438 -0.002064 0.0
0.632019 0.904812 -0.000123 0.0
1.787779 1.213816 -0.000129 0.0
2.566975 0.401465 -0.000514 0.0
4.237706 1.522231 0.002961 0.0
0.337256 1.488930 0.000412 0.0
2.302773 0.800449 0.000098 0.0
3.760420 1.092178 -0.004447 0.0
0.295172 0.627109 0.000885 0.0
1.592351 0.587847 0.002911 0.0
1.173957 0.391158 -0.000830 0.0
2.568612 0.415242 0.002146 0.0
0.322849 0.851816 0.003715 0.0
0.892056 1.180141 -0.002337 0.0
4.394739 0.619640 -0.003180 0.0
0.004388 0.495883 -0.006099 0.0
2.501837 0.064227 0.000691 0.0
4.236956 0.023831 0.002490 0.0
3.044916 0.283185 0.003585 0.0
4.129010 0.350061 -0.004555 0.0
1.391080 1.477757 0.004553 0.0
4.365457 0.481830 -0.002665 0.0
1.893190 1.023816 -0.000463 0.0
2.540027 0.900146 -0.002525 0.0
0.525025 1.521390 -0.000045 0.0
3.604498 1.043443 0.001074 0.0
3.015386 0.104552 0.001796 0.0
2.398262 0.143462 0.000286 0.0
2.756523 1.313083 -0.001428 0.0
3.069628 0.220279 -0.001003 0.0
1.176187 0.020151 0.000591 0.0
1.162296 0.815813 0.000882 0.0
3.294320 0.522763 0.002874 0.0
1.955995 0.328562 0.000496 0.0
2.651399 0.167191 0.001168 0.0
2.391003 1.534196 0.001302 0.0
3.350374 1.361778 -0.003382 0.0
1.075751 1.063594 0.000400 0.0
4.109505 0.647861 0.000040 0.0
4.421079 0.576611 -0.001581 0.0
0.455148 0.285332 -0.003220 0.0
1.804144 0.015423 0.000154 0.0
3.791830 1.088881 0.000295 0.0
4.092583 0.104741 -0.000764 0.0
3.182863 1.333436 0.002084 0.0
3.988741 0.590291 0.000167 0.0
0.884252 0.450031 0.000677 0.0
0.211074 0.133593 0.001191 0.0
1.357485 0.022404 0.001166 0.0
3.033047 0.717798 0.003385 0.0
3.709703 0.767691 0.001377 0.0
1.520470 0.559110 -0.000611 0.0
3.410461 0.778619 -0.001464 0.0
0.741723 1.365826 -0.001536 0.0
0.628811 1.366420 -0.001991 0.0
2.698278 1.529938 -0.000460 0.0
0.044901 1.235540 0.001664 0.0
0.533954 0.385043 -0.000091 0.0
1.547079 1.471145 -0.003319 0.0
0.849152 1.174724 -0.001032 0.0
0.232088 0.862725 -0.001354 0.0
0.099036 0.854888 0.001816 0.0
1.732059 1.079997 -0.000101 0.0
4.298923 1.242672 0.003132 0.0
3.594969 1.318418 0.001260 0.0
3.265392 1.304074 0.003030 0.0
2.645459 1.589006 0.003671 0.0
2.147691 0.544212 -0.000735 0.0
2.987553 0.765943 0.000886 0.0
1.710285 1.555767 -0.000056 0.0
1.550579 1.248397 -0.003900 0.0
0.116732 0.471173 -0.001201 0.0
1.923063 1.125265 0.001714 0.0
0.702099 0.653323 -0.001053 0.0
3.962998 1.583551 0.000665 0.0
1.281976 1.480750 0.000220 0.0
1.914117 1.290536 0.001874 0.0
1.685039 1.431050 -0.003655 0.0
1.741253 0.552679 -0.001338 0.0
0.934663 0.372323 0.001753 0.0
0.261592 0.749192 0.005724 0.0
2.801273 1.604874 0.003715 0.0
0.440519 1.166754 -0.003446 0.0
0.112262 1.254184 0.002067 0.0
3.197588 1.066486 -0.001308 0.0
0.543221 1.515148 0.004648 0.0
1.246659 1.387446 -0.002652 0.0
0.623582 0.995541 -0.003268 0.0
0.701109 0.071613 -0.002431 0.0
0.809810 1.120698 0.001712 0.0
0.753194 0.359258 0.003427 0.0
1.796286 0.338208 0.000083 0.0
1.880178 1.200102 -0.001971 0.0
0.277303 1.247334 0.002686 0.0
4.244942 1.117832 -0.001737 0.0
1.874602 1.451906 -0.001457 0.0
0.335190 1.241781 -0.003767 0.0
0.347545 0.091350 -0.001781 0.0
2.307654 0.076992 -0.001558 0.0
3.625412 1.599402 -0.005300 0.0
4.477445 0.616982 -0.001132 0.0
1.487264 1.577485 -0.001479 0.0
3.946992 1.459913 0.000854 0.0
2.027616 0.987817 0.000919 0.0
0.276590 0.875168 0.000710 0.0
1.664589 0.190622 0.000973 0.0
2.168424 0.884984 0.002304 0.0
4.430309 0.414334 0.001275 0.0
3.856904 0.522455 0.001180 0.0
2.426679 1.482003 0.003060 0.0
2.061180 1.039438 -0.001198 0.0
1.416825 0.938581 -0.003730 0.0
0.387303 1.151216 -0.003967 0.0
2.022623 0.332687 -0.001477 0.0
3.124882 1.430066 -0.001153 0.0
1.287787 1.326160 0.000836 0.0
2.998268 0.165693 0.003594 0.0
0.973174 0.453742 -0.000768 0.0
1.688586 0.082109 0.000036 0.0
0.568880 1.304393 0.001775 0.0
4.292407 0.296802 -0.001127 0.0
1.797890 1.275779 -0.002249 0.0
3.134038 1.257233 -0.000788 0.0
0.339298 0.740643 0.000951 0.0
3.580625 0.384683 0.003074 0.0
3.416587 0.736764 -0.000725 0.0
0.361114 0.928929 0.001732 0.0
2.202103 0.736791 -0.002904 0.0
3.424826 0.554665 -0.001334 0.0
2.054663 0.712614 -0.003440 0.0
3.147704 1.051237 -0.002156 0.0
2.316590 1.059768 -0.001459 0.0
3.388597 1.422496 -0.000072 0.0
0.844976 0.690690 -0.001767 0.0
1.136108 0.904526 0.001450 0.0
2.160366 1.055945 0.001446 0.0
1.067914 0.423180 0.001745 0.0
1.526640 1.205125 0.002161 0.0
3.710102 0.160804 -0.000729 0.0
3.864408 0.386690 -0.002945 0.0
2.464887 0.442962 -0.004035 0.0
0.199798 0.658975 0.000162 0.0
2.739968 0.562528 0.002030 0.0
0.746864 0.460120 0.005072 0.0
3.963095 1.605087 -0.001160 0.0
0.187651 0.076662 -0.003462 0.0
1.974997 0.079268 0.001933 0.0
2.771645 0.697102 0.000015 0.0
1.631326 0.727497 -0.003726 0.0
1.140474 0.705865 -0.002648 0.0
3.317349 0.589531 0.000871 0.0
0.691267 0.017183 -0.000741 0.0
2.309503 0.685981 0.000460 0.0
1.205097 0.794857 0.001864 0.0
1.483608 0.707323 0.001837 0.0
3.746913 1.277466 0.004748 0.0
0.077562 1.210497 0.000635 0.0
3.488430 0.268232 -0.000384 0.0
3.398863 0.245320 -0.000088 0.0
0.943984 0.316550 0.000915 0.0
4.353394 0.824446 -0.003400 0.0
1.783432 0.002276 0.001760 0.0
0.084484 0.851416 -0.001137 0.0
1.411078 0.934041 -0.002178 0.0
1.110055 0.126914 0.000620 0.0
2.459372 0.732880 0.003453 0.0
0.183226 0.821400 0.000707 0.0
0.519133 0.122160 0.000690 0.0
1.663471 1.341312 0.000190 0.0
4.463261 1.462523 0.000866 0.0
2.384271 1.115225 0.001219 0.0
2.788065 0.372309 -0.001054 0.0
1.604412 0.699631 -0.000300 0.0
3.639171 0.355436 0.002169 0.0
3.094785 0.349649 -0.001546 0.0
3.694552 1.576679 0.001712 0.0
1.571605 0.119789 -0.000142 0.0
4.412554 1.446890 -0.001585 0.0
4.462371 1.062836 0.000642 0.0
3.909581 0.477351 -0.001437 0.0
3.746336 1.514781 0.000662 0.0
1.163177 0.121670 0.000880 0.0
2.211459 0.279894 -0.002238 0.0
4.329511 1.334460 0.001766 0.0
2.884566 0.200947 0.005462 0.0
1.212611 1.153670 0.001387 0.0
4.168128 1.292617 0.003084 0.0
3.959420 0.700044 0.001273 0.0
1.085396 0.470483 0.001337 0.0
1.046314 0.429464 -0.001744 0.0
1.726054 0.088381 0.000840 0.0
3.199091 0.386600 0.001803 0.0
3.916388 0.812727 -0.003138 0.0
1.043699 0.934397 -0.000464 0.0
4.102025 0.353558 0.002082 0.0
2.513671 0.682004 0.000876 0.0
3.456259 0.695850 -0.000183 0.0
2.969073 1.458544 -0.002605 0.0
3.020774 1.130243 0.000554 0.0
3.675100 1.073498 -0.001323 0.0
1.354840 0.954915 0.001249 0.0
4.140410 1.566846 0.000261 0.0
0.478380 0.393358 0.000420 0.0
4.401385 1.403484 0.000257 0.0
3.585594 0.836081 0.001834 0.0
3.428456 0.903441 -0.000383 0.0
3.542921 1.041088 0.000872 0.0
3.909305 0.906931 -0.000041 0.0
3.156847 0.596145 0.002347 0.0
4.320187 0.236263 -0.002080 0.0
3.874693 1.465186 0.000403 0.0
2.128575 0.287034 0.001313 0.0
2.298039 0.870095 -0.005269 0.0
0.202069 0.232741 -0.004761 0.0
2.528203 0.960195 0.004189 0.0
2.369202 1.249824 0.001072 0.0
4.246404 0.770248 0.000226 0.0
0.849198 1.562249 0.000045 0.0
4.146049 0.925067 0.000845 0.0
1.241071 0.535251 -0.001919 0.0
4.017798 1.403597 -0.002706 0.0
3.963246 0.695923 -0.000456 0.0
2.132412 1.263565 0.001859 0.0
3.386171 0.942789 0.000789 0.0
4.523149 0.019537 0.003283 0.0
1.788017 0.901382 -0.001725 0.0
1.043205 0.566630 -0.002790 0.0
2.181776 0.112766 -0.002553 0.0
4.367598 1.363781 -0.003459 0.0
4.418085 0.772184 0.002368 0.0
1.883853 0.748327 -0.001091 0.0
0.904840 1.030364 0.005348 0.0
1.228746 0.829761 -0.000855 0.0
0.530249 0.327119 -0.000249 0.0
3.365923 1.086040 0.000384 0.0
2.689110 1.454576 0.001055 0.0
2.140923 0.187327 0.002097 0.0
4.157705 1.480510 0.006846 0.0
3.426528 1.076796 0.001844 0.0
1.724914 0.846225 0.000928 0.0
2.636769 1.084683 -0.001171 0.0
3.727156 1.012253 -0.003389 0.0
3.404366 1.231023 0.003918 0.0
3.484744 1.529822 0.004565 0.0
4.485508 1.441353 -0.002584 0.0
4.467468 0.091639 -0.002950 0.0
2.733580 0.952305 0.003886 0.0
3.349467 1.145866 0.002521 0.0
3.274538 0.674336 0.000657 0.0
2.426059 0.023329 -0.000338 0.0
3.942595 0.968408 -0.001277 0.0
1.009145 1.391539 -0.005168 0.0
1.129280 0.836125 0.001599 0.0
1.159775 0.054576 -0.000791 0.0
0.136760 1.291685 -0.000483 0.0
2.572228 0.568710 -0.001424 0.0
1.676572 0.584715 -0.000573 0.0
3.199525 1.124046 -0.001068 0.0
1.325269 1.499356 0.001981 0.0
2.984704 0.082285 0.004193 0.0
4.389014 0.162321 -0.000012 0.0
2.964492 0.775434 -0.001876 0.0
1.956242 0.606446 -0.000406 0.0
0.381286 1.487326 -0.003571 0.0
1.790630 0.906693 -0.003308 0.0
1.882299 0.916771 0.001389 0.0
2.378723 0.919500 -0.001293 0.0
3.462216 1.565247 0.000007 0.0
3.330707 1.545896 -0.004036 0.0
1.530828 0.890987 0.002175 0.0
2.395113 0.001223 -0.000843 0.0
4.400876 0.714118 -0.002153 0.0
3.426125 0.382823 -0.000251 0.0
2.193062 0.940307 0.000205 0.0
2.280581 1.358278 0.000833 0.0
2.290019 1.006012 -0.001447 0.0
1.156017 1.426776 -0.001346 0.0
1.747767 1.088554 0.001309 0.0
3.148452 1.035646 -0.007611 0.0
3.005717 1.175465 0.002084 0.0
1.928318 0.104103 0.003362 0.0
0.461890 1.597650 0.002460 0.0
2.986240 1.558645 -0.000686 0.0
2.065279 1.467425 -0.000033 0.0
3.447457 0.195693 -0.000750 0.0
2.793682 1.038212 0.000566 0.0
1.563094 1.593351 -0.001441 0.0
4.208038 1.419108 0.002129 0.0
2.146935 1.419926 -0.002785 0.0
2.628468 1.051817 0.000680 0.0
0.997795 1.519859 -0.000771 0.0
1.320432 1.468051 0.001131 0.0
3.520223 1.471606 -0.002157 0.0
4.122131 0.145983 -0.001211 0.0
3.253280 1.049753 0.000675 0.0
0.337630 1.591663 -0.001563 0.0
4.466885 0.919378 -0.001389 0.0
4.480996 1.471823 -0.000998 0.0
2.374143 0.343278 -0.001773 0.0
0.021559 1.173172 0.000131 0.0
4.226950 0.294367 0.001815 0.0
3.664303 0.262368 0.001253 0.0
3.761338 0.825784 0.000866 0.0
3.430542 0.309754 -0.000591 0.0
0.131630 0.008697 0.002337 0.0
0.767496 0.758099 -0.001590 0.0
4.033726 1.028679 -0.001779 0.0
0.726348 0.694227 0.001311 0.0
3.910883 0.491789 0.003821 0.0
0.165569 0.277223 -0.001123 0.0
3.989892 0.987188 -0.001284 0.0
2.887995 0.400869 -0.003039 0.0
2.406361 0.503484 0.003109 0.0
3.765534 0.968657 0.002215 0.0
1.075392 1.455931 -0.002546 0.0
1.894663 1.405386 0.003834 0.0
2.977227 0.945834 -0.004546 0.0
4.192615 1.458513 -0.002513 0.0
4.531739 0.087750 -0.000465 0.0
0.783542 0.877152 0.003628 0.0
3.504869 1.507309 0.002855 0.0
1.399710 1.522475 -0.000542 0.0
4.348653 0.632063 0.001962 0.0
0.395620 1.093074 0.003133 0.0
4.164331 0.226644 0.001721 0.0
2.380835 1.471119 -0.000705 0.0
3.903714 1.028568 0.003904 0.0
0.528229 1.284428 -0.000231 0.0
4.534063 1.373787 0.001462 0.0
0.881689 1.444789 -0.000257 0.0
3.690468 0.635584 -0.002858 0.0
2.059163 1.167946 -0.001025 0.0
0.985462 0.998714 0.002894 0.0
2.911978 1.552441 -0.001350 0.0
0.539200 0.769124 0.000373 0.0
1.477365 0.520501 0.001817 0.0
0.384400 0.819123 0.000328 0.0
3.740645 0.532723 0.004361 0.0
3.328689 0.341046 -0.000597 0.0
3.639409 1.593436 -0.000691 0.0
4.116966 1.369158 0.001679 0.0
0.229786 1.160732 0.001613 0.0
2.350556 0.575245 -0.000889 0.0
1.579643 0.638016 0.001375 0.0
0.239449 0.650660 0.002345 0.0
0.943406 0.198550 0.001836 0.0
1.513072 1.418088 0.002144 0.0
1.821260 0.654313 -0.003061 0.0
2.762768 1.250609 -0.003916 0.0
0.653203 0.902012 0.004323 0.0
1.988125 1.266350 0.001544 0.0
3.175870 0.232905 0.001062 0.0
0.548403 0.917825 -0.000579 0.0
2.444233 0.871364 -0.001767 0.0
1.940065 1.152096 0.000545 0.0
1.064435 0.088402 -0.002436 0.0
0.986966 1.581712 -0.002331 0.0
2.102679 0.534322 -0.001047 0.0
2.166720 0.577143 0.003452 0.0
3.843351 1.338833 0.001219 0.0
3.351629 1.337687 0.002342 0.0
0.875685 0.146513 0.000054 0.0
3.390624 0.542071 0.000241 0.0
1.910513 0.741754 -0.002830 0.0
2.580917 0.887548 -0.001430 0.0
3.745755 0.681257 0.000081 0.0
2.080479 0.431150 0.000448 0.0
2.595888 0.275047 -0.001750 0.0
3.464945 1.442633 -0.001234 0.0
2.735309 0.965348 0.002719 0.0
3.568504 0.804726 -0.000017 0.0
3.008440 0.323434 -0.000776 0.0
0.161280 0.474772 -0.001145 0.0
0.015156 0.337609 -0.000028 0.0
0.408620 1.243438 -0.000969 0.0
4.550273 0.981035 -0.001499 0.0
2.273783 1.560638 -0.005027 0.0
1.040117 0.474772 0.001498 0.0
3.556105 0.566434 0.002844 0.0
2.645904 0.212312 -0.001415 0.0
4.296203 0.352832 0.001821 0.0
0.666287 1.428154 0.000977 0.0
4.433468 1.435855 -0.000897 0.0
1.402840 0.662232 0.003124 0.0
4.067630 1.325524 0.003951 0.0
3.050381 0.763660 -0.003309 0.0
3.530914 0.832977 -0.001291 0.0
0.102612 1.422321 0.001543 0.0
1.151466 1.573073 -0.001304 0.0
1.770119 0.561588 0.001933 0.0
3.341310 1.559577 -0.000388 0.0
4.489734 0.060421 -0.005102 0.0
0.222739 0.510591 0.001724 0.0
1.646456 0.706528 -0.001854 0.0
0.439202 0.546203 0.000602 0.0
1.516745 0.926275 0.001381 0.0
4.338762 0.687141 -0.000874 0.0
2.482111 1.497185 0.000060 0.0
4.457157 0.755314 0.002566 0.0
1.611614 1.411385 0.000886 0.0
1.714633 1.053648 0.001538 0.0
0.903835 1.565991 -0.000278 0.0
4.155522 0.234969 0.002139 0.0
1.305516 1.315029 0.001491 0.0
0.115863 0.736785 -0.000513 0.0
2.320505 0.058487 0.002940 0.0
3.643835 0.360583 0.003134 0.0
2.067027 0.289978 -0.000573 0.0
2.131302 1.240384 0.000390 0.0
4.406173 1.580568 0.000265 0.0
3.193956 1.107462 -0.001162 0.0
2.281115 0.349945 0.001920 0.0
0.900088 1.333509 0.002218 0.0
1.277981 1.453332 -0.000264 0.0
3.748938 0.346345 0.000936 0.0
0.128829 0.065417 -0.002698 0.0
4.359710 0.857529 0.004867 0.0
2.646839 0.695546 0.001042 0.0
3.851720 0.705482 -0.002638 0.0
3.486229 0.740296 -0.000861 0.0
0.813036 0.896831 0.000204 0.0
0.615244 0.432344 -0.000492 0.0
4.033253 -0.000644 0.000869 0.0
4.183227 1.347294 -0.001407 0.0
2.538505 0.066523 0.001777 0.0
0.388364 0.092144 0.002270 0.0
4.062424 1.167496 -0.005296 0.0
4.345463 0.498941 -0.000700 0.0
4.263288 1.091490 -0.002530 0.0
1.105538 1.447909 0.006309 0.0
2.188056 0.779392 -0.001128 0.0
0.406022 1.203168 0.001694 0.0
3.222912 0.112511 -0.000627 0.0
3.806599 0.353164 -0.000636 0.0
1.810099 0.976035 0.000100 0.0
0.767659 0.738595 0.004398 0.0
2.429688 0.906920 -0.000200 0.0
3.855231 1.409994 0.000089 0.0
0.010556 0.005493 -0.002060 0.0
1.616827 0.500991 0.000093 0.0
0.405366 0.798886 -0.003146 0.0
1.431553 0.959602 0.000918 0.0
3.388518 1.120681 0.000445 0.0
3.760853 1.400922 -0.002034 0.0
0.535053 1.055167 0.005111 0.0
1.277161 0.594337 0.006511 0.0
0.990766 0.412840 -0.000443 0.0
1.338869 0.016893 -0.001540 0.0
2.213681 1.461126 0.001351 0.0
3.648420 1.037674 0.001809 0.0
4.270825 0.296764 0.006873 0.0
4.491655 1.089083 -0.001779 0.0
2.944603 0.681730 0.001573 0.0
4.546134 0.341008 0.000739 0.0
4.189364 1.083547 0.001598 0.0
3.344519 0.702859 0.000626 0.0
1.330583 0.179921 0.002996 0.0
3.954847 1.046187 0.004502 0.0
0.593920 0.324788 -0.002624 0.0
4.184831 0.657217 0.001808 0.0
4.308996 1.424079 -0.002164 0.0
1.760828 1.500343 0.003304 0.0
0.284321 0.739951 0.003699 0.0
4.295498 0.881646 -0.000128 0.0
3.325790 0.243590 0.004159 0.0
1.615854 1.184722 0.000990 0.0
3.086826 1.290770 0.000264 0.0
3.110153 0.273435 -0.001114 0.0
3.254604 0.602915 0.001354 0.0
3.566421 0.555162 0.002307 0.0
4.233326 0.631622 -0.004307 0.0
4.294279 0.511145 -0.000073 0.0
1.212922 1.374644 0.000494 0.0
1.156131 1.500176 -0.002409 0.0
1.789052 0.605503 0.000601 0.0
2.243322 0.815075 -0.002730 0.0
2.019082 1.416378 -0.001290 0.0
2.117745 1.024265 0.002901 0.0
2.794297 1.495997 0.000556 0.0
3.097311 1.076751 -0.001337 0.0
2.046271 0.974754 -0.003641 0.0
1.596713 1.106919 0.002945 0.0
3.392528 0.417589 -0.002162 0.0
2.658582 0.396578 -0.002537 0.0
2.769054 0.572815 -0.002640 0.0
2.283716 0.772843 0.000338 0.0
4.488952 1.395567 0.003643 0.0
3.643006 0.349351 -0.000977 0.0
3.430767 0.449255 -0.001053 0.0
4.250407 1.525244 -0.002124 0.0
3.234990 0.652635 0.005265 0.0
1.914952 0.036458 -0.003895 0.0
3.711535 0.200256 -0.003002 0.0
4.132350 1.305557 0.000996 0.0
1.646116 1.152883 -0.001691 0.0
2.224977 0.158764 -0.001589 0.0
3.788287 0.239435 0.002084 0.0
2.398680 0.097263 0.003440 0.0
0.278375 1.031224 0.002131 0.0
0.588191 1.269171 0.003099 0.0
2.146856 1.380597 0.003048 0.0
3.031570 0.972334 0.000229 0.0
2.139539 0.103322 0.000661 0.0
2.982059 0.256940 0.005410 0.0
3.153135 1.194327 -0.001259 0.0
1.804921 1.516607 -0.001147 0.0
0.415107 1.233002 0.002973 0.0
3.714432 1.027200 -0.004063 0.0
1.542543 1.084320 0.003579 0.0
2.759489 0.703760 0.001214 0.0
3.671726 1.355622 0.001530 0.0
0.740523 0.030086 -0.000882 0.0
0.737263 0.825093 0.000382 0.0
1.435744 0.160543 -0.002046 0.0
0.734293 1.471091 -0.001657 0.0
0.399826 0.406572 0.001909 0.0
4.560006 0.433311 -0.001002 0.0
3.094477 0.320194 -0.000692 0.0
2.267818 1.214119 0.006383 0.0
1.483300 1.455603 0.001572 0.0
2.967034 1.416539 -0.005581 0.0
2.799925 0.959643 -0.002490 0.0
2.029035 1.467368 0.002246 0.0
4.084088 0.958342 -0.001068 0.0
3.850639 0.648661 -0.001064 0.0
2.233683 1.403974 0.001433 0.0
1.874258 1.509733 -0.001341 0.0
0.743393 0.563919 0.002554 0.0
0.115050 0.984117 0.001919 0.0
1.655382 0.005334 0.002525 0.0
3.995083 0.557366 0.003623 0.0
4.384562 0.330144 0.000590 0.0
0.545916 0.716427 -0.002809 0.0
3.410830 0.656959 -0.002339 0.0
1.680621 0.005740 -0.004342 0.0
4.170473 1.196425 0.002011 0.0
1.938093 0.683146 -0.001179 0.0
2.131987 0.413782 -0.006448 0.0
3.679309 0.255915 0.000402 0.0
3.129780 0.044812 -0.001813 0.0
2.122201 1.386555 0.001376 0.0
3.768578 0.834582 0.001813 0.0
1.226733 1.300114 -0.000482 0.0
3.747188 1.024542 -0.001867 0.0
2.545703 0.601194 -0.001584 0.0
0.210325 0.802798 0.000047 0.0
3.613595 0.580263 0.001135 0.0
4.373092 0.861712 -0.002336 0.0
0.285191 0.266352 -0.002180 0.0
1.760938 1.464439 -0.003747 0.0
2.533165 1.453898 -0.000858 0.0
0.235360 1.410036 0.000461 0.0
0.634083 0.730949 0.001811 0.0
3.328155 0.510354 0.003844 0.0
4.538671 0.284888 -0.002192 0.0
2.692483 0.807768 0.000535 0.0
3.743897 0.108771 -0.001153 0.0
4.357721 1.492133 -0.000257 0.0
0.010115 1.305453 -0.000458 0.0
3.323818 1.234387 0.003144 0.0
0.839441 0.675052 -0.000635 0.0
2.860195 0.432500 -0.000619 0.0
2.477189 0.068495 -0.001765 0.0
1.290768 0.031501 0.003395 0.0
2.429584 1.364208 0.002448 0.0
4.024840 0.611121 0.000937 0.0
2.657798 1.353699 0.001706 0.0
3.302864 0.689783 -0.000345 0.0
0.708385 0.206386 0.002274 0.0
2.379049 0.617844 -0.002251 0.0
0.596456 0.947950 0.003098 0.0
3.955359 1.037711 0.001869 0.0
3.763652 0.522149 0.000933 0.0
3.412369 0.579958 0.001044 0.0
0.296292 0.627627 -0.000285 0.0
3.518800 0.716484 0.001118 0.0
2.332756 1.477829 0.001078 0.0
4.426668 1.327192 -0.004171 0.0
2.929471 0.421068 0.001062 0.0
0.722818 0.529327 -0.001300 0.0
3.546239 1.037760 -0.002767 0.0
0.094015 0.512993 0.002920 0.0
4.312044 1.265841 0.001239 0.0
0.790094 0.213914 0.004988 0.0
4.543042 0.458661 0.003551 0.0
4.450079 1.129248 -0.002211 0.0
0.420725 0.712282 -0.000740 0.0
1.212398 0.343664 -0.001130 0.0
2.547592 1.230138 -0.003074 0.0
3.732430 0.891188 0.001240 0.0
3.116596 1.322881 0.000080 0.0
3.743220 0.143074 -0.002195 0.0
4.531304 1.586841 0.003608 0.0
1.420301 1.459281 0.001190 0.0
3.660417 0.801677 0.001620 0.0
0.947172 0.857944 -0.004466 0.0
2.995231 0.592639 0.001305 0.0
0.264295 0.827683 0.001839 0.0
2.195862 1.406764 -0.000547 0.0
2.107085 0.751186 0.001884 0.0
1.359390 0.610864 0.001661 0.0
3.587448 0.874940 -0.004409 0.0
0.904042 0.964963 -0.003668 0.0
3.174673 0.416712 -0.000220 0.0
2.594627 1.202239 0.003530 0.0
2.554671 1.149097 -0.002403 0.0
3.869571 0.401236 0.001913 0.0
4.081052 0.308327 0.001714 0.0
4.327028 1.560128 0.001532 0.0
1.037114 0.786843 -0.001446 0.0
0.780147 1.171408 0.000810 0.0
0.515306 1.056880 -0.003155 0.0
3.462298 1.290089 0.001683 0.0
0.883149 0.855100 -0.001413 0.0
3.046391 0.278039 -0.001619 0.0
0.802485 1.124459 0.000421 0.0
1.491817 0.516553 0.001149 0.0
3.662405 0.592958 0.000906 0.0
2.429659 0.152369 -0.000261 0.0
0.453565 1.222654 -0.001536 0.0
2.036155 1.547673 0.005955 0.0
1.809704 0.732985 -0.000970 0.0
2.823113 0.283514 0.002971 0.0
3.386841 0.548058 0.003063 0.0
3.419590 0.055616 0.000225 0.0
2.823396 0.789122 0.001189 0.0
0.516710 0.099581 0.002092 0.0
2.324668 0.242640 0.001016 0.0
1.221263 0.159253 0.001474 0.0
4.317759 0.224027 -0.005742 0.0
1.608254 0.744804 0.003719 0.0
3.843930 0.358143 -0.000668 0.0
0.598525 1.369818 0.000155 0.0
2.404926 1.410596 0.001219 0.0
2.965647 1.088551 0.002010 0.0
3.876703 0.846729 0.001313 0.0
0.554839 1.405217 -0.000589 0.0
2.572579 0.498395 0.002120 0.0
3.959061 0.560475 -0.002598 0.0
3.141398 0.391542 -0.000523 0.0
2.343328 0.214669 -0.001382 0.0
1.255693 1.108673 -0.003292 0.0
0.575691 1.459117 0.000505 0.0
0.952436 1.584701 -0.000260 0.0
0.285736 1.420327 -0.001100 0.0
2.583413 0.824824 0.001119 0.0
2.579222 0.662676 -0.000117 0.0
0.727950 1.595875 0.005330 0.0
3.557706 0.678124 0.000555 0.0
1.682865 1.370250 -0.004057 0.0
2.359988 0.451749 -0.004241 0.0
1.919222 1.062848 -0.001740 0.0
0.537769 0.047989 0.003585 0.0
1.431367 0.718960 0.001647 0.0
4.174738 0.201730 -0.001515 0.0
1.001100 0.591590 0.000369 0.0
0.420126 0.989998 -0.000831 0.0
0.615140 0.045522 -0.003006 0.0
0.049413 0.132413 0.000536 0.0
4.467835 0.799840 0.001547 0.0
1.940390 0.297571 0.000952 0.0
2.083886 0.426449 0.001750 0.0
1.221771 0.384834 -0.002736 0.0
2.138934 1.607073 -0.001269 0.0
2.154476 1.550368 0.000824 0.0
3.120377 0.237201 -0.000677 0.0
2.370587 0.266969 -0.000758 0.0
2.694568 0.473777 0.002516 0.0
0.989485 1.059499 -0.001368 0.0
0.586623 1.228463 0.001730 0.0
1.155759 0.132057 0.001354 0.0
4.032645 0.090326 0.002726 0.0
3.446016 0.227821 -0.002681 0.0
0.285545 1.271359 -0.002984 0.0
3.483236 1.085706 0.000366 0.0
2.615758 0.214585 0.001333 0.0
1.605623 0.854650 0.001770 0.0
1.674342 1.160790 0.001785 0.0
2.161731 1.051837 0.001044 0.0
0.536846 0.949014 0.000496 0.0
4.224779 0.059106 0.000103 0.0
0.356548 0.117126 0.002230 0.0
3.163705 0.973747 -0.000129 0.0
0.914649 1.453100 0.000864 0.0
2.517092 0.137979 0.000880 0.0
3.844537 0.786233 -0.001109 0.0
1.965166 0.048462 0.000969 0.0
1.285128 0.774950 0.000400 0.0
2.262532 1.040174 -0.000590 0.0
1.091867 0.237151 -0.001075 0.0
1.825983 0.506390 0.000564 0.0
3.678210 1.587256 -0.000634 0.0
2.139287 0.714788 0.004883 0.0
4.231472 1.128366 -0.003728 0.0
0.585598 1.286862 0.000155 0.0
1.847269 0.568666 0.000714 0.0
4.081201 0.551314 -0.002834 0.0
3.478745 1.238610 0.002067 0.0
1.369071 1.138611 0.000690 0.0
1.538828 0.392497 0.001029 0.0
1.806290 1.507338 0.003654 0.0
0.835652 0.884856 -0.003354 0.0
2.345082 0.188889 0.000343 0.0
3.710708 0.251948 -0.002375 0.0
2.757490 1.144308 0.000217 0.0
0.559290 1.111330 -0.003557 0.0
3.358342 1.188980 -0.002894 0.0
1.510476 0.476485 -0.004294 0.0
0.310836 0.911243 -0.000130 0.0
0.947422 1.068097 0.001540 0.0
1.576327 1.440891 0.000525 0.0
3.445106 1.181055 -0.000196 0.0
4.244669 1.042320 0.000397 0.0
4.206813 0.618207 -0.001934 0.0
4.298413 1.543983 0.003001 0.0
3.578482 0.609936 -0.004162 0.0
3.665772 1.173360 -0.000652 0.0
1.040047 1.394683 0.000458 0.0
0.820864 1.253890 -0.000530 0.0
1.430889 0.981065 0.000898 0.0
2.528877 1.367715 -0.001298 0.0
0.873825 0.852657 -0.001378 0.0
1.989309 1.361292 0.005395 0.0
3.957110 0.359160 -0.004335 0.0
3.615159 0.493468 -0.003584 0.0
0.973564 0.866009 0.001337 0.0
3.738644 0.724197 0.002550 0.0
3.985660 1.102289 0.001858 0.0
0.861359 1.131358 -0.002834 0.0
2.526108 0.725454 -0.001574 0.0
3.072070 0.334472 0.000792 0.0
0.478251 0.150993 -0.002765 0.0
3.795926 0.654606 0.002912 0.0
0.372779 1.523705 -0.000841 0.0
0.904274 0.093458 0.003655 0.0
1.031994 0.146875 -0.001753 0.0
4.179996 1.433608 0.004145 0.0
2.071183 1.055826 0.003132 0.0
0.722833 1.418269 0.000149 0.0
3.644713 1.048717 -0.000891 0.0
2.861076 0.969799 0.000879 0.0
3.518907 0.169931 -0.000802 0.0
1.050048 1.276772 -0.002414 0.0
1.968685 0.698647 0.002308 0.0
4.272582 1.257975 -0.002208 0.0
4.377540 0.182783 -0.000679 0.0
2.015124 0.446738 -0.003550 0.0
1.299012 1.399323 0.001188 0.0
0.284217 1.234855 0.001370 0.0
2.532738 1.349773 0.001063 0.0
1.783440 1.253152 0.000719 0.0
2.653243 1.180715 0.003447 0.0
2.150008 0.787368 0.001972 0.0
3.733248 0.901081 -0.002173 0.0
3.727522 1.485127 -0.001739 0.0
4.338562 0.012595 -0.002632 0.0
3.674494 0.564988 0.002269 0.0
3.660912 1.002383 0.001721 0.0
2.251871 0.579282 0.003416 0.0
0.341722 0.357582 -0.001630 0.0
2.150890 0.618679 0.000564 0.0
3.062403 0.028267 -0.003461 0.0
1.736689 1.581850 -0.000505 0.0
1.151823 0.091740 -0.000458 0.0
1.972511 0.695027 -0.001088 0.0
0.734059 0.070231 -0.000896 0.0
2.999561 1.002051 0.000550 0.0
4.430463 0.029329 0.000756 0.0
1.088989 1.085825 -0.000595 0.0
1.520847 0.991245 -0.000990 0.0
1.307173 0.235013 0.000801 0.0
0.646917 0.704216 0.005238 0.0
1.282479 0.236437 -0.000869 0.0
1.746477 0.640619 -0.001524 0.0
0.963351 1.027387 -0.004280 0.0
3.425162 0.098229 0.000567 0.0
3.538323 0.132177 0.000186 0.0
1.539186 0.576122 -0.004797 0.0
0.905230 1.599425 -0.001822 0.0
0.420511 1.393317 -0.001289 0.0
3.827742 1.489102 0.000100 0.0
2.501631 1.330826 0.002998 0.0
3.530125 1.415489 -0.000418 0.0
2.290419 0.485942 0.002296 0.0
1.899427 1.222970 0.001138 0.0
2.374977 0.940224 -0.006021 0.0
1.689777 0.665405 -0.003393 0.0
0.239202 1.118671 -0.000417 0.0
0.780003 0.309774 0.002886 0.0
1.755133 1.129282 0.000128 0.0
1.435174 1.402461 -0.002813 0.0
1.249048 0.598473 -0.003155 0.0
1.924345 0.705006 -0.002508 0.0
4.070214 0.137888 0.004066 0.0
3.679831 0.119010 -0.000689 0.0
3.682859 1.052156 -0.000198 0.0
1.107922 0.771675 -0.002396 0.0
2.353041 1.480613 0.000013 0.0
0.091877 1.268950 0.001205 0.0
4.409802 0.801374 -0.000202 0.0
1.517379 0.788236 -0.000598 0.0
3.298106 1.377661 -0.002598 0.0
3.194587 1.083316 0.005559 0.0
2.004336 0.301957 0.001672 0.0
0.227880 1.053392 -0.000346 0.0
0.012201 0.048908 -0.000585 0.0
1.706566 1.441124 -0.000382 0.0
1.523882 1.282370 -0.002079 0.0
0.083814 0.055628 0.001200 0.0
3.249578 1.364309 -0.000921 0.0
1.850724 0.585397 -0.002714 0.0
2.293531 1.347074 0.002837 0.0
1.321530 0.218833 0.001769 0.0
0.038708 0.872017 0.000254 0.0
4.423723 1.044062 -0.000711 0.0
3.904332 1.446992 0.003473 0.0
0.994041 1.048207 0.002351 0.0
0.601899 1.205490 0.000047 0.0
2.774074 0.404984 0.001147 0.0
4.347227 1.114629 -0.002348 0.0
3.119597 1.306406 -0.002261 0.0
1.409283 0.095979 0.000689 0.0
0.381410 0.957549 0.000669 0.0
3.362187 0.395814 0.000834 0.0
0.478617 0.471506 -0.003181 0.0
0.726291 0.817886 0.003931 0.0
3.712059 1.571218 -0.001086 0.0
3.639140 0.185030 -0.000986 0.0
4.145799 0.248373 0.003167 0.0
0.830192 0.484951 0.001177 0.0
4.197737 0.568190 -0.001325 0.0
3.161269 1.046168 -0.000654 0.0
0.393282 0.998552 -0.000353 0.0
3.991913 0.500549 -0.003365 0.0
2.117849 1.245026 0.002337 0.0
2.930475 1.403632 -0.000168 0.0
2.706131 1.197887 0.001721 0.0
2.354563 0.776780 0.002109 0.0
2.814311 1.439685 0.001843 0.0
0.712065 1.360732 -0.001699 0.0
1.753434 0.916245 -0.002400 0.0
3.316780 0.286983 -0.001601 0.0
2.744179 0.714237 -0.000324 0.0
3.197345 0.460269 -0.000362 0.0
3.116243 1.175127 0.000963 0.0
3.410465 1.331052 -0.002242 0.0
4.278225 0.697771 -0.005205 0.0
3.753745 1.149807 -0.003058 0.0
0.606333 1.334744 -0.001550 0.0
3.448913 0.148886 -0.000441 0.0
1.128579 1.585671 -0.002194 0.0
1.441920 0.608470 -0.002396 0.0
4.420137 0.145979 0.004996 0.0
2.347774 0.221891 -0.002143 0.0
2.328387 0.112355 0.000443 0.0
4.358792 0.390841 -0.002582 0.0
3.058629 0.639257 0.000001 0.0
1.882292 0.198877 -0.001907 0.0
3.842296 0.363755 0.000336 0.0
0.310964 0.083473 0.001901 0.0
3.230098 0.263225 -0.006207 0.0
4.019197 0.191605 0.000775 0.0
1.787930 0.281555 -0.003428 0.0
2.100554 0.150789 -0.003569 0.0
0.579714 1.144170 0.001331 0.0
3.236574 1.363185 -0.000460 0.0
1.302668 1.502657 -0.001263 0.0
4.359226 0.584826 0.005387 0.0
3.187475 1.516087 -0.002046 0.0
2.259504 1.319890 -0.000172 0.0
2.649739 0.716327 0.001750 0.0
0.230655 1.530926 0.002619 0.0
0.462536 0.137768 0.002086 0.0
4.448178 0.876372 0.004857 0.0
4.280020 1.590314 0.001540 0.0
1.557762 0.903078 -0.000313 0.0
3.180434 0.005492 0.001081 0.0
0.529503 1.374774 0.003039 0.0
4.464900 1.351369 -0.003220 0.0
3.178744 1.422915 0.004039 0.0
4.295963 0.225635 0.000017 0.0
0.429883 1.272753 0.000146 0.0
3.688942 1.314664 -0.000478 0.0
3.006798 1.502044 -0.005225 0.0
3.435340 0.819673 -0.003431 0.0
2.715645 0.447941 0.001288 0.0
0.708447 1.239632 0.000486 0.0
0.049476 1.220917 -0.002624 0.0
3.492195 0.151585 0.000655 0.0
4.405422 1.567530 0.000502 0.0
3.726079 0.488587 -0.000432 0.0
1.303890 0.934477 0.001896 0.0
4.412660 1.289056 -0.003690 0.0
3.834949 0.585052 0.001495 0.0
2.382187 1.232030 0.002333 0.0
1.993952 1.591003 -0.003706 0.0
3.092366 1.158041 0.000181 0.0
2.559195 0.284525 -0.000818 0.0
1.626049 1.399430 -0.004626 0.0
1.895576 1.427739 -0.002854 0.0
0.052843 0.972680 -0.002542 0.0
3.991612 0.656190 -0.007338 0.0
3.502575 0.764805 -0.000789 0.0
0.842511 0.266333 0.000162 0.0
3.105746 0.574409 0.000908 0.0
3.514715 0.240625 -0.002516 0.0
0.541385 1.025214 0.002508 0.0
2.672087 0.952755 -0.000673 0.0
3.228252 0.586300 0.001074 0.0
1.908025 1.588079 0.000442 0.0
3.228309 0.646853 0.001163 0.0
4.084961 0.465783 0.002318 0.0
2.649124 0.118248 0.002676 0.0
0.535905 1.537808 -0.001929 0.0
1.149844 1.580660 0.002021 0.0
3.792553 1.491334 0.001391 0.0
3.677679 0.375560 -0.002345 0.0
1.898539 0.536682 0.002653 0.0
3.589619 0.292155 -0.003653 0.0
0.195356 0.808735 0.000074 0.0
0.864554 0.383751 0.002366 0.0
1.325573 0.431112 -0.002780 0.0
0.886492 0.570138 -0.002342 0.0
2.725792 1.349553 -0.000056 0.0
3.906253 1.223232 -0.000269 0.0
2.111351 0.683447 0.001075 0.0
1.873035 0.312899 -0.001351 0.0
3.989582 0.178358 0.001710 0.0
0.215363 1.521222 -0.004141 0.0
0.960076 1.472007 -0.002087 0.0
3.775413 0.696341 0.002463 0.0
0.839964 1.489991 -0.002556 0.0
3.683898 0.246073 -0.002795 0.0
1.448893 1.576833 -0.000448 0.0
1.667294 0.216865 -0.001237 0.0
0.498902 1.008612 -0.000233 0.0
2.965478 1.385125 0.000896 0.0
4.287636 1.320746 0.000751 0.0
4.455013 1.548831 0.004089 0.0
3.138541 1.113967 0.003284 0.0
2.761995 1.585865 0.005404 0.0
1.645488 0.760083 -0.000205 0.0
1.917636 0.663937 -0.000328 0.0
1.930341 0.013583 -0.002849 0.0
3.026327 0.349002 0.003519 0.0
0.247056 1.221082 -0.001743 0.0
0.519490 0.825986 0.002347 0.0
2.192842 0.227717 0.002022 0.0
2.395800 1.004299 0.005370 0.0
0.498084 1.274851 0.002202 0.0
0.134246 0.436172 -0.000217 0.0
3.564427 0.061274 0.003550 0.0
0.919690 0.274261 0.001963 0.0
0.996414 0.278885 0.002883 0.0
1.592648 0.964866 -0.002321 0.0
1.295266 0.439564 0.001438 0.0
1.088118 1.199997 -0.000904 0.0
2.044063 0.342404 0.002839 0.0
1.097376 0.027477 0.001964 0.0
3.918468 0.148886 -0.002096 0.0
4.040697 0.627360 0.002998 0.0
3.250766 1.085218 0.001276 0.0
0.006974 0.209502 -0.001855 0.0
3.481760 1.287991 -0.002845 0.0
0.660705 0.861011 -0.002287 0.0
2.020951 1.451379 -0.001413 0.0
3.485382 1.213059 -0.002256 0.0
2.411152 0.733849 0.003232 0.0
2.388527 0.128980 0.001116 0.0
1.732958 0.693921 -0.003160 0.0
0.758472 1.482016 -0.001052 0.0
0.016294 1.537253 0.004574 0.0
0.492142 1.479141 0.000482 0.0
2.116953 0.212625 0.003263 0.0
2.235625 1.091613 0.001070 0.0
3.330345 0.615756 -0.000094 0.0
0.651967 0.525314 -0.000284 0.0
3.265846 0.402967 -0.003544 0.0
0.621178 0.844503 -0.004040 0.0
2.385187 0.243535 -0.004245 0.0
1.429374 0.683043 -0.001144 0.0
2.601815 0.660379 0.001424 0.0
2.398298 0.891915 -0.003253 0.0
1.151614 0.301780 -0.000053 0.0
4.283191 0.371351 -0.002384 0.0
3.520649 1.594225 0.000074 0.0
0.834410 1.041855 0.001251 0.0
3.755834 0.508980 -0.001467 0.0
2.398043 0.019902 -0.002164 0.0
0.519076 0.433917 -0.002314 0.0
4.395565 0.047056 -0.000168 0.0
3.314257 0.036690 -0.000537 0.0
0.462650 0.634514 -0.004256 0.0
3.159789 0.753404 -0.001485 0.0
1.520218 0.693182 0.001852 0.0
3.769990 0.977788 0.003518 0.0
3.326050 1.611034 0.000241 0.0
1.262714 1.413733 -0.000353 0.0
2.649086 0.529924 0.001237 0.0
1.361085 0.905515 -0.001349 0.0
2.804347 0.152372 -0.002152 0.0
0.467014 0.258971 0.002044 0.0
1.333287 0.766950 0.001534 0.0
2.767816 0.753434 0.001310 0.0
0.540535 1.169942 0.003469 0.0
3.935997 0.214636 -0.000176 0.0
3.768677 1.564283 -0.002608 0.0
2.680213 0.450389 -0.003981 0.0
1.602076 1.505068 0.006491 0.0
2.715779 0.912015 -0.001079 0.0
3.159708 1.569123 -0.000564 0.0
2.393444 1.599688 -0.003424 0.0
1.254170 1.094618 0.002280 0.0
2.635811 0.286995 0.000396 0.0
2.869434 0.979661 -0.000070 0.0
1.704340 0.112374 -0.002000 0.0
1.042601 0.479529 0.000638 0.0
3.914493 1.530794 -0.000158 0.0
1.357228 1.237428 -0.000103 0.0
0.884533 0.059211 0.004809 0.0
0.009693 0.360820 -0.002753 0.0
2.613198 0.116924 -0.001520 0.0
1.226591 1.415446 -0.002858 0.0
4.547190 0.309260 -0.001749 0.0
0.098283 1.286891 -0.001786 0.0
1.822275 0.749459 -0.001573 0.0
4.280769 0.276929 -0.000401 0.0
1.283750 1.492108 0.001943 0.0
3.697892 1.473158 0.004074 0.0
4.365830 0.222917 0.000869 0.0
4.179142 1.303010 -0.003424 0.0
3.868829 0.711361 -0.000367 0.0
2.785489 1.077090 -0.001661 0.0
2.969834 0.772835 -0.002460 0.0
0.900447 1.259760 -0.002185 0.0
2.698870 0.088848 0.003702 0.0
0.948672 0.139296 -0.001502 0.0
2.576152 1.366685 -0.000623 0.0
0.818726 0.561986 0.000069 0.0
1.882921 1.435972 0.000365 0.0
0.725176 0.452899 0.005023 0.0
