0.767114 0.268243 -0.000987 0.0
1.239288 0.035321 -0.001502 0.0
1.795568 0.927290 -0.003024 0.0
4.515133 1.467914 0.002371 0.0
-0.000331 0.789286 0.001161 0.0
1.083719 0.795442 0.001929 0.0
4.499066 0.987337 0.001287 0.0
0.471032 1.460212 -0.001781 0.0
0.769358 1.433834 -0.001396 0.0
3.750035 1.477889 -0.001928 0.0
0.911523 1.754762 0.002570 0.0
1.318176 0.615675 0.003219 0.0
4.280434 1.941091 0.001043 0.0
0.504876 1.664921 0.001435 0.0
1.003546 1.108669 -0.002812 0.0
3.038213 1.542844 -0.001677 0.0
0.115313 1.912222 0.001241 0.0
1.817895 1.265405 -0.004161 0.0
0.329560 1.907822 -0.000695 0.0
3.285790 0.106941 -0.003386 0.0
4.218646 1.298414 -0.002246 0.0
1.361803 0.785549 -0.001340 0.0
0.733658 0.679304 0.003755 0.0
0.379413 1.105321 -0.001540 0.0
4.333739 0.005744 0.001776 0.0
4.408744 0.043507 0.000341 0.0
4.149224 0.764208 -0.000148 0.0
2.828011 1.050449 0.002576 0.0
3.391092 0.047089 -0.002373 0.0
2.253598 1.732667 0.001128 0.0
1.798309 0.176522 -0.002703 0.0
1.612373 1.302452 -0.001710 0.0
0.443484 1.314236 -0.003222 0.0
4.451054 1.927976 -0.001741 0.0
0.025489 1.188504 -0.002337 0.0
1.133575 1.534020 0.000325 0.0
3.726591 1.306735 0.000823 0.0
3.024743 1.573800 0.005220 0.0
2.546317 0.539593 0.002734 0.0
1.730951 0.226209 0.000645 0.0
2.651240 0.661166 -0.000290 0.0
3.957377 1.295030 0.003763 0.0
4.313172 0.317038 -0.000172 0.0
1.267160 0.500559 -0.000855 0.0
2.335339 0.869298 -0.000863 0.0
4.788837 0.018574 0.001098 0.0
3.170078 0.759457 -0.002516 0.0
0.021634 0.550147 0.001624 0.0
0.137162 1.434542 -0.000375 0.0
1.337394 1.862957 -0.000738 0.0
0.656458 1.164705 -0.001678 0.0
4.710203 1.432813 0.004188 0.0
3.215966 1.504108 0.002180 0.0
2.530280 0.839085 0.004750 0.0
0.464444 0.497060 -0.000123 0.0
4.117595 0.214017 -0.001248 0.0
1.400217 1.458627 0.004485 0.0
2.163671 0.563330 -0.004847 0.0
3.860420 1.277925 0.000292 0.0
4.544399 0.848349 0.000475 0.0
3.379416 1.674815 -0.000405 0.0
0.845444 0.793663 0.004748 0.0
1.336550 1.508339 -0.000871 0.0
1.986532 1.537609 -0.000962 0.0
4.186399 0.457681 0.001524 0.0
4.064196 0.302132 0.001074 0.0
4.187944 0.862200 0.001704 0.0
0.688301 0.939660 0.001845 0.0
3.257884 0.269761 -0.003817 0.0
0.440336 0.514257 0.001759 0.0
0.641903 0.583234 -0.000520 0.0
3.800551 0.372898 -0.001955 0.0
3.229188 1.506044 0.004222 0.0
0.322624 0.868823 0.003218 0.0
0.712528 0.658281 -0.001324 0.0
0.641083 1.166849 -0.000739 0.0
0.637246 0.910389 -0.001480 0.0
3.709182 1.310525 -0.000909 0.0
2.797522 1.456975 0.000974 0.0
3.743055 1.525954 -0.003144 0.0
3.762467 0.881923 -0.000448 0.0
3.952832 0.183184 0.005267 0.0
1.385823 0.417881 0.000513 0.0
0.605380 1.340717 0.003609 0.0
0.975627 1.943547 0.002751 0.0
3.249177 1.552759 0.005320 0.0
4.314612 1.885601 -0.001457 0.0
1.763056 0.888176 0.000168 0.0
4.146179 0.557682 -0.002410 0.0
2.837685 0.861937 0.000162 0.0
1.263107 0.441647 -0.002058 0.0
1.206329 0.360073 -0.002321 0.0
1.228212 1.328302 0.005348 0.0
0.487991 0.505997 -0.003028 0.0
2.958829 0.765281 -0.001325 0.0
0.781609 1.997070 0.001504 0.0
0.409058 0.017610 0.000756 0.0
2.286015 0.454320 0.000517 0.0
2.507665 0.597469 0.000835 0.0
0.312372 1.630796 0.003272 0.0
0.884645 0.741396 -0.000898 0.0
1.251228 0.206059 -0.001193 0.0
0.674550 1.347168 -0.000225 0.0
4.331062 0.021436 0.001625 0.0
2.718215 1.482534 0.000062 0.0
0.736378 1.038973 -0.003464 0.0
2.769809 0.587425 0.000072 0.0
4.701108 0.644455 -0.000891 0.0
3.296163 0.329517 0.001299 0.0
3.939576 1.784292 0.003306 0.0
2.123549 0.872701 0.001208 0.0
1.332355 1.925232 0.002012 0.0
2.615526 0.638574 0.000512 0.0
3.906385 1.155062 -0.003819 0.0
2.792349 1.298879 0.002838 0.0
1.461873 0.311647 0.006160 0.0
1.393381 0.973749 -0.001877 0.0
4.545870 1.242906 -0.002869 0.0
0.005442 0.533057 -0.003120 0.0
0.704905 1.174607 0.001403 0.0
3.657540 1.828545 0.003491 0.0
3.589935 1.416144 -0.001827 0.0
3.141008 0.987177 0.003095 0.0
4.386798 0.117299 -0.000182 0.0
4.604287 0.555310 -0.000910 0.0
2.334162 1.725151 0.000328 0.0
0.414441 0.797010 -0.000348 0.0
4.164802 0.118324 -0.002849 0.0
1.376716 1.742853 0.003185 0.0
3.620215 0.960932 -0.000183 0.0
2.495681 1.494137 -0.002248 0.0
3.387897 0.770205 0.001606 0.0
0.052957 1.076838 0.000164 0.0
0.340623 1.366782 0.000076 0.0
4.388259 1.034526 0.001728 0.0
0.225418 2.051042 -0.000029 0.0
3.507934 0.121827 -0.004085 0.0
3.036467 0.196386 0.002574 0.0
2.187144 1.094709 -0.004118 0.0
2.320032 1.973091 0.000141 0.0
1.334192 1.501604 0.001970 0.0
0.988244 1.249430 0.003869 0.0
0.799808 1.760555 0.004446 0.0
1.216031 0.813769 -0.000461 0.0
1.110436 1.863479 -0.004139 0.0
1.845778 1.427086 -0.004065 0.0
1.230808 2.017157 -0.004988 0.0
2.362376 1.363197 0.000722 0.0
3.997622 1.102036 -0.001155 0.0
1.263486 1.157747 -0.001521 0.0
0.056359 0.201696 -0.002400 0.0
1.853334 1.948510 0.000618 0.0
1.457937 0.047944 -0.001771 0.0
3.148755 0.434156 -0.002944 0.0
1.038857 1.687960 -0.002513 0.0
3.058515 1.856965 0.005196 0.0
0.943036 0.376242 -0.001047 0.0
1.420977 1.207956 -0.000574 0.0
0.434404 0.780473 0.000308 0.0
0.380022 0.657625 0.003471 0.0
2.710795 0.266812 0.004111 0.0
1.982384 1.334925 0.000973 0.0
1.484128 2.040914 0.000501 0.0
4.335537 0.299564 0.003185 0.0
1.200488 0.515091 0.000261 0.0
4.285030 0.192406 -0.002376 0.0
3.437142 1.661538 0.000574 0.0
0.712529 0.530517 0.000248 0.0
4.195695 0.967060 -0.004615 0.0
4.670333 0.561478 -0.000989 0.0
3.096992 0.969204 -0.000476 0.0
4.169987 1.734879 0.001118 0.0
2.238243 1.119259 -0.000810 0.0
2.532183 0.124513 0.001252 0.0
0.668520 0.811256 0.002146 0.0
2.952436 1.616310 -0.001870 0.0
3.903853 0.424154 0.003140 0.0
1.887219 1.873312 0.002821 0.0
0.722675 0.278093 0.007100 0.0
3.656447 1.740775 -0.004911 0.0
4.467581 1.940940 -0.001863 0.0
1.481590 0.579635 -0.001637 0.0
0.381877 0.729557 -0.002429 0.0
4.280095 1.886772 -0.000058 0.0
2.846590 0.084669 -0.000020 0.0
1.235779 0.353344 0.000258 0.0
3.805267 2.000240 -0.004351 0.0
3.081602 1.658908 0.001710 0.0
1.406710 0.944700 0.003797 0.0
2.727700 1.331072 0.002173 0.0
4.766469 0.858751 0.002278 0.0
4.159479 0.221541 -0.002487 0.0
0.301153 1.277848 0.000568 0.0
3.107932 0.113940 -0.005156 0.0
2.949200 1.166955 0.002652 0.0
3.389618 1.464146 -0.003583 0.0
0.947632 0.542180 0.003000 0.0
4.332604 1.053730 -0.000719 0.0
3.069862 1.841089 0.002193 0.0
0.830857 1.854695 0.001635 0.0
4.266197 1.828472 0.000089 0.0
3.613515 1.257117 0.001293 0.0
4.551007 1.529122 0.000745 0.0
3.523109 0.993424 0.001530 0.0
3.572502 0.280853 0.000256 0.0
0.877979 1.344387 0.001187 0.0
1.372519 0.222659 -0.001676 0.0
1.956964 1.512586 -0.001969 0.0
3.097459 1.859228 -0.006522 0.0
2.163272 0.969016 0.000228 0.0
2.436173 0.830376 -0.002132 0.0
0.102100 0.528540 0.001114 0.0
2.460808 0.175846 0.001815 0.0
0.443008 1.496598 0.000147 0.0
3.325063 0.011683 0.000111 0.0
2.025746 1.331204 -0.000477 0.0
4.649737 0.994261 -0.000387 0.0
2.466636 0.003863 -0.000289 0.0
4.563225 0.517493 0.000815 0.0
1.425102 1.349159 0.005509 0.0
2.577262 1.586375 -0.001389 0.0
3.093104 0.185669 -0.003846 0.0
0.277052 1.634680 -0.004866 0.0
1.403113 1.554580 -0.000637 0.0
0.583000 1.923425 0.000169 0.0
3.275333 1.494546 -0.003854 0.0
2.659862 1.919304 -0.002372 0.0
1.116250 1.420161 0.003579 0.0
0.068047 0.220243 -0.001826 0.0
2.884288 0.424169 -0.000548 0.0
1.362375 1.230455 -0.001568 0.0
4.553617 0.600892 0.000520 0.0
3.476421 1.841676 -0.002220 0.0
3.071079 0.249597 -0.000959 0.0
2.054894 0.092879 -0.000149 0.0
1.379940 1.022026 -0.000754 0.0
0.309599 0.437775 0.004028 0.0
3.812959 1.044454 -0.001654 0.0
3.392963 1.688031 0.001908 0.0
1.798043 0.621553 0.001814 0.0
0.994091 0.629626 -0.001176 0.0
4.663826 1.697068 -0.000023 0.0
4.435744 1.098617 -0.001266 0.0
3.212103 0.276587 -0.000962 0.0
1.373020 0.908114 0.000922 0.0
2.900828 1.794635 0.000939 0.0
2.241133 1.374626 0.001861 0.0
1.753545 0.762074 0.001024 0.0
3.298393 0.006454 -0.000430 0.0
2.500666 1.641848 -0.002137 0.0
1.615898 2.027835 0.002208 0.0
2.253439 1.197147 0.003937 0.0
1.866088 1.535835 -0.000918 0.0
0.270924 0.190692 0.001872 0.0
4.820266 1.888929 0.000553 0.0
2.000373 1.769828 0.000228 0.0
2.224277 1.043534 -0.004130 0.0
3.922751 1.414644 0.001863 0.0
1.239973 0.168442 0.000869 0.0
4.581933 0.855074 0.001339 0.0
2.881704 0.123353 0.009159 0.0
3.946483 0.320201 -0.002796 0.0
3.417726 1.344643 0.002488 0.0
4.684967 1.497542 -0.001878 0.0
0.234056 0.376824 -0.001933 0.0
2.925686 0.137791 0.000758 0.0
4.653785 0.171170 0.002423 0.0
3.214281 0.561496 0.000987 0.0
0.777430 0.242130 0.001355 0.0
2.502209 1.127908 0.000628 0.0
1.948063 0.430787 -0.001929 0.0
1.720429 1.826241 0.001778 0.0
3.073305 1.617170 0.003470 0.0
4.336462 0.345214 -0.003490 0.0
3.818253 0.929746 -0.000724 0.0
0.897989 1.087758 0.002740 0.0
0.189745 0.940876 0.002238 0.0
4.478750 0.937175 -0.001303 0.0
1.375626 0.723391 -0.004298 0.0
4.486652 0.631678 0.003271 0.0
1.368486 1.108756 -0.001370 0.0
1.234439 1.779421 -0.001143 0.0
4.205722 0.178852 0.000630 0.0
3.730194 0.857603 0.002769 0.0
1.812792 1.724807 0.003059 0.0
4.726567 1.127330 -0.002862 0.0
3.912556 0.910308 -0.002876 0.0
4.606849 0.379191 0.000949 0.0
3.690752 1.436477 0.000978 0.0
0.462166 0.014845 -0.003394 0.0
4.026918 0.897365 -0.000303 0.0
1.550605 0.540237 0.000204 0.0
0.202962 1.523610 0.004082 0.0
2.296298 0.084184 -0.000279 0.0
0.672065 0.476855 -0.002396 0.0
4.714210 1.054985 -0.002326 0.0
4.290383 0.410661 -0.000452 0.0
3.498867 1.426495 -0.000200 0.0
0.207074 1.839096 0.001575 0.0
1.635400 1.845332 0.002300 0.0
2.269512 0.733982 0.002166 0.0
0.519352 0.811470 0.002817 0.0
0.451312 0.620588 -0.002573 0.0
1.828089 1.003548 -0.000208 0.0
0.378164 0.912416 0.001025 0.0
1.132071 1.977264 -0.002123 0.0
0.836967 0.458903 0.003407 0.0
4.609374 1.555181 0.001672 0.0
1.592736 1.795299 0.003057 0.0
1.312845 1.960575 0.001961 0.0
1.430661 1.699999 0.004292 0.0
1.091572 1.908598 -0.000269 0.0
1.397317 0.663828 -0.000706 0.0
2.843472 0.396388 0.001135 0.0
3.086898 1.838313 -0.002258 0.0
1.699177 1.066872 -0.002139 0.0
0.830564 0.524813 -0.002409 0.0
2.498588 1.545777 0.001000 0.0
2.945587 0.751235 -0.000593 0.0
4.840391 0.718413 0.000367 0.0
1.605340 0.787540 -0.001767 0.0
1.809873 0.356412 0.002385 0.0
0.156524 0.936605 0.004336 0.0
3.540917 0.410921 0.003376 0.0
2.281654 1.092606 0.001894 0.0
0.955547 1.891788 -0.000036 0.0
3.035908 1.622005 0.001539 0.0
2.994126 1.783714 0.001942 0.0
4.258500 0.593670 -0.000775 0.0
2.250964 0.000314 -0.001956 0.0
4.753286 1.189802 -0.001266 0.0
4.393566 1.059858 -0.000950 0.0
2.350627 0.975108 -0.002361 0.0
3.748765 1.366710 0.000920 0.0
0.208511 0.857309 -0.003000 0.0
1.638899 1.138603 0.003719 0.0
3.847951 0.004923 -0.002844 0.0
2.507823 0.713655 -0.004527 0.0
3.875393 0.129415 -0.002144 0.0
3.210428 0.192247 -0.002068 0.0
1.351562 1.670242 0.001785 0.0
0.182089 0.268906 0.002619 0.0
2.411860 0.092231 -0.006313 0.0
4.246229 1.294224 -0.004783 0.0
1.230172 0.557072 -0.000263 0.0
3.624895 1.194745 -0.004046 0.0
4.583951 1.241498 -0.001711 0.0
2.736566 0.527557 0.000636 0.0
2.405850 0.496475 0.001801 0.0
4.695770 0.809018 0.000627 0.0
2.789425 1.007044 0.004145 0.0
3.191957 0.770034 0.000920 0.0
0.506540 0.114086 -0.002883 0.0
3.394849 1.343006 -0.002623 0.0
0.135435 0.636592 -0.001873 0.0
2.711279 0.601988 0.003154 0.0
0.827395 0.815276 -0.002708 0.0
1.586517 1.522445 -0.001073 0.0
1.738183 1.781606 0.006041 0.0
1.514207 1.615271 -0.000585 0.0
0.871794 0.897108 -0.004994 0.0
0.360827 0.577780 -0.004658 0.0
2.439290 1.207501 -0.004516 0.0
2.099579 0.310153 -0.003853 0.0
1.595352 0.164007 -0.002042 0.0
4.842810 1.173433 -0.000310 0.0
1.029874 0.420489 0.003757 0.0
2.627893 1.222935 0.002324 0.0
4.479160 0.680272 -0.002180 0.0
0.362933 0.426821 0.000273 0.0
3.497817 0.107725 -0.003791 0.0
2.098695 0.619646 0.001336 0.0
3.404465 0.507159 -0.002912 0.0
2.873924 0.203202 -0.000673 0.0
4.099512 1.323559 -0.004486 0.0
1.873658 0.144954 -0.000650 0.0
2.482721 0.411543 -0.000549 0.0
4.487054 2.026574 -0.003243 0.0
4.080020 1.231087 -0.000835 0.0
2.910339 1.833183 0.006027 0.0
4.566062 1.866880 0.000842 0.0
0.957594 1.997597 0.003662 0.0
0.651778 1.671322 -0.000608 0.0
1.593894 0.361562 0.000192 0.0
4.839847 1.045109 0.000036 0.0
2.891132 0.788188 0.000186 0.0
3.490186 0.123135 0.001440 0.0
1.566468 1.200974 -0.000688 0.0
2.316971 0.876851 -0.001453 0.0
1.327227 0.697337 -0.001796 0.0
0.807825 0.887295 0.003427 0.0
1.749751 1.847729 -0.005096 0.0
4.735477 1.809176 -0.000879 0.0
0.033340 1.670374 -0.000436 0.0
1.308643 1.708525 0.000932 0.0
2.551375 0.179793 0.003711 0.0
4.816015 0.306158 -0.000757 0.0
3.217251 0.913156 0.002584 0.0
0.043690 0.013956 0.001381 0.0
0.558642 0.753609 0.001018 0.0
0.151740 0.729871 -0.002387 0.0
0.150972 1.745155 0.001310 0.0
3.483287 1.759499 0.000231 0.0
0.795433 1.909954 -0.003602 0.0
0.563035 0.179832 -0.002204 0.0
1.263836 0.604372 0.000904 0.0
3.959679 0.213509 -0.000971 0.0
4.855092 0.192701 -0.002951 0.0
3.719742 0.372025 -0.001345 0.0
3.843057 0.038646 0.001288 0.0
4.372640 0.396851 -0.000425 0.0
3.761125 0.648992 0.001176 0.0
2.775561 0.451667 -0.002838 0.0
4.837342 1.298912 0.006241 0.0
0.660885 0.608938 0.002151 0.0
3.053901 0.020623 -0.001295 0.0
1.192733 1.681176 -0.002371 0.0
1.716371 1.922814 0.000017 0.0
3.486453 1.995156 0.000025 0.0
0.705111 1.647625 -0.002209 0.0
3.620542 1.265980 -0.008310 0.0
0.254487 1.160833 -0.001807 0.0
2.980755 0.442225 -0.003325 0.0
3.472765 1.808122 -0.001175 0.0
1.420847 0.035679 0.003035 0.0
2.155808 1.921627 -0.002277 0.0
3.869957 0.712682 -0.001326 0.0
4.077321 1.007714 0.001224 0.0
3.811615 1.503350 0.000948 0.0
3.216370 0.984876 -0.000332 0.0
1.098368 0.493078 -0.003198 0.0
3.902157 0.984593 0.005638 0.0
2.644906 1.956525 0.001596 0.0
2.062508 1.196961 -0.000337 0.0
2.493131 1.046037 0.002501 0.0
2.257500 1.471304 0.005520 0.0
2.529144 1.264409 0.003190 0.0
0.066219 0.687428 -0.006115 0.0
0.883688 1.408491 0.000753 0.0
2.670193 1.987142 0.001123 0.0
3.148519 0.647020 -0.000177 0.0
0.956861 1.886728 -0.002157 0.0
2.397434 1.750505 -0.001835 0.0
0.008775 1.725130 -0.000221 0.0
3.215209 0.045917 -0.000173 0.0
2.238750 0.399012 0.000437 0.0
1.379011 0.344366 -0.001103 0.0
1.254961 1.683692 0.000387 0.0
1.282611 1.963482 0.001278 0.0
1.666862 0.153840 -0.000562 0.0
2.070630 1.513819 0.000807 0.0
2.106509 0.113744 -0.001787 0.0
2.838594 0.931498 0.000329 0.0
3.967771 1.492150 -0.003444 0.0
4.242515 1.691127 -0.001195 0.0
3.875115 0.147818 -0.000939 0.0
4.871986 0.045289 -0.001281 0.0
1.736695 1.526625 0.000191 0.0
2.116920 0.496812 0.001534 0.0
0.619529 0.670688 -0.001146 0.0
3.027450 0.266440 -0.000938 0.0
0.461965 0.656250 -0.000611 0.0
1.192576 0.098266 -0.002159 0.0
3.393443 1.693783 0.002987 0.0
1.901135 1.337126 -0.001442 0.0
0.972596 0.171009 -0.000286 0.0
2.892334 1.467954 -0.001368 0.0
2.754203 1.482043 -0.003435 0.0
3.046249 0.039009 0.000216 0.0
3.267427 1.131678 -0.001356 0.0
4.742577 1.198067 -0.002073 0.0
3.367133 0.742303 -0.000353 0.0
3.941947 1.900456 0.001653 0.0
4.125149 0.388334 0.004182 0.0
3.566970 0.143995 0.004752 0.0
2.675128 0.016445 -0.000224 0.0
0.721834 0.799520 0.003828 0.0
4.696180 1.236260 -0.000616 0.0
4.365925 1.795694 0.001814 0.0
1.007973 1.552118 0.002262 0.0
3.171153 0.321363 -0.002677 0.0
2.525122 0.999200 -0.003839 0.0
0.048646 0.668624 -0.001584 0.0
3.800666 0.279530 0.002768 0.0
0.494918 1.222270 -0.002291 0.0
4.472010 0.426529 -0.003189 0.0
4.316191 0.401957 0.001402 0.0
1.564350 1.943913 -0.000257 0.0
1.339853 1.855836 0.000248 0.0
1.692582 1.501578 0.001328 0.0
2.895525 0.617821 0.001714 0.0
3.647233 0.968648 -0.001208 0.0
1.356769 1.661352 -0.002322 0.0
3.543337 1.255449 -0.003911 0.0
0.298771 1.712386 0.001992 0.0
0.001240 0.602824 -0.001386 0.0
1.600059 1.681094 0.002024 0.0
0.509684 1.128924 0.002846 0.0
2.383634 0.352722 0.003480 0.0
2.403399 0.045514 -0.001410 0.0
2.447946 0.112519 0.000208 0.0
0.620360 0.693732 -0.000950 0.0
4.193195 0.701175 -0.001737 0.0
2.622804 0.464496 -0.005859 0.0
1.460687 1.087946 0.000947 0.0
0.325783 0.521485 -0.004016 0.0
1.625275 0.594209 0.001557 0.0
2.638500 0.693761 0.001207 0.0
2.206296 1.583705 0.005345 0.0
1.679920 0.113875 0.001123 0.0
3.198725 0.416971 0.000981 0.0
3.638951 0.138763 -0.001801 0.0
1.928777 0.186492 -0.001694 0.0
2.464918 1.900568 -0.000971 0.0
3.192121 1.930534 -0.004194 0.0
2.962108 1.932924 0.003969 0.0
1.986858 0.999716 -0.002252 0.0
4.448815 0.928827 -0.004090 0.0
2.471026 0.148877 -0.000957 0.0
3.660373 1.168886 -0.000249 0.0
1.099428 0.691902 -0.004837 0.0
2.452699 1.365120 0.000030 0.0
0.137237 0.087956 0.003941 0.0
2.644336 0.499883 -0.003027 0.0
1.656754 0.869389 0.004493 0.0
0.971290 0.167793 0.001071 0.0
1.891557 0.352118 0.000769 0.0
4.321880 0.808712 -0.000188 0.0
3.627656 0.204737 -0.003967 0.0
3.345028 0.589256 0.004139 0.0
0.075602 1.898204 -0.000287 0.0
2.365575 0.300269 0.000620 0.0
0.142362 0.042745 -0.003364 0.0
0.351844 1.879118 0.000582 0.0
3.481808 1.846389 0.002372 0.0
0.952583 1.080914 0.001232 0.0
0.202304 0.823898 -0.000121 0.0
3.944140 0.229787 0.001005 0.0
4.501687 0.149469 -0.000231 0.0
3.354873 0.592699 0.003075 0.0
0.416247 1.513321 0.001249 0.0
4.229162 1.693612 0.000561 0.0
0.806519 1.865297 -0.000317 0.0
0.099339 0.076426 0.004186 0.0
0.371831 1.135054 -0.002640 0.0
1.580407 1.191783 -0.002818 0.0
2.081935 0.054898 -0.003158 0.0
1.890679 1.286516 0.000666 0.0
3.557124 2.054288 -0.000360 0.0
0.431718 0.155055 -0.002760 0.0
3.611289 1.413354 0.002602 0.0
1.519860 1.482008 -0.002074 0.0
0.806446 1.138672 -0.002220 0.0
4.785740 1.550339 0.000503 0.0
2.526241 0.082563 -0.002274 0.0
2.251591 2.032461 -0.000131 0.0
3.405221 0.140712 -0.000720 0.0
2.409266 1.229264 0.000256 0.0
0.258763 1.967548 -0.000043 0.0
4.318035 0.781468 0.000827 0.0
1.981432 0.608804 -0.002358 0.0
4.699721 0.135939 0.000520 0.0
2.924677 0.526203 -0.001226 0.0
4.534278 0.086751 -0.004358 0.0
0.124247 0.663189 0.001641 0.0
1.277707 1.249187 0.002324 0.0
1.782208 1.153671 -0.002318 0.0
1.554307 0.126540 -0.000208 0.0
1.873883 1.480371 -0.003234 0.0
0.856264 0.753731 0.004234 0.0
3.497470 1.644816 -0.000909 0.0
3.378056 0.538953 -0.002646 0.0
0.665449 1.827027 0.002413 0.0
0.100523 1.311742 -0.002445 0.0
3.992768 1.962741 -0.001791 0.0
0.542302 1.262231 -0.002025 0.0
1.766073 1.572436 0.000786 0.0
4.735101 0.397981 -0.000207 0.0
1.336721 1.687369 0.002382 0.0
1.279541 0.205824 0.003415 0.0
4.686565 0.086127 0.000200 0.0
4.046291 1.655918 -0.001947 0.0
3.787678 1.192570 0.000418 0.0
3.033093 0.686467 0.003963 0.0
0.037893 1.728077 0.002540 0.0
1.917351 0.306170 -0.003167 0.0
3.752580 1.420437 -0.002557 0.0
4.093282 0.565194 -0.003158 0.0
1.187098 1.086707 -0.000479 0.0
1.568002 0.565811 0.001785 0.0
2.965511 0.608503 0.004643 0.0
2.960689 0.271517 -0.000676 0.0
3.121818 1.020091 0.001862 0.0
2.012044 0.092911 0.003103 0.0
2.786696 1.823760 0.004604 0.0
4.421543 0.434815 -0.001249 0.0
0.412405 0.155740 0.004162 0.0
0.919110 1.669670 0.000031 0.0
0.300385 1.414670 -0.004171 0.0
1.166326 0.257194 0.002423 0.0
1.832725 0.315566 -0.003916 0.0
2.469698 0.402501 0.002153 0.0
0.513086 1.855535 -0.002097 0.0
0.719405 1.456517 -0.002413 0.0
2.262767 0.557130 -0.000553 0.0
4.037602 1.689469 -0.003647 0.0
3.992166 1.964776 -0.004122 0.0
1.677778 1.794735 0.000830 0.0
3.111695 1.023211 -0.001091 0.0
2.758997 1.321883 -0.002665 0.0
2.534174 0.398807 -0.004461 0.0
1.016961 0.254405 0.002014 0.0
2.892144 0.571392 0.001976 0.0
3.994321 1.277496 0.002352 0.0
4.238869 0.536322 -0.001599 0.0
4.138825 1.925409 0.003000 0.0
2.962097 1.490253 -0.001099 0.0
0.663996 0.652987 -0.004196 0.0
0.641627 1.775859 -0.002475 0.0
3.209623 1.928815 0.001738 0.0
4.563441 0.767845 -0.000302 0.0
0.832491 0.875583 -0.000129 0.0
2.140026 1.693326 0.003566 0.0
2.323418 0.777778 0.001044 0.0
2.260965 1.406821 -0.000875 0.0
1.734139 0.672635 0.003498 0.0
0.289156 0.220504 0.000979 0.0
0.825899 0.656231 -0.004385 0.0
3.713674 0.591955 -0.001790 0.0
0.228620 1.495251 -0.002755 0.0
2.819508 1.501860 -0.005398 0.0
3.028949 1.680639 0.001399 0.0
0.496043 0.765769 0.000494 0.0
0.508319 1.786453 0.001085 0.0
1.173595 0.068106 -0.000800 0.0
0.438491 0.247587 -0.005770 0.0
1.842339 1.832317 -0.003506 0.0
1.170321 1.839072 0.001710 0.0
4.541774 0.630476 -0.000350 0.0
0.423566 0.531317 0.002234 0.0
4.411388 1.997345 0.002436 0.0
0.917529 1.644239 0.002950 0.0
1.736186 2.038593 0.001753 0.0
0.492209 1.320037 0.000482 0.0
1.602580 1.958158 -0.003187 0.0
4.473655 0.629109 0.002390 0.0
2.069564 1.852062 0.000063 0.0
4.098687 1.491018 0.000408 0.0
3.526810 1.967360 -0.000164 0.0
2.497865 1.123910 0.001623 0.0
1.779200 1.969470 -0.002827 0.0
4.483888 0.619294 -0.002124 0.0
1.158715 0.060579 -0.002153 0.0
3.494256 0.112450 -0.002490 0.0
1.102997 0.114006 0.003166 0.0
3.210813 0.378891 0.000409 0.0
4.559642 0.333737 -0.000490 0.0
3.494135 1.965453 0.000353 0.0
3.310998 1.935988 0.005531 0.0
2.126191 1.861173 -0.000432 0.0
2.682688 1.170642 0.003037 0.0
3.549216 0.179880 0.003060 0.0
0.407637 1.467237 -0.002253 0.0
3.619105 1.501838 0.003324 0.0
4.857079 0.248236 -0.001179 0.0
0.823736 1.059691 -0.003896 0.0
2.845586 0.422108 0.002175 0.0
0.528103 0.356241 -0.001692 0.0
1.540096 0.875556 0.000858 0.0
2.267097 1.276357 -0.000797 0.0
4.364016 0.345448 0.002916 0.0
1.031638 1.789255 0.002627 0.0
1.300039 1.726242 0.000836 0.0
1.628836 0.176632 0.003290 0.0
2.120072 0.339748 0.004466 0.0
4.196230 0.854599 0.001712 0.0
1.679115 1.174968 -0.001280 0.0
1.421287 1.322240 -0.004733 0.0
2.846827 0.263838 -0.000931 0.0
4.695766 1.705979 0.000699 0.0
2.910701 1.364725 0.000612 0.0
0.451149 0.899412 0.000909 0.0
0.152126 1.993170 -0.004572 0.0
1.821762 1.277474 0.000648 0.0
1.318619 1.983426 -0.003053 0.0
4.395931 0.783012 -0.002071 0.0
0.915040 2.048620 -0.001429 0.0
3.279414 1.494593 -0.000691 0.0
1.220055 1.646664 0.001786 0.0
1.673380 0.389031 0.000251 0.0
0.145753 0.545247 0.001955 0.0
3.572043 0.867659 -0.000682 0.0
2.177263 1.242755 0.004690 0.0
2.781567 1.412597 0.000266 0.0
3.364204 0.701642 0.001733 0.0
2.193780 1.946283 -0.006902 0.0
2.802151 1.813021 -0.000919 0.0
0.479813 1.234431 0.002592 0.0
2.349540 1.123812 -0.002833 0.0
2.731594 0.749339 -0.000095 0.0
3.143824 0.039418 0.002030 0.0
3.665752 1.176753 -0.003139 0.0
2.366872 0.291802 0.003244 0.0
4.191431 1.692960 -0.000378 0.0
2.173725 1.904954 -0.001615 0.0
4.619432 0.985673 0.002421 0.0
4.555800 1.072063 -0.001752 0.0
0.111566 0.138257 0.006361 0.0
3.449548 0.449088 0.004276 0.0
2.331873 1.859621 -0.003295 0.0
0.065761 1.014961 0.003009 0.0
4.666308 1.558518 -0.000606 0.0
4.211779 0.455705 -0.000698 0.0
1.120291 1.057992 -0.007881 0.0
4.753759 0.970848 -0.002184 0.0
1.104557 0.234702 0.002856 0.0
0.881944 1.363400 -0.002584 0.0
1.334140 1.932901 0.002512 0.0
4.536455 0.075698 0.002623 0.0
4.873064 0.914468 -0.000243 0.0
3.918060 0.592772 0.001637 0.0
3.169087 0.466754 -0.001484 0.0
4.754961 1.039759 -0.002204 0.0
2.306930 1.923989 0.000496 0.0
0.367979 1.528653 0.000986 0.0
4.513587 1.475977 -0.004557 0.0
2.894772 1.797279 -0.007548 0.0
2.254171 1.949535 -0.001377 0.0
0.734823 1.987454 -0.001510 0.0
2.330432 1.302020 -0.004280 0.0
0.594441 0.794764 0.002874 0.0
0.816917 1.418986 -0.001166 0.0
0.642593 1.628354 0.002636 0.0
2.336085 1.100103 0.005175 0.0
4.850172 0.636886 -0.000362 0.0
0.702495 1.989422 0.000864 0.0
1.594483 1.132517 -0.000179 0.0
3.533571 1.177289 0.000889 0.0
4.313445 1.990367 0.000480 0.0
4.386180 0.910213 -0.006322 0.0
2.764577 1.917251 0.002185 0.0
1.678456 1.523887 0.001309 0.0
4.487246 1.070978 -0.000520 0.0
3.453943 0.828319 0.002589 0.0
0.565881 0.928547 0.002645 0.0
3.429185 1.182411 0.003796 0.0
2.898176 0.796587 0.000055 0.0
3.849501 0.707563 -0.002088 0.0
1.319041 0.679459 -0.001322 0.0
3.862958 1.459372 0.002730 0.0
1.345422 0.125822 -0.001148 0.0
4.539867 1.415114 -0.001653 0.0
4.194767 0.216757 0.000470 0.0
0.550098 1.772164 0.001853 0.0
4.044024 0.917400 -0.001088 0.0
1.627341 1.346011 0.005088 0.0
0.945016 0.089577 0.000621 0.0
0.444970 1.622744 0.000279 0.0
2.240640 1.979320 -0.000985 0.0
2.281976 0.353306 0.001414 0.0
2.410992 1.251706 -0.000642 0.0
4.101770 0.879040 -0.002752 0.0
0.150383 1.200999 -0.000297 0.0
4.744173 1.760638 0.003761 0.0
4.192045 0.537437 -0.002397 0.0
3.135023 0.294599 0.004227 0.0
1.393052 1.699699 -0.002625 0.0
4.659820 1.584575 0.001707 0.0
3.550934 1.716304 -0.003388 0.0
0.697737 1.709051 -0.000825 0.0
4.311403 1.202467 -0.000720 0.0
3.026185 1.688679 0.003168 0.0
4.772385 1.957674 -0.002699 0.0
1.199377 1.658611 -0.001411 0.0
4.633539 0.523786 0.001947 0.0
0.265799 0.309297 0.001022 0.0
1.461597 0.011244 -0.003928 0.0
4.509040 0.522428 -0.000638 0.0
1.761850 1.429437 0.003369 0.0
4.291443 1.985906 0.002411 0.0
2.626910 0.211645 0.000426 0.0
1.997109 1.041551 -0.000205 0.0
4.389654 1.446789 0.004500 0.0
3.970563 1.895597 0.001360 0.0
3.524006 0.326435 0.002044 0.0
0.928486 0.915636 -0.005777 0.0
1.495834 0.865523 0.002006 0.0
2.853461 1.007421 0.003067 0.0
1.223466 0.481606 -0.001299 0.0
4.194428 1.140142 -0.001196 0.0
4.520200 0.957115 0.000094 0.0
1.134650 1.700933 0.003467 0.0
3.927438 0.152788 0.002584 0.0
0.408433 1.586198 0.002273 0.0
0.834638 1.485754 -0.001471 0.0
3.248922 0.341256 0.004903 0.0
4.817937 1.658159 0.002610 0.0
1.788140 1.251424 0.001438 0.0
1.836260 0.741511 0.001809 0.0
3.521305 0.826151 -0.004123 0.0
1.891554 1.974320 0.003520 0.0
0.527379 1.222140 -0.001939 0.0
3.494777 0.088655 -0.002429 0.0
0.514232 1.661890 0.001561 0.0
0.879023 1.090891 -0.004342 0.0
1.384551 0.464086 -0.000203 0.0
1.855909 1.672738 -0.001722 0.0
4.054021 0.569477 -0.000171 0.0
0.143888 0.670943 -0.003622 0.0
3.161302 0.282570 0.001455 0.0
0.926155 1.905625 0.000734 0.0
3.767606 0.142556 -0.000330 0.0
0.271005 0.836279 -0.000142 0.0
2.405124 1.780147 -0.003482 0.0
3.483466 0.506233 0.001895 0.0
2.392747 0.869656 -0.001734 0.0
4.469928 0.542075 -0.003941 0.0
0.337677 0.075478 0.003453 0.0
2.406672 0.278844 0.003107 0.0
2.862715 0.901672 -0.000831 0.0
1.040818 0.361668 0.000504 0.0
4.214453 1.289792 -0.000633 0.0
2.273140 1.181716 0.001096 0.0
0.919726 0.892560 0.001723 0.0
2.034816 1.076772 -0.000778 0.0
3.601952 1.899546 0.002182 0.0
1.944708 1.862286 0.000801 0.0
1.297692 2.054856 0.002258 0.0
1.756617 1.633486 -0.001201 0.0
3.957930 0.123685 -0.003251 0.0
0.304058 1.104507 -0.001441 0.0
1.280285 0.859071 0.002881 0.0
2.682992 2.022808 0.000256 0.0
4.022724 1.704653 0.002167 0.0
1.847023 0.911587 -0.004582 0.0
1.759855 2.007969 -0.001880 0.0
1.520642 0.806258 -0.001341 0.0
2.438304 1.072102 0.003950 0.0
0.216972 0.396037 0.000403 0.0
1.402770 0.418772 -0.005746 0.0
2.032569 0.142697 0.000641 0.0
0.977860 1.154121 -0.002417 0.0
3.516960 1.709652 -0.005693 0.0
0.121051 1.798677 0.005295 0.0
1.830786 0.899974 0.006593 0.0
4.046303 0.332627 0.000237 0.0
4.809740 0.103750 -0.002141 0.0
0.072700 0.180435 0.002131 0.0
4.336344 0.518250 0.002509 0.0
3.118413 1.436942 0.003822 0.0
3.224588 0.371903 0.003705 0.0
2.187742 0.525716 -0.000846 0.0
4.626944 0.745881 -0.004598 0.0
2.399860 2.018091 0.002415 0.0
0.256583 1.572857 0.000775 0.0
3.441929 1.776847 -0.004722 0.0
3.167006 1.284392 -0.000023 0.0
3.634843 1.432926 0.000388 0.0
1.475597 0.890173 -0.000185 0.0
4.797194 1.629459 0.003912 0.0
0.013579 1.870153 -0.000993 0.0
3.557960 2.051726 -0.002162 0.0
2.719334 1.281739 -0.003309 0.0
3.414179 0.114213 -0.005439 0.0
0.701211 1.311859 -0.000713 0.0
0.822569 0.223320 0.002429 0.0
2.827647 1.426439 -0.004591 0.0
4.422445 0.717921 -0.000432 0.0
1.277263 1.363407 0.000917 0.0
1.580182 1.655824 -0.000018 0.0
4.501110 0.824243 0.001317 0.0
4.832542 1.412438 -0.001799 0.0
1.565361 0.360652 -0.000506 0.0
3.870951 0.508339 0.000955 0.0
1.808030 0.550092 -0.001200 0.0
2.941659 1.431008 0.001749 0.0
2.851357 0.306143 -0.001303 0.0
3.013266 0.347605 -0.002557 0.0
3.641201 1.097244 0.003255 0.0
2.111286 1.684672 0.001436 0.0
4.371876 0.050396 0.004180 0.0
1.341426 1.552883 -0.003857 0.0
4.058897 1.145924 -0.003736 0.0
3.456673 0.377863 0.004812 0.0
3.375221 1.983408 -0.000725 0.0
3.553401 1.431974 -0.002165 0.0
1.039877 1.453619 -0.001147 0.0
4.058099 0.736067 -0.001613 0.0
3.690327 0.049988 0.000486 0.0
3.793070 1.128884 -0.004923 0.0
3.207861 0.108046 -0.001511 0.0
4.338485 1.554640 -0.004004 0.0
0.730478 0.140448 0.000241 0.0
1.529048 0.884446 0.001821 0.0
0.409450 2.042146 -0.000789 0.0
2.748789 1.451833 -0.002321 0.0
1.889038 1.202622 -0.005975 0.0
3.981591 0.190619 0.001049 0.0
4.676993 1.303459 -0.001264 0.0
3.570441 1.479032 0.001791 0.0
2.830575 0.830854 0.001188 0.0
2.830985 0.954689 0.004625 0.0
1.626748 1.344946 -0.002341 0.0
1.876839 1.385895 -0.002604 0.0
4.475907 1.521319 0.002093 0.0
1.565950 1.175218 0.000666 0.0
2.547459 1.742075 0.000308 0.0
2.971460 0.353219 0.001619 0.0
4.519229 1.129248 0.001063 0.0
4.630484 0.507579 -0.000179 0.0
3.826672 0.107586 0.002728 0.0
3.680942 0.803051 -0.001712 0.0
4.190848 0.018870 0.001477 0.0
2.538156 1.609059 0.003781 0.0
1.426974 1.488618 -0.000387 0.0
1.925248 0.498878 0.000970 0.0
2.277880 0.660693 0.000034 0.0
2.269666 1.227866 -0.005637 0.0
3.469385 0.960183 -0.000096 0.0
0.511462 1.347452 -0.005011 0.0
3.180569 0.251070 -0.000583 0.0
4.567630 0.174790 -0.002679 0.0
1.477977 0.841005 0.002223 0.0
2.358160 0.895462 -0.005394 0.0
3.472945 1.151891 0.000417 0.0
2.783003 0.822535 0.005628 0.0
1.972972 0.319030 0.000050 0.0
3.370110 0.028830 0.002600 0.0
4.003688 1.114404 0.001180 0.0
0.740637 1.629227 -0.001154 0.0
1.665056 0.617944 0.000889 0.0
0.832053 1.181249 0.000330 0.0
1.461240 1.879133 -0.000282 0.0
1.740829 0.771702 0.001964 0.0
1.501289 1.887962 -0.000065 0.0
3.599237 0.488981 0.006545 0.0
1.010597 1.405664 -0.000090 0.0
1.079844 0.271652 0.002476 0.0
2.047204 0.852222 0.000298 0.0
0.516077 0.817845 0.003933 0.0
1.413396 0.713154 0.000693 0.0
0.002976 0.884441 0.003226 0.0
3.362191 0.068585 -0.002131 0.0
1.128659 0.809819 -0.000508 0.0
4.854337 0.552374 -0.000625 0.0
1.671427 1.109148 -0.001623 0.0
3.670238 0.438110 -0.002917 0.0
2.217873 0.979948 0.002698 0.0
4.556555 1.957089 0.001547 0.0
2.698322 1.191733 -0.000364 0.0
1.235450 0.587647 -0.004309 0.0
4.583206 1.842440 0.003196 0.0
1.400095 0.390014 -0.001265 0.0
3.914865 0.633045 0.000331 0.0
2.331678 0.458525 0.003306 0.0
1.473975 1.977603 -0.000048 0.0
3.360081 1.348297 0.002171 0.0
0.168130 1.105541 0.000637 0.0
4.509674 0.426619 -0.001921 0.0
0.965228 0.259103 -0.000526 0.0
0.156796 0.468099 -0.000744 0.0
4.333714 0.783891 -0.000629 0.0
4.602782 1.806905 -0.001741 0.0
2.540956 0.718626 -0.001773 0.0
4.689566 0.487029 0.001183 0.0
0.046877 0.931163 -0.000445 0.0
3.824020 0.203519 -0.000169 0.0
4.561953 0.161850 0.001402 0.0
0.739057 1.073196 -0.000308 0.0
4.750664 1.359516 0.003828 0.0
4.436707 2.011461 0.003967 0.0
3.363285 0.863936 0.002283 0.0
3.480588 0.019786 -0.002654 0.0
4.762944 0.781788 0.002452 0.0
4.382643 0.954146 0.000894 0.0
0.655083 0.329537 0.001153 0.0
2.438547 1.243022 -0.000752 0.0
4.727098 1.933895 0.001484 0.0
2.870634 1.616285 -0.000681 0.0
0.641810 0.326213 -0.002025 0.0
0.958278 1.973812 -0.001294 0.0
3.623283 0.964569 0.000767 0.0
1.504064 0.212505 -0.001934 0.0
0.122994 0.229715 -0.001288 0.0
4.623922 0.917468 0.001066 0.0
2.126637 1.641039 -0.004238 0.0
3.769076 0.752401 -0.002435 0.0
3.693932 0.599140 0.000736 0.0
3.116928 1.463126 0.003011 0.0
2.384459 1.786127 0.000237 0.0
2.983141 0.549075 -0.000069 0.0
0.125628 0.379956 -0.002925 0.0
1.622128 0.011152 0.000394 0.0
4.400677 0.310784 0.001649 0.0
1.162485 0.298357 0.001565 0.0
1.260033 1.525177 0.004149 0.0
4.011136 0.414063 -0.001988 0.0
2.446876 1.283012 -0.000662 0.0
4.791518 0.736153 0.002379 0.0
2.140202 0.830944 -0.000773 0.0
3.188654 0.257975 -0.002172 0.0
4.559239 1.332314 0.001178 0.0
4.307304 0.589186 0.003037 0.0
3.665114 1.237923 -0.004378 0.0
1.745654 0.726736 0.001969 0.0
2.999920 1.486938 0.005278 0.0
1.745862 0.099871 -0.000679 0.0
4.318401 1.041640 0.001932 0.0
2.156738 1.109454 -0.005084 0.0
1.951167 1.641334 -0.000383 0.0
2.553620 1.919378 0.000931 0.0
1.447731 1.647261 0.001513 0.0
4.610954 1.355742 0.003459 0.0
3.656509 0.703485 -0.002711 0.0
0.240295 0.991626 0.001228 0.0
3.039957 0.906960 -0.002983 0.0
0.535644 1.636887 -0.000564 0.0
0.256142 1.135482 -0.001072 0.0
0.586485 0.288969 -0.000673 0.0
0.525513 1.011693 0.002613 0.0
2.318026 0.573886 -0.004614 0.0
4.774382 0.045389 -0.000422 0.0
2.844128 1.042955 0.000581 0.0
1.772680 1.683496 -0.004767 0.0
1.988040 1.493180 -0.001516 0.0
4.256212 1.951688 -0.002097 0.0
0.085682 0.053320 -0.002028 0.0
3.882734 0.243023 -0.002492 0.0
3.356459 1.368522 -0.003775 0.0
2.860472 0.427419 -0.000440 0.0
3.918612 1.865071 -0.000455 0.0
1.853138 0.439175 0.001024 0.0
1.162682 1.479925 -0.001389 0.0
4.639605 1.956446 -0.002646 0.0
2.383544 1.658929 -0.000467 0.0
2.299411 1.509568 -0.001792 0.0
4.358782 1.980478 0.000903 0.0
0.128999 0.159104 -0.002116 0.0
0.717036 0.164017 0.004315 0.0
0.199128 0.585165 -0.002108 0.0
0.121851 1.665859 0.001101 0.0
1.440810 1.555502 0.001269 0.0
0.537046 0.007535 -0.001264 0.0
3.622050 0.516314 -0.003536 0.0
4.039469 0.682413 0.002127 0.0
3.862207 0.584732 -0.001618 0.0
2.660695 1.591003 -0.002021 0.0
0.819603 0.012437 0.004568 0.0
1.402772 0.186681 -0.000740 0.0
2.397522 1.570247 -0.001999 0.0
2.903996 0.791262 0.001342 0.0
4.830361 0.134292 -0.001601 0.0
2.487635 1.469069 0.002382 0.0
2.344854 0.549675 -0.002504 0.0
3.238683 1.405145 0.003976 0.0
1.067015 0.556400 -0.002203 0.0
1.640826 1.445842 0.001420 0.0
0.277219 0.302398 0.000892 0.0
0.889607 0.326860 0.000001 0.0
4.731584 2.038910 -0.002799 0.0
2.402419 1.139715 0.002961 0.0
0.084879 1.342682 0.001111 0.0
4.258265 2.049351 0.001836 0.0
3.385730 0.934308 -0.003202 0.0
0.005327 1.784437 -0.003635 0.0
3.323508 0.424765 -0.002515 0.0
1.164925 1.926557 0.001958 0.0
2.496850 0.022825 -0.001075 0.0
4.250212 1.564110 -0.000594 0.0
4.106629 1.867287 -0.000140 0.0
2.793546 0.306872 0.000305 0.0
0.641609 0.454319 -0.003194 0.0
0.701301 0.147430 -0.006440 0.0
1.359898 1.899983 -0.002010 0.0
3.290416 0.517351 0.001367 0.0
4.838574 1.329362 -0.002541 0.0
2.249078 0.812003 0.000266 0.0
4.279500 1.541957 -0.002662 0.0
4.489225 0.442428 -0.003623 0.0
3.456632 1.307991 0.000742 0.0
3.730069 1.852752 -0.002080 0.0
0.258113 1.982252 0.001304 0.0
1.974423 1.926852 0.001924 0.0
1.403519 0.984152 -0.003377 0.0
3.458384 1.882960 0.005881 0.0
2.021583 1.160800 -0.000173 0.0
1.453367 1.159634 -0.003014 0.0
2.592132 1.950800 0.004325 0.0
2.167545 1.224574 -0.002143 0.0
3.627833 0.692489 -0.001012 0.0
1.956404 1.181859 -0.004330 0.0
0.485720 2.040903 -0.005027 0.0
1.399171 1.734619 0.001022 0.0
2.308178 1.031389 -0.003286 0.0
0.496063 1.232269 0.000804 0.0
3.343725 1.231824 0.000420 0.0
2.112292 1.635320 0.000830 0.0
3.377865 0.345196 0.000288 0.0
3.599567 0.996360 0.001552 0.0
0.550122 0.022137 0.002767 0.0
3.967704 1.080221 -0.001273 0.0
0.779261 0.925703 -0.002551 0.0
4.782548 1.955521 -0.003531 0.0
0.559629 1.206169 0.002618 0.0
1.383515 0.915081 -0.004922 0.0
4.634613 0.175399 -0.000377 0.0
2.021534 0.199780 -0.001797 0.0
1.409432 1.699545 -0.004356 0.0
2.158142 2.053111 0.000007 0.0
3.898649 1.887527 -0.001520 0.0
3.681486 0.213661 -0.005456 0.0
1.146724 0.672659 0.005424 0.0
1.272892 1.515191 0.003106 0.0
1.312727 1.703125 0.000268 0.0
3.745767 0.777367 0.001493 0.0
0.809776 1.313101 -0.001420 0.0
4.692404 0.229255 -0.000454 0.0
3.610939 0.348157 0.001655 0.0
4.005911 1.773547 0.001105 0.0
2.711881 0.737721 -0.002797 0.0
2.828474 1.491842 0.000979 0.0
1.274627 0.684665 -0.001877 0.0
3.091963 0.779348 0.000970 0.0
4.145907 0.413143 0.003014 0.0
2.631714 0.715602 0.002130 0.0
0.902346 0.607533 -0.002880 0.0
3.320587 1.418991 -0.002593 0.0
4.169063 1.787539 0.001946 0.0
1.282963 0.243747 0.002195 0.0
3.978654 0.012822 0.004362 0.0
3.050372 1.240160 0.001118 0.0
0.678567 1.829592 -0.003399 0.0
1.707737 0.560382 0.000377 0.0
2.209852 1.998722 -0.005377 0.0
2.967729 0.296138 -0.004605 0.0
0.923914 1.077254 -0.005932 0.0
4.302184 1.757965 -0.001382 0.0
0.007587 1.116211 -0.001974 0.0
4.177852 0.920010 -0.000815 0.0
2.021407 1.459368 0.003094 0.0
2.207911 0.486037 0.004531 0.0
4.829162 1.382165 0.001032 0.0
1.618482 1.895102 0.000812 0.0
4.570606 0.867205 0.003382 0.0
2.627170 1.814881 -0.002419 0.0
3.436805 1.792390 -0.003237 0.0
4.783595 0.817849 0.000605 0.0
0.268177 0.245900 0.000862 0.0
2.132475 1.832465 0.002636 0.0
4.204983 0.050808 -0.002885 0.0
3.680167 1.469758 0.003170 0.0
3.166640 1.340826 0.002136 0.0
0.481358 1.458698 -0.002157 0.0
2.471882 1.309329 0.000143 0.0
4.050950 2.025815 -0.003090 0.0
4.568655 1.923451 0.002183 0.0
4.511442 1.994409 -0.003079 0.0
2.300247 0.692262 0.004438 0.0
1.697885 1.834098 -0.005914 0.0
0.457596 1.671343 -0.002361 0.0
2.893430 0.388790 -0.002256 0.0
1.356691 1.408765 0.000161 0.0
1.476432 0.462398 -0.002490 0.0
2.598443 0.583246 -0.002608 0.0
3.286743 1.216217 -0.001399 0.0
0.748217 1.050416 0.003590 0.0
0.365084 0.345132 0.001850 0.0
2.372595 1.162652 0.000834 0.0
3.627486 1.172631 0.000756 0.0
3.274224 0.093105 -0.003480 0.0
1.974405 1.931334 -0.000905 0.0
1.776544 1.349195 0.000167 0.0
2.051974 1.579655 0.003323 0.0
2.285099 0.931528 0.000025 0.0
1.180228 1.310093 -0.003286 0.0
4.345177 0.903659 0.003987 0.0
0.039869 1.561121 0.001744 0.0
0.262924 0.817290 -0.000333 0.0
2.253822 1.004379 0.000033 0.0
0.124908 1.341823 0.001628 0.0
2.461303 1.378985 -0.003622 0.0
0.868923 0.294461 -0.002362 0.0
3.300073 1.741928 0.000531 0.0
2.607149 0.521115 0.003426 0.0
2.357300 1.247062 0.000155 0.0
1.473052 0.855091 -0.001635 0.0
0.852739 1.450831 -0.000236 0.0
3.983859 1.266924 0.000989 0.0
3.320201 1.124497 0.001296 0.0
0.381472 1.080343 0.001327 0.0
0.156727 1.807161 0.000016 0.0
2.619424 1.526357 -0.000317 0.0
1.464473 1.745026 0.000777 0.0
1.907029 1.831902 -0.002488 0.0
3.220614 0.576205 0.001448 0.0
3.981607 0.087264 0.000990 0.0
2.318698 0.001151 -0.003346 0.0
4.202637 1.352076 0.001295 0.0
0.244422 0.850357 0.002307 0.0
3.356495 0.849225 -0.000936 0.0
0.771439 1.352272 -0.003195 0.0
2.133412 1.549056 0.001221 0.0
3.176622 1.163961 -0.005470 0.0
1.118403 1.233187 -0.001122 0.0
3.629085 0.421946 0.000397 0.0
4.700974 0.751800 0.001969 0.0
1.158025 1.765284 0.002157 0.0
4.400676 1.134545 0.000754 0.0
3.278984 1.924898 -0.003687 0.0
0.612030 1.172971 0.000709 0.0
3.507077 1.245138 -0.004258 0.0
3.086753 1.032448 0.003907 0.0
4.623878 2.038489 -0.001722 0.0
4.370269 1.526349 -0.004188 0.0
0.518460 1.528589 0.000321 0.0
1.247840 0.152392 0.002031 0.0
0.665502 0.855685 0.003029 0.0
2.818307 1.620878 0.000592 0.0
1.945734 0.918371 0.002459 0.0
3.243762 0.582575 0.002308 0.0
3.603675 1.011326 -0.000067 0.0
1.038406 1.050607 0.003797 0.0
1.577706 1.101814 0.000554 0.0
1.563870 0.108182 0.003515 0.0
1.072226 0.331964 -0.000279 0.0
4.258745 1.973016 -0.000534 0.0
2.222150 0.638383 0.001796 0.0
4.114461 0.320168 -0.006544 0.0
3.595888 0.862711 0.001051 0.0
1.038167 0.194145 -0.000138 0.0
1.802280 0.763790 0.001854 0.0
0.641827 1.511010 -0.005285 0.0
1.392290 0.504073 -0.002995 0.0
2.471948 1.273513 0.002155 0.0
1.017042 0.879612 0.006328 0.0
0.357036 1.597341 -0.001140 0.0
4.008801 1.021880 -0.000348 0.0
2.411768 1.388689 -0.005620 0.0
0.723488 0.699661 -0.000299 0.0
4.578668 1.217327 -0.000333 0.0
1.466016 1.243178 0.002595 0.0
4.746434 0.919969 0.001832 0.0
0.371206 0.553831 -0.002208 0.0
0.270797 0.599192 0.002163 0.0
3.376424 1.090422 0.000028 0.0
1.317750 1.116958 -0.001325 0.0
3.788958 1.698252 -0.000259 0.0
4.639183 0.741534 -0.001288 0.0
0.985997 0.899853 -0.001745 0.0
4.733323 1.767873 0.001037 0.0
2.932868 0.149882 0.002684 0.0
4.372586 1.793022 0.000954 0.0
2.876619 0.366020 0.002500 0.0
4.338514 1.089006 -0.001515 0.0
4.100255 0.937358 0.001604 0.0
2.452332 1.480057 -0.000621 0.0
0.174849 0.222572 -0.004348 0.0
2.578285 0.212540 -0.000010 0.0
2.198689 0.462457 0.000079 0.0
0.833267 0.931565 -0.000622 0.0
2.023900 1.526649 -0.004738 0.0
3.213370 0.638865 -0.001209 0.0
1.519916 0.283877 -0.005809 0.0
4.295485 0.991270 0.003712 0.0
2.466583 0.883716 0.001536 0.0
4.198545 0.243497 0.000538 0.0
4.375768 0.227112 -0.003173 0.0
2.556076 0.744891 0.003029 0.0
4.147231 0.540741 0.003079 0.0
3.955687 0.588906 -0.001263 0.0
3.627564 1.769218 0.002736 0.0
1.105898 2.051968 -0.001206 0.0
2.462004 0.811840 0.002371 0.0
2.495018 0.068032 0.003654 0.0
2.303191 0.444229 -0.005618 0.0
4.311599 1.390158 -0.000612 0.0
3.625154 0.557947 0.002857 0.0
0.727102 0.017701 -0.004412 0.0
3.871954 0.350607 -0.003244 0.0
3.576473 1.771823 0.001367 0.0
3.248315 0.741691 0.001074 0.0
0.690768 1.999782 0.004453 0.0
1.753063 1.011090 0.001552 0.0
2.788120 0.299960 0.000312 0.0
1.431711 1.999355 0.000022 0.0
3.995870 1.600621 -0.002777 0.0
0.948070 0.372924 -0.003833 0.0
1.625341 0.105654 -0.000694 0.0
4.868763 0.228433 -0.000064 0.0
4.678876 1.547981 0.001025 0.0
3.575693 0.734825 -0.001193 0.0
4.565834 1.271046 -0.002035 0.0
1.878129 0.062630 -0.003195 0.0
4.540835 1.183071 0.000190 0.0
0.664174 1.892119 -0.000340 0.0
0.910725 0.516224 0.002800 0.0
4.175916 1.347725 0.001240 0.0
0.813988 1.049975 -0.000919 0.0
3.157572 0.297719 -0.001365 0.0
3.469030 0.285863 0.001468 0.0
0.979517 1.364820 0.002013 0.0
3.850756 1.943689 0.001139 0.0
3.675166 1.116996 0.004141 0.0
2.307517 1.554223 0.001476 0.0
2.443208 1.822149 -0.001281 0.0
1.456249 1.363456 -0.001343 0.0
2.026890 1.853580 -0.002567 0.0
0.678095 0.134031 0.000265 0.0
3.725070 0.210403 -0.000015 0.0
1.825135 1.756422 -0.000014 0.0
1.298891 1.109255 0.000588 0.0
2.227579 0.624668 -0.001704 0.0
2.492818 2.048064 0.000486 0.0
4.169622 1.317256 -0.000513 0.0
1.828923 0.193567 -0.000440 0.0
0.717795 0.166566 0.000326 0.0
0.028982 0.548271 -0.002146 0.0
2.601466 1.870742 -0.002743 0.0
2.846543 1.109746 -0.002976 0.0
3.214991 0.018932 0.002811 0.0
1.204530 0.423376 -0.003948 0.0
0.672486 1.184101 0.000927 0.0
3.571293 2.002591 -0.001481 0.0
4.038580 0.816671 -0.002723 0.0
3.345354 1.566324 -0.003365 0.0
1.545726 0.189713 0.003747 0.0
1.767406 0.959779 -0.001103 0.0
4.052048 0.730440 0.001462 0.0
4.531254 1.034572 -0.000385 0.0
3.933643 1.459084 -0.002389 0.0
2.576317 0.396661 -0.001088 0.0
3.232056 1.167993 0.002965 0.0
0.493501 1.593247 -0.001653 0.0
2.304394 1.478437 -0.002783 0.0
1.040768 0.979938 0.000577 0.0
4.190176 1.645924 -0.001126 0.0
4.802256 1.292333 0.002507 0.0
4.658379 0.028528 0.001067 0.0
4.093949 1.378047 0.002076 0.0
1.825449 0.936802 0.001362 0.0
3.801949 1.982670 -0.001404 0.0
0.056510 0.186496 -0.000226 0.0
0.672385 0.139232 -0.001997 0.0
0.961974 1.013263 -0.002195 0.0
4.810085 0.954513 -0.004494 0.0
0.990445 0.587093 -0.003535 0.0
3.973931 0.271353 -0.001521 0.0
4.103271 1.420076 0.001487 0.0
4.422508 0.096513 -0.001275 0.0
3.636830 1.828752 0.002647 0.0
2.330600 0.599490 0.000967 0.0
1.365916 0.531916 -0.003131 0.0
4.127733 0.016015 0.000109 0.0
2.946065 1.115578 -0.001684 0.0
2.920034 2.026329 0.001016 0.0
2.419835 0.454011 -0.001127 0.0
1.163952 0.546908 -0.001171 0.0
1.358699 1.305849 0.004760 0.0
2.457447 1.784350 -0.001867 0.0
4.778920 1.436824 0.002055 0.0
0.649087 0.709528 -0.000970 0.0
2.754075 0.758935 0.000734 0.0
0.891325 0.730325 0.000469 0.0
2.852183 0.176823 0.000314 0.0
3.166745 0.232742 -0.002890 0.0
2.872591 0.729158 0.005188 0.0
3.572417 0.604603 -0.000714 0.0
0.240937 0.012883 -0.001356 0.0
2.535613 1.719569 -0.001696 0.0
0.226767 1.981726 0.000830 0.0
3.009950 1.969725 -0.000001 0.0
1.520652 0.818287 0.002126 0.0
4.131914 1.164445 -0.000284 0.0
3.328833 0.428794 0.003924 0.0
1.549082 0.741130 -0.000631 0.0
3.963705 0.626163 -0.003353 0.0
1.710607 1.544996 -0.000491 0.0
1.008427 0.947912 0.002239 0.0
0.530941 1.968188 -0.006122 0.0
0.184783 1.456140 -0.000381 0.0
0.149400 0.040486 -0.003914 0.0
0.312245 1.582737 -0.004332 0.0
0.266640 0.216126 0.001207 0.0
0.531407 1.140135 -0.001428 0.0
4.398253 2.018104 -0.000074 0.0
1.071339 2.017890 0.002805 0.0
1.404910 0.448789 -0.000490 0.0
4.364247 1.990384 -0.001104 0.0
3.903371 0.321238 -0.001592 0.0
0.405482 0.087295 0.005745 0.0
3.671436 0.806479 0.000595 0.0
2.936384 1.935674 0.000356 0.0
1.407325 1.558689 0.002057 0.0
2.808625 0.012065 -0.007610 0.0
0.206120 0.078374 -0.003697 0.0
2.110851 1.434782 0.003679 0.0
1.675761 0.374233 0.000762 0.0
1.531606 0.560642 0.001398 0.0
0.563483 0.709260 0.000439 0.0
0.044710 1.738415 -0.001982 0.0
0.491183 1.454055 -0.002251 0.0
1.921406 1.572278 -0.001949 0.0
4.026180 0.505406 -0.001678 0.0
2.897454 1.945252 0.000873 0.0
3.593559 1.292932 0.003648 0.0
1.537777 1.040072 0.002772 0.0
2.267496 1.920107 -0.000225 0.0
2.467839 0.019585 -0.003424 0.0
3.534872 1.218192 -0.001041 0.0
2.836283 1.075172 0.000081 0.0
1.092454 1.855950 0.000996 0.0
2.503515 0.350122 -0.002011 0.0
3.134333 2.019353 0.000762 0.0
4.636130 0.459101 -0.002392 0.0
0.360434 1.086214 -0.002501 0.0
3.509435 0.872690 -0.000552 0.0
4.775254 0.331612 0.001163 0.0
1.308984 0.976352 0.000206 0.0
3.062660 0.385083 -0.000382 0.0
0.596259 1.144123 -0.000698 0.0
1.584649 1.490620 0.002001 0.0
4.783747 0.098027 -0.005226 0.0
4.752281 1.210886 0.002260 0.0
1.139221 0.667972 0.002591 0.0
1.588327 1.608780 0.002403 0.0
0.167827 1.232312 0.000519 0.0
4.668850 0.268525 0.000800 0.0
3.320323 1.805011 0.002588 0.0
0.359329 1.768287 -0.003179 0.0
4.053271 0.771190 -0.001970 0.0
0.673166 0.368029 0.001565 0.0
0.304526 1.555874 -0.001824 0.0
1.317842 1.543799 -0.000167 0.0
3.818560 1.912620 0.000152 0.0
1.169100 0.041919 0.000117 0.0
3.988387 0.827422 -0.002501 0.0
4.227775 1.856276 -0.001621 0.0
0.454878 1.618153 0.002369 0.0
0.498913 1.719612 0.005585 0.0
4.714805 0.162275 0.000827 0.0
4.356001 2.039587 0.001634 0.0
2.069917 1.365558 0.003226 0.0
0.514492 0.210227 0.000670 0.0
3.287782 0.992427 -0.000246 0.0
1.694727 0.806093 0.003951 0.0
2.431284 0.467882 -0.001961 0.0
4.134383 0.494001 0.001775 0.0
4.209461 0.960987 0.004558 0.0
0.014510 1.174798 -0.001721 0.0
3.394725 1.348873 -0.002927 0.0
3.548456 1.801736 -0.000717 0.0
2.050143 1.397028 -0.001558 0.0
4.802234 0.946442 0.002682 0.0
3.418099 1.620464 -0.002026 0.0
4.558719 0.385487 -0.002443 0.0
3.160123 0.230407 0.001741 0.0
1.518208 1.461711 -0.001024 0.0
1.371950 0.890268 0.002880 0.0
1.357768 1.702495 -0.003867 0.0
2.189292 0.497179 0.000703 0.0
0.775920 1.486866 0.003386 0.0
3.944762 1.857021 0.003314 0.0
0.134272 0.440718 0.001005 0.0
1.167783 0.488705 -0.000288 0.0
4.203410 0.480444 -0.002028 0.0
2.753298 1.156989 0.001158 0.0
1.413360 0.830135 0.002354 0.0
1.388353 0.987885 0.001180 0.0
2.949724 1.160559 0.006306 0.0
2.824917 0.813424 0.002365 0.0
3.690614 1.317047 -0.000630 0.0
0.511627 0.723884 -0.003121 0.0
2.753932 1.687948 -0.000142 0.0
4.158471 0.376620 -0.001963 0.0
2.456122 1.602019 -0.000451 0.0
0.791398 1.945509 -0.005014 0.0
1.910650 0.200788 -0.004075 0.0
1.238485 0.036681 -0.006893 0.0
0.303281 0.871540 -0.004712 0.0
1.924724 0.815945 -0.000509 0.0
0.748072 1.543223 -0.002316 0.0
4.430481 1.041725 -0.000015 0.0
1.197172 0.563771 -0.002074 0.0
0.948336 1.508978 -0.002685 0.0
4.624508 1.452653 0.000544 0.0
2.463101 1.257450 0.000443 0.0
4.518755 1.175982 0.000923 0.0
2.222971 1.293856 -0.003373 0.0
1.832902 0.525017 -0.000626 0.0
0.028870 0.760363 0.001736 0.0
3.119259 0.209710 0.002251 0.0
2.727380 0.447988 -0.001224 0.0
4.437492 1.819015 -0.001123 0.0
2.752845 0.458379 0.000275 0.0
2.754089 0.158652 -0.000642 0.0
0.348299 0.250975 -0.000721 0.0
1.415056 0.638019 -0.000654 0.0
3.762919 1.595626 0.003163 0.0
2.151099 1.050437 -0.003220 0.0
1.509631 0.057348 0.000713 0.0
4.511412 1.129462 0.000197 0.0
2.009490 1.036680 0.000173 0.0
1.973013 1.808072 -0.001751 0.0
0.902455 1.000308 -0.005985 0.0
1.087787 0.070289 -0.002695 0.0
1.211199 0.599992 -0.003287 0.0
2.440892 0.603121 0.002592 0.0
3.108034 0.199833 0.001702 0.0
0.979842 0.196105 -0.001141 0.0
3.935957 1.759735 0.000433 0.0
2.480999 0.561337 -0.000065 0.0
3.756800 1.024764 -0.000686 0.0
3.728364 0.908059 -0.002838 0.0
0.451975 1.432969 -0.003103 0.0
0.293636 2.035086 0.005172 0.0
3.705880 1.462038 0.000976 0.0
3.567871 1.342936 -0.003325 0.0
0.596139 1.749261 0.002745 0.0
2.629894 0.210556 0.000522 0.0
2.845755 1.496767 0.001175 0.0
3.312887 2.057672 -0.001453 0.0
4.830219 2.038221 -0.001095 0.0
1.833227 0.471529 0.000351 0.0
