2.19692194 0.44207274 -0.00385101 0.00000000
3.59453345 2.13662416 -0.00241990 0.00000000
1.01251555 1.36505177 -0.00000522 0.00000000
1.58658262 0.45318611 -0.00301567 0.00000000
0.38156046 0.72073591 0.00424378 0.00000000
4.74514453 1.02140008 0.00101761 0.00000000
1.81627774 0.81468590 -0.00065257 0.00000000
1.06517330 0.66820104 0.00344210 0.00000000
0.27248988 2.08007095 0.00388195 0.00000000
4.31508049 0.85738796 0.00037147 0.00000000
0.00306955 1.20548842 0.00133190 0.00000000
0.17218575 2.01036121 -0.00332250 0.00000000
2.71335786 0.05607903 0.00266509 0.00000000
3.08336835 0.60473168 0.00371531 0.00000000
3.98529290 0.05663037 0.00027610 0.00000000
1.03342673 0.28986441 0.00291431 0.00000000
3.02877742 0.34998956 0.00104695 0.00000000
3.75218160 1.54828118 0.00019654 0.00000000
1.86447658 1.09765890 -0.00368459 0.00000000
1.85713284 0.89914524 0.00067810 0.00000000
4.60090385 1.79406278 -0.00267512 0.00000000
2.99550074 2.17790897 -0.00080373 0.00000000
0.79008568 1.90066539 -0.00325225 0.00000000
1.59137528 0.39153933 0.00590599 0.00000000
2.99362322 2.18757480 0.00536516 0.00000000
0.87733721 2.07237171 0.00402870 0.00000000
2.68291217 2.09543676 0.00360797 0.00000000
2.22756695 2.08521495 -0.00255934 0.00000000
0.43074491 0.37167967 0.00171635 0.00000000
2.10953205 2.22833521 -0.00106207 0.00000000
3.68229098 1.17946841 0.00375572 0.00000000
0.15485576 0.01094873 -0.00203209 0.00000000
0.56900361 1.34424058 -0.00211875 0.00000000
0.59103999 1.07571470 -0.00052398 0.00000000
4.02669919 0.10243083 -0.00188438 0.00000000
2.98554009 1.87893511 0.00215711 0.00000000
2.29293394 0.82431320 -0.00324783 0.00000000
2.26380923 0.62714490 0.00377314 0.00000000
2.79913686 1.48450845 -0.00178928 0.00000000
4.06504804 0.28256803 -0.00579856 0.00000000
2.10925805 1.13450938 -0.00002061 0.00000000
2.02230894 0.54989743 -0.00016187 0.00000000
2.84950224 0.97468034 -0.00327409 0.00000000
1.13800208 1.78978086 0.00165396 0.00000000
4.88690524 1.71694336 0.00148039 0.00000000
2.18686837 0.25967249 -0.00056661 0.00000000
3.71501572 0.09619927 0.00390030 0.00000000
4.23881954 1.54094043 0.00482575 0.00000000
0.44058490 0.49906109 -0.00015032 0.00000000
4.09018796 0.30551617 0.00236991 0.00000000
4.24169313 2.17689202 -0.00236353 0.00000000
1.60484082 0.73868698 -0.00162051 0.00000000
4.65487606 1.49550278 0.00179724 0.00000000
1.87247855 1.61542183 0.00069536 0.00000000
1.26268050 2.17626784 0.00194025 0.00000000
3.62565108 1.96458324 -0.00042109 0.00000000
1.63996146 0.69743584 0.00220033 0.00000000
4.35913545 1.79900103 -0.00144366 0.00000000
0.40805954 1.24185392 -0.00448468 0.00000000
2.82449368 1.00181595 0.00008561 0.00000000
3.80062181 0.48264657 0.00245572 0.00000000
4.59850258 1.07452690 -0.00183865 0.00000000
2.99592111 1.51220586 0.00093157 0.00000000
2.17737496 0.63393005 -0.00061234 0.00000000
4.40167796 1.14385698 0.00034827 0.00000000
2.11389137 2.15343009 0.00573087 0.00000000
2.82774848 1.83095440 0.00192675 0.00000000
4.29830232 0.62719395 0.00246008 0.00000000
0.95957476 1.79310369 -0.00131718 0.00000000
1.92881979 1.52207319 -0.00143966 0.00000000
3.75866059 0.84152093 -0.00095125 0.00000000
4.69237777 2.04534635 0.00240170 0.00000000
4.08253213 1.74549458 -0.00194494 0.00000000
2.88680374 2.24339906 0.00248430 0.00000000
4.47707132 1.12264516 0.00299298 0.00000000
4.21065397 0.36621816 0.00151028 0.00000000
3.35560677 0.34558532 0.00109167 0.00000000
2.00655985 0.37484909 0.00000208 0.00000000
0.83990333 1.56602503 -0.00415006 0.00000000
1.73221831 0.35690809 -0.00224110 0.00000000
1.24351470 1.51889918 0.00407934 0.00000000
4.28668310 2.16563366 -0.00110303 0.00000000
3.31036791 0.79377351 -0.00510575 0.00000000
3.04492674 2.01738774 0.00100459 0.00000000
2.14816960 0.45201934 -0.00530708 0.00000000
0.05561577 2.23666548 0.00285600 0.00000000
3.17827480 1.49106415 0.00088279 0.00000000
4.31462692 0.33590388 -0.00153964 0.00000000
1.88758498 1.38174592 0.00292786 0.00000000
0.81850987 1.68054172 -0.00230448 0.00000000
2.29478506 1.76462304 -0.00050316 0.00000000
4.54943238 1.89772345 -0.00325832 0.00000000
2.95925352 2.12634125 -0.00090581 0.00000000
3.13399837 1.82420953 -0.00367251 0.00000000
2.72413250 1.57417923 -0.00093228 0.00000000
3.86839698 0.89968942 -0.00219928 0.00000000
0.52464702 1.79270864 0.00293277 0.00000000
4.25821782 0.45567363 -0.00243709 0.00000000
0.53719202 2.17663813 0.00173414 0.00000000
4.38287050 2.19887758 0.00100096 0.00000000
4.83312566 2.11928947 0.00471197 0.00000000
1.66773050 0.22726128 0.00139420 0.00000000
4.16934225 1.10673691 -0.00106395 0.00000000
3.06283565 1.90125375 0.00260313 0.00000000
0.03421371 1.31327775 -0.00389481 0.00000000
3.88361511 0.32384769 0.00313486 0.00000000
0.33185673 1.39981220 0.00072728 0.00000000
1.85360701 0.32443583 -0.00039643 0.00000000
1.57836429 1.91940802 0.00354159 0.00000000
0.61062771 1.42480905 -0.00084431 0.00000000
4.14210508 0.13892554 0.00276221 0.00000000
2.73141556 0.07987154 -0.00327839 0.00000000
2.88642340 0.07451495 0.00002555 0.00000000
2.18094798 0.60634915 -0.00054612 0.00000000
2.09488749 1.00355962 0.00110246 0.00000000
0.11935997 0.99318491 0.00218980 0.00000000
3.57812021 1.06983383 0.00302652 0.00000000
1.42459600 1.06340774 -0.00043463 0.00000000
0.69819164 0.08558004 0.00124318 0.00000000
2.50364167 0.46780036 -0.00192977 0.00000000
4.82398152 0.27153740 -0.00073624 0.00000000
0.57979118 0.91915761 -0.00184774 0.00000000
3.98318522 0.58167290 0.00557660 0.00000000
3.94358744 0.07339673 0.00142498 0.00000000
3.32000522 1.56011910 -0.00161753 0.00000000
2.14272647 2.17242401 0.00018374 0.00000000
4.34075067 2.05176763 -0.00024957 0.00000000
1.55017863 0.66949367 -0.00098072 0.00000000
3.82442445 2.13909235 0.00071890 0.00000000
2.02015934 0.57216013 0.00392368 0.00000000
3.35129977 1.36693399 0.00199152 0.00000000
0.98664380 1.55635042 0.00107290 0.00000000
1.14048242 0.75566892 0.00419283 0.00000000
2.40214251 0.92783126 0.00648099 0.00000000
4.86441206 1.13589548 -0.00398385 0.00000000
3.89805334 1.69540868 -0.00115500 0.00000000
4.38380065 1.09245841 0.00235802 0.00000000
3.74309593 0.65450039 -0.00029470 0.00000000
0.40688336 0.71912229 -0.00209824 0.00000000
1.72861264 2.00635174 -0.00292467 0.00000000
3.71072510 0.74049445 0.00257374 0.00000000
0.03529261 1.38672724 -0.00024703 0.00000000
2.07938495 0.60444869 -0.00021010 0.00000000
3.87718210 0.48584071 -0.00447762 0.00000000
2.61608730 1.15140761 -0.00583129 0.00000000
1.99509804 1.06167289 0.00404596 0.00000000
2.95456600 0.80274072 -0.00195800 0.00000000
4.29197459 1.74952490 0.00306873 0.00000000
2.25468096 0.60867413 0.00370941 0.00000000
0.29435544 1.89284964 -0.00156463 0.00000000
0.65263996 2.15371990 0.00110376 0.00000000
0.22916236 0.95888798 -0.00025683 0.00000000
1.85552981 1.81330772 0.00122023 0.00000000
2.89410643 1.84115730 0.00191324 0.00000000
4.73885204 1.29883423 -0.00090884 0.00000000
2.77672022 1.44219572 0.00458212 0.00000000
1.39056499 0.53471834 0.00168928 0.00000000
1.63217930 0.23756982 0.00065125 0.00000000
2.56716274 0.47826903 -0.00166524 0.00000000
2.45105827 2.02099101 -0.00398139 0.00000000
4.61156266 0.65852942 -0.00047677 0.00000000
4.12001585 0.50683915 -0.00305320 0.00000000
0.90910229 0.95727397 -0.00226697 0.00000000
0.34686691 1.14410718 0.00074687 0.00000000
2.84171707 0.59267766 0.00150473 0.00000000
4.56779913 1.97706792 -0.00016093 0.00000000
2.88367706 0.37991177 -0.00079490 0.00000000
1.80274926 1.04475970 -0.00143701 0.00000000
4.44205245 0.89112175 -0.00315771 0.00000000
1.58076525 0.96596082 0.00166594 0.00000000
0.19363684 0.09378737 -0.00139011 0.00000000
3.54701765 0.39253499 -0.00013470 0.00000000
0.16082987 0.16909582 0.00297501 0.00000000
2.45830246 0.22590213 0.00186590 0.00000000
1.74866248 0.60408851 -0.00097052 0.00000000
3.95472031 1.37451660 -0.00452396 0.00000000
1.61177177 0.98062937 0.00296063 0.00000000
2.92647125 1.23510043 -0.00278984 0.00000000
0.59834927 1.19306993 -0.00047680 0.00000000
1.67878161 0.00000844 -0.00238658 0.00000000
0.58024737 1.02821584 0.00228765 0.00000000
2.95675324 0.19877846 0.00027640 0.00000000
0.95159260 0.21668032 -0.00386150 0.00000000
3.67353289 0.64578322 0.00329210 0.00000000
3.52332749 0.68272741 -0.00130735 0.00000000
4.30530233 1.35045907 0.00365757 0.00000000
2.56174061 2.13798626 -0.00124695 0.00000000
4.50525432 1.43253243 0.00115715 0.00000000
1.76302731 1.79371960 0.00125936 0.00000000
2.39966935 0.32501070 0.00436213 0.00000000
0.02521321 0.94110502 0.00308367 0.00000000
4.49874834 0.25738232 -0.00143775 0.00000000
2.96763318 1.05932042 -0.00085934 0.00000000
4.27099201 1.94191508 -0.00324069 0.00000000
4.05145373 1.40056045 -0.00197437 0.00000000
3.70033732 0.23976268 0.00146701 0.00000000
1.18725321 1.01122072 0.00235798 0.00000000
0.86825660 2.19075853 -0.00178890 0.00000000
3.29980099 1.76908102 0.00309286 0.00000000
4.81093051 2.22595155 -0.00168527 0.00000000
2.03391608 0.86321272 -0.00165917 0.00000000
3.70962398 0.58808835 -0.00491752 0.00000000
2.79534610 0.89217200 0.00187727 0.00000000
3.98115284 1.10927060 -0.00164600 0.00000000
3.02700211 0.92685898 0.00453574 0.00000000
1.71803537 0.26932865 0.00071506 0.00000000
2.68928121 1.42355394 0.00103950 0.00000000
3.16555576 1.21482833 0.00097363 0.00000000
4.56877746 0.28849483 -0.00624235 0.00000000
3.04895428 0.35275428 0.00436392 0.00000000
4.07966717 1.58892766 -0.00004887 0.00000000
4.68023284 1.91859745 -0.00197337 0.00000000
1.02171657 1.86403303 0.00007879 0.00000000
0.14890189 0.72948463 0.00559497 0.00000000
4.17566668 0.53506271 0.00097727 0.00000000
0.95585148 1.41617447 -0.00053934 0.00000000
3.64621111 0.32489492 0.00025878 0.00000000
2.08844125 1.57644722 -0.00016243 0.00000000
1.41857810 0.38515869 0.00514109 0.00000000
2.81994824 2.04617736 0.00034527 0.00000000
0.61292262 0.51272154 -0.00604233 0.00000000
0.57991452 2.23193201 -0.00372214 0.00000000
3.05017402 0.83669691 -0.00406005 0.00000000
0.09708996 1.68925351 -0.00004331 0.00000000
2.43738696 1.43374148 0.00070661 0.00000000
0.63441974 0.67812755 0.00102108 0.00000000
2.52463510 0.84169548 -0.00241020 0.00000000
4.19483370 1.04163344 -0.00362071 0.00000000
1.90301313 0.49689594 -0.00209410 0.00000000
2.51294367 2.03546623 0.00303582 0.00000000
2.97037176 0.66010308 -0.00596392 0.00000000
2.81143392 1.56182920 -0.00408493 0.00000000
4.61458180 1.92449483 -0.00097412 0.00000000
3.04634941 0.43752802 0.00769725 0.00000000
2.04882303 1.08999706 0.00264527 0.00000000
0.79540711 0.26637732 0.00984106 0.00000000
2.01448543 1.73555068 0.00120217 0.00000000
1.39973030 0.09525541 0.00112547 0.00000000
1.67161600 1.01151920 0.00020285 0.00000000
1.62380684 0.72454386 0.00217689 0.00000000
0.92877576 1.81055924 0.00330544 0.00000000
0.96237791 1.51919348 -0.00188151 0.00000000
3.99910448 0.63617564 -0.00432213 0.00000000
3.15282488 1.22730402 -0.00427023 0.00000000
3.88963311 1.15126673 0.00020273 0.00000000
4.22664867 0.80449432 0.00295003 0.00000000
4.48876168 0.01366727 0.00354688 0.00000000
0.49086734 2.04902036 0.00427114 0.00000000
0.05747014 1.56729919 0.00138063 0.00000000
0.42149391 0.57997719 0.00461323 0.00000000
0.16900820 1.66046078 0.00355477 0.00000000
1.71605361 1.86094040 -0.00344395 0.00000000
2.53007263 1.35885550 0.00188166 0.00000000
0.47527447 0.95557382 -0.00407443 0.00000000
1.30659394 1.07500655 0.00002855 0.00000000
2.32730394 0.72151061 0.00492828 0.00000000
1.36368869 1.78982155 -0.00028803 0.00000000
0.76120309 0.58919554 0.00012686 0.00000000
4.00434914 1.91329568 -0.00257756 0.00000000
3.44499363 1.64317997 0.00167277 0.00000000
3.78152892 0.36614162 0.00150648 0.00000000
2.92857068 1.17146719 -0.00093897 0.00000000
2.83707466 1.76510863 -0.00110206 0.00000000
1.42721792 0.94482227 -0.00119552 0.00000000
4.91312971 0.05543082 -0.00028333 0.00000000
0.87412045 0.50204098 0.00331825 0.00000000
1.61032205 0.00182195 0.00010600 0.00000000
2.92324981 0.34074590 -0.00023836 0.00000000
1.59914367 0.85453918 0.00448686 0.00000000
3.81122929 0.42974700 0.00130930 0.00000000
2.18264526 0.32360081 -0.00291226 0.00000000
0.29037788 0.10715033 0.00128311 0.00000000
1.71675780 1.29742460 -0.00546108 0.00000000
4.38967039 0.58788417 0.00132679 0.00000000
4.68129092 0.37539840 0.00019957 0.00000000
3.44257885 1.66409080 -0.00068524 0.00000000
3.31535660 2.17155528 0.00121994 0.00000000
3.56466031 0.60059503 -0.00261161 0.00000000
3.01770878 1.38822284 0.00111764 0.00000000
2.73073897 0.96857081 -0.00157148 0.00000000
3.41935948 1.35623798 -0.00260259 0.00000000
4.70507832 0.16655990 -0.00054384 0.00000000
4.29420317 0.57192039 -0.00380045 0.00000000
0.92546457 2.17459733 0.00495633 0.00000000
0.86940031 2.24081540 0.00002099 0.00000000
1.16894337 0.96607295 -0.00329759 0.00000000
2.54875247 1.23280164 -0.00019478 0.00000000
2.76823233 0.25499690 0.00016438 0.00000000
3.34932533 0.85787747 -0.00503326 0.00000000
3.98895723 1.76076669 0.00111046 0.00000000
0.34182559 2.03920481 -0.00323116 0.00000000
2.54188423 0.90462461 -0.00144293 0.00000000
3.84987081 1.29286508 0.00134628 0.00000000
0.49383511 0.99629607 0.00386259 0.00000000
2.65537071 0.02396928 0.00306895 0.00000000
4.17068584 0.73193071 -0.00270428 0.00000000
1.45263734 0.53683729 0.00022859 0.00000000
4.54503249 1.40428654 0.00009980 0.00000000
2.33862058 0.53015191 0.00206861 0.00000000
0.59341554 1.86372118 -0.00128790 0.00000000
1.39471082 0.25846454 -0.00031989 0.00000000
2.90980047 1.16306793 -0.00116916 0.00000000
2.32392145 0.99759734 0.00246504 0.00000000
1.09119381 1.17401341 -0.00013832 0.00000000
0.28943871 0.53844925 -0.00186398 0.00000000
1.74666938 1.00141535 0.00041623 0.00000000
4.59622351 0.51162454 -0.00054176 0.00000000
0.29187177 2.15072242 -0.00147858 0.00000000
3.75975247 1.33509807 -0.00007192 0.00000000
4.48264162 1.88928407 -0.00175192 0.00000000
3.07202188 2.17565113 -0.00121017 0.00000000
3.50316492 1.29685666 -0.00272194 0.00000000
2.50650778 0.39015249 -0.00172886 0.00000000
3.06515020 1.23678380 0.00314122 0.00000000
1.30740328 1.68655579 -0.00147096 0.00000000
4.88579452 1.95115465 -0.00200584 0.00000000
4.37675898 0.04897195 0.00306185 0.00000000
0.67712429 0.48550081 0.00169754 0.00000000
2.80662250 1.86744945 -0.00314004 0.00000000
4.49607379 1.63834834 -0.00046568 0.00000000
3.01535435 0.61727166 -0.00328411 0.00000000
0.80172441 0.70858510 -0.00371777 0.00000000
1.13883290 0.93088790 0.00050569 0.00000000
4.75326016 0.79511955 0.00199145 0.00000000
0.90113770 0.97615327 -0.00427644 0.00000000
4.27967871 0.67233260 0.00119291 0.00000000
2.08840472 0.70443927 -0.00314954 0.00000000
2.57818648 1.52651602 -0.00470917 0.00000000
1.26535674 0.69433880 0.00095000 0.00000000
3.07032698 1.08915771 0.00023412 0.00000000
1.21130784 0.86843769 0.00119642 0.00000000
1.30398304 1.81487348 -0.00191964 0.00000000
2.77815817 1.66886184 -0.00256222 0.00000000
2.55504835 1.80751025 -0.00194137 0.00000000
2.05737242 1.79858090 0.00343748 0.00000000
1.11061030 0.59678755 -0.00154382 0.00000000
0.62135904 0.01406726 -0.00072245 0.00000000
0.63251170 0.89913116 0.00133470 0.00000000
4.50379068 1.04534563 0.00066021 0.00000000
1.39015453 1.70331109 0.00326276 0.00000000
3.97684399 1.27243405 0.00286293 0.00000000
0.74281844 1.54406888 -0.00418236 0.00000000
2.90375453 1.67190034 -0.00260425 0.00000000
0.03407162 1.32064749 0.00110763 0.00000000
1.79042079 0.51847084 0.00406463 0.00000000
4.63435261 1.99634795 -0.00473057 0.00000000
1.73463198 0.55955661 -0.00032470 0.00000000
4.23255328 0.55486085 -0.00183329 0.00000000
3.68007329 1.67759039 0.00186457 0.00000000
2.91247253 0.84474731 -0.00263759 0.00000000
1.70846671 1.76871394 0.00021595 0.00000000
2.81734886 1.90073367 0.00042542 0.00000000
3.37885105 1.51419539 0.00021318 0.00000000
4.14362683 1.99175216 0.00042528 0.00000000
1.71571822 0.06608123 0.00433491 0.00000000
4.87294069 1.75078833 -0.00125916 0.00000000
1.63569144 1.61137649 0.00198825 0.00000000
4.27428471 1.86793999 -0.00259966 0.00000000
3.67452043 1.06902710 0.00120124 0.00000000
3.82421497 1.75011868 0.00292203 0.00000000
4.87128468 0.44464429 0.00282578 0.00000000
2.90593523 0.39244006 0.00060705 0.00000000
2.74799545 0.19628961 -0.00046971 0.00000000
3.37404969 1.60515600 0.00151329 0.00000000
0.31945093 0.90648784 -0.00327250 0.00000000
2.98631500 1.63322930 -0.00086519 0.00000000
3.60556378 0.18013390 0.00075615 0.00000000
1.61646682 0.00037107 0.00197408 0.00000000
1.79439251 1.37905042 0.00022460 0.00000000
4.80978201 1.45540205 0.00148428 0.00000000
3.83254763 1.68759866 -0.00080222 0.00000000
4.21225105 1.31193828 0.00129272 0.00000000
1.78026156 1.03602506 0.00078691 0.00000000
2.59770012 1.93540937 -0.00296115 0.00000000
1.70154484 0.25140587 -0.00292800 0.00000000
1.18177084 0.68541911 -0.00185574 0.00000000
2.30383173 1.86992689 -0.00195590 0.00000000
4.60262977 1.50174272 -0.00066413 0.00000000
0.82046817 0.00408994 -0.00435934 0.00000000
1.90653755 1.34120426 0.00170265 0.00000000
0.09305312 0.54976059 -0.00101393 0.00000000
4.01893832 1.28350492 0.00131623 0.00000000
1.05492628 1.46534000 -0.00013365 0.00000000
1.15477257 0.53137895 0.00510876 0.00000000
3.48850594 0.32450640 0.00183985 0.00000000
0.31176402 0.41490577 -0.00074190 0.00000000
0.66288889 1.41839830 -0.00322808 0.00000000
0.50100554 2.23109842 0.00072574 0.00000000
0.79128573 0.77939481 -0.00305356 0.00000000
4.87771865 0.12553097 0.00208704 0.00000000
2.69240305 0.70683427 0.00222729 0.00000000
1.13718850 0.37251383 0.00055116 0.00000000
0.14926207 0.44713833 0.00419765 0.00000000
4.13637446 1.96699847 -0.00126928 0.00000000
2.10280746 1.68753691 -0.00492081 0.00000000
0.30968125 0.46723834 -0.00077700 0.00000000
2.18301119 2.08714902 -0.00000816 0.00000000
2.83340233 1.97123005 -0.00026810 0.00000000
3.25907330 0.97997403 0.00341006 0.00000000
0.18594302 2.12862425 0.00137022 0.00000000
2.96558670 1.12378086 0.00143157 0.00000000
4.44788103 0.36246767 -0.00120635 0.00000000
3.42222203 1.36269832 -0.00080007 0.00000000
3.15538440 2.10461805 -0.00176798 0.00000000
4.55230652 0.29583633 -0.00141485 0.00000000
2.03315644 1.01633301 -0.00060108 0.00000000
2.94471468 1.38420835 -0.00085572 0.00000000
4.08923568 0.48131932 -0.00426611 0.00000000
0.58219831 2.23520774 0.00062565 0.00000000
3.83702701 2.21655070 0.00020737 0.00000000
1.88415214 0.36599954 0.00345875 0.00000000
0.32300510 1.95343929 -0.00140244 0.00000000
3.97661573 2.01381193 0.00096887 0.00000000
4.59356805 0.23221650 0.00131606 0.00000000
1.46261255 1.55515981 -0.00063941 0.00000000
2.12856099 0.42318724 -0.00055719 0.00000000
0.51709020 1.34512972 -0.00519650 0.00000000
0.33355501 1.57777348 0.00213859 0.00000000
2.77720328 1.21837070 0.00033775 0.00000000
0.20201821 2.04266398 0.00283165 0.00000000
0.38927621 0.42736155 -0.00235923 0.00000000
4.87480097 0.35079211 0.00017697 0.00000000
3.22917945 2.05158418 0.00147753 0.00000000
4.27755767 0.78645307 0.00319386 0.00000000
2.99096289 1.74599479 0.00028766 0.00000000
2.17090640 1.31429098 -0.00290365 0.00000000
2.91254778 1.78244505 -0.00279259 0.00000000
3.64615851 0.35897385 -0.00115063 0.00000000
4.50872191 0.74629329 0.00619163 0.00000000
0.80533701 0.69963547 -0.00215743 0.00000000
0.03593056 2.08042659 -0.00166985 0.00000000
3.79322086 1.17423896 0.00370082 0.00000000
3.74081060 2.01376500 -0.00106531 0.00000000
2.35432419 1.62101311 -0.00130311 0.00000000
0.02748304 1.66722326 0.00282690 0.00000000
1.01942346 0.99633942 -0.00147756 0.00000000
0.64570667 1.23301397 0.00156630 0.00000000
1.74711457 0.65930190 0.00422830 0.00000000
3.75580968 0.72506924 -0.00327653 0.00000000
2.62597056 1.41782585 0.00019488 0.00000000
0.65717965 2.20455942 0.00173774 0.00000000
1.64688486 1.98249342 -0.00475756 0.00000000
3.64971569 0.08485932 0.00388049 0.00000000
1.91475260 2.01380721 0.00291256 0.00000000
3.96843156 0.68065108 0.00261580 0.00000000
2.30242131 0.70734349 0.00266970 0.00000000
2.44865426 1.55603893 0.00007551 0.00000000
3.64050244 1.20651823 0.00025667 0.00000000
0.13632315 1.67903186 0.00507015 0.00000000
4.32132590 0.13791651 -0.00126479 0.00000000
2.62760678 0.30683487 -0.00308088 0.00000000
4.64655734 1.50850560 0.00260175 0.00000000
3.01662401 2.19334557 -0.00040479 0.00000000
2.35940482 1.15262657 0.00015640 0.00000000
2.70741544 1.75774803 0.00286912 0.00000000
3.07370929 1.60516845 -0.00124379 0.00000000
4.18596469 0.72495730 -0.00466080 0.00000000
0.35650266 1.94911407 -0.00246998 0.00000000
0.81682946 0.67804176 0.00295238 0.00000000
0.20256063 0.78919370 -0.00219970 0.00000000
1.80027796 0.32332566 -0.00130691 0.00000000
1.46414449 1.71010124 0.00266649 0.00000000
4.73686353 1.14942807 -0.00017674 0.00000000
2.35464246 0.11045205 0.00395685 0.00000000
3.23836791 1.10217722 -0.00322468 0.00000000
2.94856418 0.80961094 0.00366225 0.00000000
2.79920979 0.41424254 0.00196117 0.00000000
1.38433162 1.83107292 0.00088127 0.00000000
0.45787149 2.03720949 -0.00035295 0.00000000
2.13440206 1.02382698 -0.00352201 0.00000000
1.67589878 0.32375999 -0.00102843 0.00000000
4.04961100 1.61707822 0.00044905 0.00000000
1.08502749 1.87248640 -0.00199836 0.00000000
3.58191937 0.18007125 0.00009079 0.00000000
1.00721909 0.34972246 -0.00227935 0.00000000
4.81031963 1.09840807 0.00124620 0.00000000
0.41812825 0.19501248 -0.00052601 0.00000000
0.81454466 2.17529254 0.00212725 0.00000000
0.07080560 0.89048537 -0.00138476 0.00000000
2.43902247 1.26603012 -0.00065956 0.00000000
3.06545746 2.07359113 -0.00183843 0.00000000
2.25597495 1.83632604 -0.00129436 0.00000000
3.56031521 0.66783644 0.00136107 0.00000000
3.93891694 1.21089207 -0.00207195 0.00000000
3.16693482 1.06708329 0.00302538 0.00000000
0.89458751 1.98334308 -0.00177288 0.00000000
0.53598631 1.14970692 0.00276725 0.00000000
4.32108685 0.49559468 -0.00214148 0.00000000
1.20298673 0.44051346 0.00228256 0.00000000
3.63179569 0.20392202 -0.00022784 0.00000000
3.92715875 1.88307719 -0.00174149 0.00000000
4.20871631 0.94367007 0.00296807 0.00000000
3.59254968 1.36666903 0.00365100 0.00000000
4.45217595 1.51421455 0.00404758 0.00000000
3.45865790 0.05602572 -0.00091527 0.00000000
2.97053564 1.16793877 0.00345389 0.00000000
4.48817065 1.59945106 0.00196079 0.00000000
4.02347609 0.39831223 0.00143761 0.00000000
2.07928499 1.56826054 -0.00046828 0.00000000
1.18717394 0.43459218 -0.00271851 0.00000000
1.05892519 1.93678078 -0.00020225 0.00000000
0.21950305 1.31243934 0.00355799 0.00000000
1.42914801 1.54182947 -0.00199140 0.00000000
1.33997696 1.22928865 0.00336802 0.00000000
0.62784999 1.51751350 -0.00163529 0.00000000
4.44230278 0.61247263 0.00071361 0.00000000
0.48893416 1.54861063 -0.00434249 0.00000000
3.92073790 0.32330195 -0.00354051 0.00000000
1.93183916 1.43851140 0.00054641 0.00000000
0.31109750 1.29096030 0.00220338 0.00000000
2.92592806 1.84469744 -0.00270931 0.00000000
0.17092755 1.04189156 0.00324835 0.00000000
3.70405904 0.63364776 0.00161889 0.00000000
2.61587959 1.35240894 0.00272577 0.00000000
0.37616717 0.52202925 -0.00260651 0.00000000
3.98356596 1.37577696 0.00307350 0.00000000
4.49777329 0.87368851 -0.00004760 0.00000000
2.93075503 0.10447837 0.00265602 0.00000000
2.40217376 1.16237062 0.00166344 0.00000000
1.82441987 0.40945536 0.00058080 0.00000000
0.54934805 1.76765884 0.00219577 0.00000000
3.22745263 1.28356676 -0.00033737 0.00000000
3.22014827 0.77269542 -0.00065873 0.00000000
2.40309490 1.09699934 -0.00071132 0.00000000
0.07543466 0.68562265 -0.00135344 0.00000000
3.00200823 1.39093154 0.00225544 0.00000000
2.57631124 1.30159652 0.00543131 0.00000000
2.74590178 0.84687402 -0.00175376 0.00000000
1.53671461 0.77221910 0.00522918 0.00000000
4.52428066 1.03406700 0.00010279 0.00000000
1.50911937 1.08106003 0.00601298 0.00000000
0.02917305 1.69829147 0.00473533 0.00000000
3.98988699 0.05455596 0.00178885 0.00000000
4.49218072 0.21396855 0.00333964 0.00000000
0.85953177 2.13302806 -0.00036320 0.00000000
0.97814463 0.43971379 0.00227661 0.00000000
4.02571229 1.74907748 -0.00064085 0.00000000
1.06406610 1.92175626 -0.00155650 0.00000000
3.31417551 2.22267171 -0.00143117 0.00000000
4.68249989 0.59106591 -0.00364135 0.00000000
0.33455876 1.25765358 0.00158479 0.00000000
4.50402865 0.65024247 0.00154341 0.00000000
0.52634782 0.34929526 0.00213183 0.00000000
1.19276934 0.42878304 -0.00072551 0.00000000
3.23547500 1.35474459 0.00061085 0.00000000
2.28346130 2.06967028 0.00132087 0.00000000
0.87035728 0.89576590 0.00331662 0.00000000
0.32768078 1.51737380 -0.00360732 0.00000000
1.27820223 0.63274623 -0.00175995 0.00000000
1.32927073 0.70843523 0.00098235 0.00000000
2.10095802 0.56774900 0.00087239 0.00000000
3.21967198 1.24691201 -0.00437035 0.00000000
3.70038607 1.86285187 -0.00297162 0.00000000
3.54453077 0.92786275 -0.00029957 0.00000000
1.36159506 0.93247953 0.00632103 0.00000000
4.06941231 2.16116895 0.00138476 0.00000000
0.08772670 1.25156553 0.00071329 0.00000000
3.85222335 2.14218194 0.00209692 0.00000000
0.96049900 1.64733865 0.00213796 0.00000000
0.67782965 1.89268802 0.00117261 0.00000000
2.69933789 1.75140227 0.00280094 0.00000000
2.81188378 1.68431687 0.00225876 0.00000000
2.97413128 0.88486107 -0.00324891 0.00000000
2.95201554 1.17024886 0.00131604 0.00000000
3.04568237 0.68653157 -0.00068414 0.00000000
4.55427283 0.36109319 0.00120844 0.00000000
4.38352027 1.70775322 -0.00039490 0.00000000
0.82374064 2.07701151 0.00341773 0.00000000
3.78781520 1.90507007 -0.00052595 0.00000000
0.68434749 0.40802920 0.00152625 0.00000000
0.66198886 0.01135979 -0.00433557 0.00000000
3.89303631 1.84098640 0.00335062 0.00000000
2.32197983 0.47316788 -0.00109150 0.00000000
4.35320672 2.24130269 0.00344559 0.00000000
0.48224530 2.04966348 -0.00156837 0.00000000
4.20982332 0.04662071 0.00388617 0.00000000
3.01833837 1.26214955 0.00018312 0.00000000
0.77118233 1.65690234 -0.00302544 0.00000000
4.58549780 0.56943267 -0.00142520 0.00000000
4.05077425 1.13462984 -0.00304746 0.00000000
2.01427222 1.28396290 0.00114413 0.00000000
1.41125205 1.28155626 -0.00100997 0.00000000
2.19007125 1.08199186 0.00425597 0.00000000
2.72590310 1.55877289 -0.00031164 0.00000000
0.23016670 0.15189407 0.00244029 0.00000000
2.37117799 2.12918755 0.00114954 0.00000000
4.92863080 0.38212591 -0.00077511 0.00000000
3.95137912 1.63003576 0.00452656 0.00000000
4.78159075 1.59897152 0.00079883 0.00000000
4.38458407 2.20888606 0.00217836 0.00000000
2.83701490 2.22010472 -0.00718662 0.00000000
2.18132081 0.37470099 -0.00016642 0.00000000
1.50789707 0.45958448 0.00517488 0.00000000
0.37544308 1.34286133 -0.00206174 0.00000000
4.59668308 0.20334491 -0.00067836 0.00000000
3.47584241 0.55893476 0.00252119 0.00000000
3.85341075 0.29816483 -0.00138915 0.00000000
2.01596229 0.72641098 0.00108302 0.00000000
1.59522663 2.19863717 -0.00005897 0.00000000
4.73714393 1.67427099 0.00029863 0.00000000
3.41035910 1.96635021 -0.00283250 0.00000000
1.59447440 1.72309402 0.00070414 0.00000000
2.25819515 2.08772561 -0.00356780 0.00000000
1.02869715 0.11790577 0.00103514 0.00000000
4.22260413 1.76566316 0.00225385 0.00000000
1.69316486 0.85994368 -0.00500578 0.00000000
4.73579571 1.12789486 0.00067642 0.00000000
0.00448819 1.30930919 0.00031737 0.00000000
0.44866285 2.01011201 -0.00148208 0.00000000
2.55744281 1.69251480 -0.00326360 0.00000000
0.48339380 1.02460594 -0.00296904 0.00000000
4.42342557 1.70059998 -0.00210427 0.00000000
0.67760197 2.17609168 0.00053104 0.00000000
1.79596454 1.86396556 -0.00058535 0.00000000
1.46556142 0.79739408 -0.00106165 0.00000000
1.32328133 1.16140453 -0.00146766 0.00000000
0.00646236 0.28051357 -0.00125795 0.00000000
4.63639654 0.85851822 0.00248199 0.00000000
2.06570364 0.14397111 -0.00092003 0.00000000
4.04860571 1.71358850 -0.00037722 0.00000000
2.03716114 1.67617907 -0.00103462 0.00000000
1.91795030 1.74933996 0.00329798 0.00000000
2.78657060 1.78117424 0.00330222 0.00000000
1.16717943 1.99396656 0.00218026 0.00000000
2.76637609 0.56598659 0.00066194 0.00000000
0.46748513 0.89581074 0.00268531 0.00000000
0.48693057 0.58107411 0.00130235 0.00000000
3.78602111 1.74424213 0.00670281 0.00000000
2.29034670 1.48076651 0.00229983 0.00000000
1.71974704 2.22524115 -0.00284032 0.00000000
0.09644610 1.72993468 0.00250483 0.00000000
2.55865437 1.18010732 -0.00234809 0.00000000
2.09545914 0.95858270 0.00165891 0.00000000
4.19495634 1.36464929 0.00025300 0.00000000
2.72698385 0.91961301 0.00163228 0.00000000
2.98006062 1.65009758 -0.00255389 0.00000000
2.62142051 0.09819019 -0.00107889 0.00000000
2.03729272 1.19349569 0.00112562 0.00000000
3.18476885 0.25989599 0.00385214 0.00000000
4.45250084 2.02504090 0.00378078 0.00000000
4.16759694 0.37495372 0.00000514 0.00000000
3.73000807 0.02490338 0.00105409 0.00000000
3.72857072 0.33396861 0.00334557 0.00000000
4.79941018 0.80595003 -0.00081436 0.00000000
1.26815353 1.83232220 -0.00199317 0.00000000
3.60855689 1.52358937 0.00000617 0.00000000
0.82789666 0.22017467 -0.00283998 0.00000000
3.36581247 0.25779284 -0.00168630 0.00000000
3.89926973 0.08751253 0.00187398 0.00000000
2.45712868 1.00153437 0.00101731 0.00000000
1.32211774 1.24742525 -0.00084838 0.00000000
2.78725819 1.21656924 -0.00494073 0.00000000
3.56358764 0.92297706 0.00006620 0.00000000
3.38685576 0.73195222 -0.00253688 0.00000000
3.42492061 1.46283319 -0.00203780 0.00000000
0.43114660 0.32877330 -0.00042492 0.00000000
0.90357674 1.95418421 0.00117393 0.00000000
1.16941670 1.77704256 -0.00020613 0.00000000
4.17645972 1.89557485 0.00491794 0.00000000
4.15207296 0.51977730 0.00348915 0.00000000
3.50172968 1.70876731 0.00215742 0.00000000
1.46846830 0.82647002 -0.00119632 0.00000000
1.17286001 1.14929677 0.00027161 0.00000000
3.12221477 1.07410111 0.00062932 0.00000000
1.02976423 0.90231159 -0.00161661 0.00000000
3.93955806 0.26594155 -0.00304331 0.00000000
3.20608818 0.26740591 0.00248458 0.00000000
1.19480706 0.46627534 -0.00021667 0.00000000
2.26471143 0.97478195 0.00021692 0.00000000
1.25600729 0.04461736 -0.00007298 0.00000000
4.70171754 2.18912742 0.00010207 0.00000000
3.65043453 1.50654343 0.00023836 0.00000000
2.39825791 0.95382825 0.00429104 0.00000000
1.08428152 2.04042267 -0.00161260 0.00000000
1.42191483 0.96218720 -0.00160747 0.00000000
2.87034580 2.01075280 -0.00170070 0.00000000
1.28678685 2.03138196 -0.00172321 0.00000000
4.68195180 1.11698056 0.00217709 0.00000000
4.13923012 1.49707653 0.00054831 0.00000000
4.03982133 0.09841291 -0.00174874 0.00000000
3.29332300 0.25570623 0.00254144 0.00000000
1.90396557 0.84256933 0.00367049 0.00000000
0.61088280 1.66103975 -0.00274932 0.00000000
4.37761288 1.52493131 0.00038085 0.00000000
3.18350562 0.18726611 0.00289044 0.00000000
1.69945400 1.46045995 0.00135722 0.00000000
0.37414064 1.83513792 0.00273932 0.00000000
0.30304191 0.36341079 0.00040202 0.00000000
4.51239526 1.80890471 -0.00003646 0.00000000
0.32070608 1.47888253 0.00061490 0.00000000
4.48910293 0.36242109 -0.00063682 0.00000000
2.64514817 1.45527637 -0.00168975 0.00000000
0.80727363 0.95268591 0.00171684 0.00000000
0.34892076 1.25316346 0.00380822 0.00000000
4.44828103 0.31952826 -0.00143461 0.00000000
0.39525151 0.17632566 -0.00196043 0.00000000
1.11754213 1.92520634 -0.00271815 0.00000000
4.44532690 0.74866584 0.00036432 0.00000000
4.59679773 0.16060397 -0.00359765 0.00000000
0.67977127 0.65823251 -0.00026450 0.00000000
4.14527344 0.87085209 0.00011808 0.00000000
0.62598639 0.36607053 0.00007271 0.00000000
0.28580870 1.02590260 0.00017921 0.00000000
1.12522242 0.89430951 -0.00174222 0.00000000
3.29692059 1.41704228 0.00098190 0.00000000
3.25770035 0.73502396 -0.00204170 0.00000000
2.31201386 2.23247222 0.00021316 0.00000000
3.44763819 0.76946890 -0.00088598 0.00000000
2.89377010 0.87988358 0.00000268 0.00000000
2.51447300 1.97289619 0.00095834 0.00000000
3.47919589 0.76712640 0.00073561 0.00000000
2.43072216 0.81508723 -0.00026196 0.00000000
3.89486998 0.65523617 -0.00330498 0.00000000
0.59912644 0.26687132 0.00107843 0.00000000
4.91452038 0.00860871 0.00276664 0.00000000
4.78963859 1.75773694 -0.00325630 0.00000000
3.14178759 2.19023850 0.00377816 0.00000000
2.47786019 0.63191431 -0.00010462 0.00000000
0.35279561 2.03083823 -0.00163157 0.00000000
1.76183921 1.31758503 0.00046007 0.00000000
2.31758450 0.57696637 0.00186539 0.00000000
1.43924647 1.46487531 -0.00449356 0.00000000
4.19918536 1.06934102 -0.00363384 0.00000000
2.42617309 0.05286714 -0.00049863 0.00000000
0.61713602 1.30303493 0.00078820 0.00000000
3.14835227 2.23443882 0.00047673 0.00000000
0.72086273 1.03093844 -0.00249089 0.00000000
1.46776565 0.68545829 -0.00494582 0.00000000
0.05036715 0.22561527 -0.00263602 0.00000000
3.70772293 1.69700348 -0.00444439 0.00000000
0.72272915 0.84365594 0.00061286 0.00000000
3.73374968 1.42239333 -0.00157530 0.00000000
0.06910245 1.26816080 0.00035048 0.00000000
1.11945479 1.20850637 0.00029064 0.00000000
1.75980966 1.28884069 -0.00128239 0.00000000
1.26648889 1.89576984 -0.00226190 0.00000000
4.49561937 2.14673711 0.00174128 0.00000000
1.00135891 1.79009587 -0.00248716 0.00000000
1.85541071 0.05048024 -0.00292081 0.00000000
3.95651428 0.91875265 0.00253156 0.00000000
0.10830613 1.07452069 0.00139597 0.00000000
3.57849312 1.27076351 0.00227439 0.00000000
4.43262125 2.20911823 -0.00251058 0.00000000
4.57265338 1.32936950 -0.00234207 0.00000000
3.85143412 2.11949553 -0.00141739 0.00000000
1.06369934 1.93631948 -0.00029020 0.00000000
0.97030187 1.64769766 -0.00015120 0.00000000
1.31301628 1.98322799 0.00260684 0.00000000
3.87560298 1.10481376 0.00165233 0.00000000
2.44914119 0.14956259 0.00263803 0.00000000
4.54217426 1.54100532 0.00207407 0.00000000
1.84192812 0.34839461 -0.00240417 0.00000000
4.34687413 0.07673064 -0.00504639 0.00000000
4.89560961 1.64927570 0.00295484 0.00000000
0.23165291 1.29540445 -0.00073582 0.00000000
1.51868640 0.37897378 -0.00292615 0.00000000
0.81945179 0.72113979 -0.00297971 0.00000000
4.20060778 1.32632562 -0.00067495 0.00000000
4.13203487 0.73515526 0.00062690 0.00000000
2.43743167 1.02457670 -0.00383350 0.00000000
4.88996980 1.39291223 0.00214490 0.00000000
2.84578323 1.89600151 0.00050987 0.00000000
1.36705279 0.86194401 0.00343649 0.00000000
0.98026808 1.01467750 -0.00695102 0.00000000
2.93278002 1.20964287 0.00204767 0.00000000
4.86249049 1.71081761 0.00053644 0.00000000
3.17730164 1.66690906 0.00219348 0.00000000
3.14128731 0.35156962 0.00024119 0.00000000
1.86426424 1.53252561 -0.00207712 0.00000000
1.03765969 1.72887734 -0.00041899 0.00000000
3.41260401 2.22612202 -0.00327497 0.00000000
3.65470618 2.18376266 -0.00313219 0.00000000
4.17801838 1.30522281 0.00107044 0.00000000
4.48495229 2.15455159 -0.00429357 0.00000000
2.51386501 0.62311494 -0.00129267 0.00000000
4.19579284 1.10711059 -0.00275977 0.00000000
3.10975235 0.54832194 -0.00202435 0.00000000
3.71808823 1.36732474 0.00265244 0.00000000
2.73809635 0.30906974 0.00077749 0.00000000
2.84877520 0.17509490 -0.00228808 0.00000000
4.80780623 0.40968814 0.00086717 0.00000000
0.38907832 1.38268551 -0.00240010 0.00000000
4.86496732 1.99635836 0.00153702 0.00000000
1.32403241 1.90216425 -0.00719248 0.00000000
0.82740202 0.24778421 -0.00236195 0.00000000
2.43531144 1.06140795 0.00380430 0.00000000
4.76356060 1.05836928 0.00101668 0.00000000
1.80934567 0.59186170 0.00056126 0.00000000
4.82081320 2.16393493 0.00049708 0.00000000
4.68027205 1.83464312 0.00123725 0.00000000
3.43435650 1.27749597 0.00230949 0.00000000
0.82868397 1.50593577 0.00408270 0.00000000
0.65928811 1.82392527 0.00041246 0.00000000
0.39644087 1.54349375 0.00131421 0.00000000
2.32083601 1.87202239 0.00076404 0.00000000
4.55796820 0.63287017 -0.00411993 0.00000000
4.67621685 1.78753105 0.00245263 0.00000000
0.20972067 1.18165301 0.00006709 0.00000000
4.16670537 0.61047446 0.00030981 0.00000000
0.35270284 0.96820890 -0.00127919 0.00000000
2.98043171 0.06289269 -0.00072762 0.00000000
1.43439307 1.30292219 0.00186759 0.00000000
0.52792313 2.09827784 0.00022890 0.00000000
2.27008765 1.37545906 -0.00033807 0.00000000
4.77483842 0.80760141 0.00192675 0.00000000
3.06624563 0.72702881 -0.00004374 0.00000000
1.54330801 0.51004862 0.00287768 0.00000000
1.87510332 1.52449768 0.00005986 0.00000000
4.70517366 0.13723396 -0.00123625 0.00000000
2.71165178 0.97625294 0.00459829 0.00000000
0.41686971 1.31195775 -0.00018429 0.00000000
1.95933981 1.40448600 0.00100477 0.00000000
4.15855858 2.08185641 0.00162061 0.00000000
2.64218295 1.27271535 0.00119420 0.00000000
1.47895601 1.13448351 0.00162090 0.00000000
1.72627821 0.38265138 0.00444333 0.00000000
4.20463810 0.37655116 0.00377673 0.00000000
4.84530116 0.65138918 0.00326943 0.00000000
4.85537415 1.50069614 -0.00321225 0.00000000
4.04003700 0.65856136 0.00006021 0.00000000
2.05498960 1.81233964 0.00101660 0.00000000
0.03275210 1.17856499 0.00065943 0.00000000
3.95731422 0.74213655 -0.00144407 0.00000000
4.10729002 1.27295251 0.00016710 0.00000000
1.21846229 0.05362330 -0.00393634 0.00000000
2.21687343 0.26532072 0.00098926 0.00000000
1.91590120 1.67531487 -0.00516917 0.00000000
2.16282495 1.49107621 -0.00204426 0.00000000
4.17371282 1.40033845 0.00102929 0.00000000
3.74186358 1.61478964 -0.00340283 0.00000000
3.05681109 1.37269717 -0.00124065 0.00000000
3.77459887 0.64521738 0.00606051 0.00000000
4.02947070 1.29329059 -0.00449319 0.00000000
1.55291748 1.68494515 -0.00201943 0.00000000
3.56712213 1.85257373 -0.00016740 0.00000000
4.07132030 0.00825697 0.00351604 0.00000000
4.60748047 1.85140502 -0.00586116 0.00000000
3.78245184 0.57172503 0.00050609 0.00000000
1.95330838 0.39607642 -0.00272054 0.00000000
2.18471008 2.06069566 -0.00149992 0.00000000
2.02275431 1.70451275 0.00065029 0.00000000
4.50040187 1.76303465 0.00355904 0.00000000
2.49925629 1.00277380 0.00051025 0.00000000
1.24302473 0.50209682 0.00056433 0.00000000
2.92345740 1.05462166 0.00075672 0.00000000
1.01605351 1.06338363 -0.00075050 0.00000000
2.13356959 0.94496020 -0.00103267 0.00000000
2.71083151 1.56565040 -0.00265964 0.00000000
3.91790237 0.54137848 -0.00154882 0.00000000
3.95849129 1.04058982 -0.00208980 0.00000000
3.07194823 2.18568766 -0.00227281 0.00000000
0.61175361 1.13559942 -0.00223164 0.00000000
1.83669662 1.75383509 0.00053854 0.00000000
1.72508145 0.17436530 0.00071937 0.00000000
0.81628854 2.03664931 -0.00178673 0.00000000
3.44550278 1.95493568 -0.00183864 0.00000000
0.11342207 1.67983730 0.00132796 0.00000000
0.62559106 1.56486573 -0.00040148 0.00000000
1.52987279 1.64532649 -0.00227648 0.00000000
3.23240996 1.34616326 0.00107375 0.00000000
0.67631702 1.20469053 -0.00085355 0.00000000
0.41709670 0.53663260 0.00110414 0.00000000
1.69824947 1.51531888 -0.00055655 0.00000000
4.42662541 1.59562151 -0.00215684 0.00000000
0.26369735 1.14871974 0.00333680 0.00000000
3.27682461 1.71099572 -0.00003654 0.00000000
1.83674038 0.55970375 0.00128722 0.00000000
4.24419478 1.18293210 -0.00025724 0.00000000
3.77765701 0.61441065 -0.00041598 0.00000000
0.64198178 0.53071611 -0.00138484 0.00000000
1.16388582 0.80646010 0.00182949 0.00000000
3.63241897 0.96014162 0.00308814 0.00000000
2.17327345 2.22599574 0.00150292 0.00000000
0.84791349 0.50880425 0.00145853 0.00000000
4.67604021 0.13179254 0.00063599 0.00000000
3.81644672 0.71247477 0.00495332 0.00000000
1.53621591 1.20418805 -0.00136210 0.00000000
0.59778775 0.68771042 0.00000282 0.00000000
3.40229447 0.74375016 -0.00385951 0.00000000
0.85542836 2.08207106 0.00024315 0.00000000
2.53194694 1.71078969 -0.00217351 0.00000000
4.83056694 0.40278223 -0.00022073 0.00000000
4.48523782 0.15870041 0.00273549 0.00000000
1.19853841 2.15091532 0.00204020 0.00000000
0.72218735 1.95245312 -0.00077845 0.00000000
0.86688660 1.08295526 0.00223427 0.00000000
0.18936081 0.95621992 -0.00064970 0.00000000
1.87095977 1.25571441 0.00454871 0.00000000
3.36403713 1.46526221 0.00066570 0.00000000
0.89983118 0.63102272 0.00132696 0.00000000
1.20519310 1.97903331 0.00238646 0.00000000
4.80806805 0.93673659 -0.00001810 0.00000000
3.52125706 1.94647496 0.00281582 0.00000000
3.48460951 0.98154898 -0.00396969 0.00000000
2.23385292 1.24482999 -0.00326014 0.00000000
1.99306382 0.88583027 -0.00350664 0.00000000
3.24103422 0.95448758 -0.00381696 0.00000000
3.10885735 0.64037810 0.00120892 0.00000000
0.85943019 1.10049871 0.00081819 0.00000000
3.74468325 1.47841748 0.00210547 0.00000000
0.92783445 0.96012453 0.00122184 0.00000000
3.77755354 1.00102579 0.00187720 0.00000000
4.30235925 2.12333842 0.00144669 0.00000000
4.15580277 1.36112978 -0.00393514 0.00000000
0.88223175 1.93729045 -0.00077172 0.00000000
3.16629061 1.50890273 -0.00105558 0.00000000
3.06366378 1.01234993 0.00171411 0.00000000
1.24966150 0.03631318 -0.00200729 0.00000000
3.01913409 1.23878951 -0.00087602 0.00000000
3.85875673 0.63836301 0.00444859 0.00000000
4.29267109 0.99639294 0.00046524 0.00000000
1.37483477 0.70174764 0.00428558 0.00000000
1.91240138 0.91143083 -0.00198666 0.00000000
0.18274161 1.10539190 -0.00219363 0.00000000
1.77777329 1.66482340 -0.00595858 0.00000000
0.48679588 1.17369666 0.00043706 0.00000000
2.79275969 1.44170362 -0.00231054 0.00000000
4.15784718 2.15426832 -0.00180263 0.00000000
1.03853690 2.17330550 0.00145158 0.00000000
1.94572164 2.08683721 0.00075910 0.00000000
4.89982729 0.93713720 -0.00386513 0.00000000
1.86409714 1.18040302 -0.00232963 0.00000000
2.61750273 0.99009422 0.00171817 0.00000000
3.21263584 1.98845947 0.00486575 0.00000000
0.65634206 2.20207788 -0.00276557 0.00000000
4.69362566 1.62445355 0.00227208 0.00000000
4.52534825 1.32827729 0.00309447 0.00000000
0.37090530 1.01280352 -0.00304767 0.00000000
1.04289187 0.34437175 0.00211202 0.00000000
0.77169674 0.78790792 0.00257336 0.00000000
0.86304175 2.09419201 -0.00145514 0.00000000
0.44009103 0.44416667 -0.00018493 0.00000000
0.25227329 1.69675638 0.00357456 0.00000000
3.53182808 1.45731544 0.00233006 0.00000000
0.66446730 1.84656259 -0.00113864 0.00000000
4.22707475 1.58942395 0.00248242 0.00000000
0.11012671 1.37644159 0.00110133 0.00000000
0.25035620 1.31942276 0.00121513 0.00000000
4.76510443 1.16829290 0.00135796 0.00000000
3.75802966 2.09110691 0.00177963 0.00000000
4.52987624 1.08736324 -0.00270154 0.00000000
0.92771369 2.12001194 0.00035723 0.00000000
3.08131032 0.98547872 0.00184496 0.00000000
2.05958348 1.96943167 -0.00098563 0.00000000
2.68986250 0.41843405 -0.00180198 0.00000000
0.89956181 2.09938914 -0.00442077 0.00000000
1.71277039 0.58257644 0.00346882 0.00000000
0.68813568 1.06674040 -0.00022742 0.00000000
3.60754361 1.31335982 -0.00277678 0.00000000
2.40219006 0.87469035 0.00378519 0.00000000
4.33102207 1.02548710 0.00069164 0.00000000
0.95702167 0.96729957 0.00560324 0.00000000
0.81731640 0.82031450 -0.00424499 0.00000000
2.93996001 1.47168581 -0.00084253 0.00000000
2.77396720 0.10174886 0.00033138 0.00000000
4.63907217 1.17780867 -0.00056429 0.00000000
2.59649904 1.00759659 0.00363042 0.00000000
4.85331613 0.20332215 -0.00601441 0.00000000
2.44960366 1.79316682 -0.00100511 0.00000000
3.33670610 1.22163069 0.00171712 0.00000000
4.27913869 0.57582816 0.00116486 0.00000000
3.98876731 1.21534964 0.00315854 0.00000000
3.89635685 0.79116062 0.00230832 0.00000000
4.44198475 1.94116470 0.00416380 0.00000000
1.12656849 2.21492493 -0.00130457 0.00000000
0.98861538 0.36394263 -0.00110198 0.00000000
1.58982051 0.34190121 -0.00065278 0.00000000
3.48546129 0.15109208 -0.00079239 0.00000000
4.16123879 0.88456866 0.00342682 0.00000000
3.88847164 0.64280205 0.00269734 0.00000000
0.80992352 1.26392132 -0.00011355 0.00000000
0.69941664 1.16638793 0.00038481 0.00000000
2.58188593 1.08353709 0.00039585 0.00000000
3.70721949 1.78032756 -0.00437583 0.00000000
3.93156746 1.31603540 0.00049708 0.00000000
3.01180683 0.39503055 0.00047279 0.00000000
0.55881016 0.17956368 -0.00312704 0.00000000
2.55601303 0.55454747 0.00027060 0.00000000
4.32874891 1.80914478 0.00112574 0.00000000
0.25899059 1.64886493 0.00226200 0.00000000
4.87430237 1.73978262 0.00106539 0.00000000
4.47991921 0.49079078 0.00122741 0.00000000
2.49259838 0.81028060 0.00217516 0.00000000
2.29231577 0.54349450 0.00227866 0.00000000
2.48491808 0.51196657 -0.00069396 0.00000000
0.15867733 1.91438068 0.00109129 0.00000000
3.15262121 1.94300063 -0.00306223 0.00000000
2.90157116 1.05488645 -0.00330505 0.00000000
1.10949817 0.73894049 0.00189100 0.00000000
1.74186747 1.15583026 0.00423213 0.00000000
0.99011972 2.02528579 0.00337548 0.00000000
0.14094123 1.60976281 0.00373916 0.00000000
3.25909245 1.97651950 0.00191914 0.00000000
3.25078351 0.61435251 0.00414751 0.00000000
1.92187384 0.03194018 -0.00459625 0.00000000
2.84938715 0.63165999 0.00208681 0.00000000
3.17507831 0.85351274 -0.00377726 0.00000000
1.71569508 0.84811369 -0.00258231 0.00000000
0.72275184 1.04931119 -0.00217845 0.00000000
4.35890634 1.88930218 0.00367813 0.00000000
3.30876175 0.79140132 0.00283605 0.00000000
4.03483885 1.19907231 -0.00709926 0.00000000
0.58346751 2.09507571 0.00089889 0.00000000
0.39201139 1.89775365 0.00289178 0.00000000
3.03032880 1.28019458 -0.00089975 0.00000000
0.65039752 1.01783937 0.00280740 0.00000000
2.98299171 0.22321654 -0.00167495 0.00000000
1.39367261 1.94842897 -0.00112643 0.00000000
4.56009440 1.70808206 0.00263121 0.00000000
2.24295549 1.36299293 -0.00182100 0.00000000
0.50149379 1.20693111 -0.00060397 0.00000000
1.06792501 1.21967157 0.00025499 0.00000000
1.32959032 2.15196968 -0.00230384 0.00000000
3.05631268 1.58001263 0.00360488 0.00000000
1.34261234 2.23306635 -0.00239729 0.00000000
2.62082096 1.63210246 0.00317167 0.00000000
2.43822161 0.28128849 -0.00379427 0.00000000
1.51971614 0.84209297 0.00235109 0.00000000
2.08142467 1.41579252 0.00151075 0.00000000
3.96007604 1.16185439 0.00041065 0.00000000
3.36381485 0.53120162 0.00140681 0.00000000
1.69227535 0.16221572 -0.00279150 0.00000000
1.31178556 1.94602349 0.00059408 0.00000000
2.76688120 0.88395589 -0.00135908 0.00000000
0.86723429 1.61668813 0.00078859 0.00000000
2.29718968 0.48781087 0.00027914 0.00000000
2.49023604 0.91204567 -0.00032781 0.00000000
0.74715408 0.98803257 -0.00254378 0.00000000
0.67547506 0.60652621 -0.00226325 0.00000000
2.56808004 1.90010654 -0.00345960 0.00000000
0.04883187 2.14001049 0.00073526 0.00000000
0.12720164 1.51374328 -0.00225683 0.00000000
4.26324177 0.80053202 0.00016076 0.00000000
3.39497797 1.62149685 -0.00044815 0.00000000
2.28916129 0.40001038 0.00036078 0.00000000
2.51109855 2.09933366 0.00056107 0.00000000
1.11367614 1.25091407 -0.00260352 0.00000000
1.64423486 1.51362653 0.00048954 0.00000000
3.92569889 1.99325715 -0.00129960 0.00000000
1.11003263 2.08952282 0.00101189 0.00000000
2.98693379 0.00340548 -0.00008281 0.00000000
3.82661689 1.30408827 -0.00258398 0.00000000
3.15651063 0.86383259 -0.00424786 0.00000000
2.19475931 0.14649592 -0.00098485 0.00000000
3.80520147 0.29267935 -0.00040309 0.00000000
4.48230193 1.85384657 -0.00283193 0.00000000
1.07600947 1.37309351 -0.00625825 0.00000000
2.37007516 0.02180510 -0.00101237 0.00000000
1.25133201 0.98827066 0.00056194 0.00000000
2.02268046 1.24003596 0.00259517 0.00000000
3.59846478 2.08790283 0.00039191 0.00000000
1.41263544 1.20549228 0.00068303 0.00000000
2.84932382 1.48918504 0.00086674 0.00000000
1.23284827 1.67427602 -0.00300170 0.00000000
3.96096157 0.57532501 -0.00015769 0.00000000
4.07861894 2.00562263 0.00194734 0.00000000
2.55549918 0.27665557 0.00280833 0.00000000
4.79568918 2.14079090 -0.00012667 0.00000000
2.76713658 1.02090516 0.00405795 0.00000000
2.32138518 1.91843374 -0.00428276 0.00000000
0.67870427 1.26542243 0.00170478 0.00000000
4.92672183 1.60707207 0.00160578 0.00000000
0.10316158 2.24386076 -0.00128936 0.00000000
2.28639040 1.73026177 0.00135008 0.00000000
2.94769993 1.65756417 -0.00032619 0.00000000
4.80095516 0.07910909 0.00139024 0.00000000
3.65710915 1.62637749 -0.00023682 0.00000000
3.24264602 1.09170286 -0.00152251 0.00000000
0.59391849 2.03207931 -0.00105360 0.00000000
3.22547081 1.86565519 -0.00172697 0.00000000
2.78568417 0.24672081 0.00400829 0.00000000
4.74686063 0.03583986 -0.00098189 0.00000000
2.43796227 1.34092809 -0.00082929 0.00000000
4.28577066 2.06087007 0.00604032 0.00000000
1.20131825 0.11833151 0.00190423 0.00000000
3.97816820 1.79657381 0.00297863 0.00000000
2.82660596 0.91021965 0.00148460 0.00000000
3.45712905 0.86464949 0.00045223 0.00000000
4.31461048 0.78815218 0.00321469 0.00000000
