4.58682787 1.06641581 -0.00534733 0.00000000
3.87617525 0.38882178 0.00209084 0.00000000
0.83411579 1.35228389 -0.00125627 0.00000000
4.25803940 0.27064008 0.00006811 0.00000000
2.68641465 1.41314715 0.00362096 0.00000000
2.64772210 0.58446945 0.00226528 0.00000000
2.01695626 1.82883176 0.00171133 0.00000000
0.64422130 1.60833269 0.00071011 0.00000000
2.83556658 0.51570851 0.00142114 0.00000000
3.14087711 0.05707700 -0.00289322 0.00000000
1.82437616 0.23392375 -0.00183075 0.00000000
0.08491544 0.33947287 -0.00059698 0.00000000
0.59008148 1.63028777 -0.00050489 0.00000000
0.94332532 1.15372069 0.00051475 0.00000000
1.28930490 0.27190633 0.00085368 0.00000000
2.42037693 1.87082938 -0.00091470 0.00000000
4.02760999 0.52999900 -0.00112440 0.00000000
1.62306483 0.93538481 -0.00342296 0.00000000
4.37462618 0.33360875 -0.00229164 0.00000000
0.62484616 0.49382383 0.00054587 0.00000000
3.72317743 0.69524079 0.00083397 0.00000000
3.76676747 0.24114562 -0.00119578 0.00000000
0.43042330 1.53029408 0.00107179 0.00000000
2.43629201 0.56364613 0.00335208 0.00000000
4.55810963 0.64034949 -0.00191395 0.00000000
3.75017054 0.61840227 -0.00023031 0.00000000
4.22810028 1.71367512 0.00110108 0.00000000
2.31177387 0.88513700 0.00079376 0.00000000
2.40923349 0.61637776 0.00241072 0.00000000
3.07729053 1.56202552 0.00017883 0.00000000
4.38120857 0.47441488 0.00366580 0.00000000
2.80475302 0.16166500 -0.00057648 0.00000000
3.32682948 0.72642272 -0.00224852 0.00000000
3.84972196 0.92220175 -0.00316547 0.00000000
2.26329814 0.70607590 0.00247938 0.00000000
2.38676937 0.22204935 0.00431471 0.00000000
2.10154816 0.03234812 0.00110432 0.00000000
3.54371835 0.88585193 0.00349332 0.00000000
4.10506608 1.83027968 -0.00000898 0.00000000
3.36369795 1.39107711 -0.00293920 0.00000000
3.94711876 0.95685478 0.00166018 0.00000000
2.30204904 2.07295756 0.00360335 0.00000000
0.90666017 1.80345811 0.00184725 0.00000000
0.88866456 1.27971739 -0.00241070 0.00000000
0.62676020 1.87162900 0.00066925 0.00000000
1.15212749 1.86716946 -0.00058539 0.00000000
1.24598346 2.05155880 -0.00228627 0.00000000
2.88877602 0.08426113 0.00237390 0.00000000
3.56871441 1.80056485 -0.00061504 0.00000000
2.77169663 0.56066422 0.00023626 0.00000000
4.30228805 0.51176038 -0.00007239 0.00000000
3.64897121 1.02776823 0.00062546 0.00000000
3.92463338 1.39410971 0.00137944 0.00000000
1.24231477 1.27499919 -0.00324598 0.00000000
4.68211054 1.79699611 -0.00301701 0.00000000
4.01033136 1.97993604 -0.00203887 0.00000000
1.76372764 1.31354000 0.00017635 0.00000000
3.80447594 0.47994493 0.00008291 0.00000000
1.51817540 0.13321476 -0.00122889 0.00000000
1.03735035 1.39965775 0.00360441 0.00000000
0.24731728 1.52434453 -0.00217987 0.00000000
1.21856853 0.69394927 0.00013121 0.00000000
4.04308751 0.92412495 -0.00228866 0.00000000
3.20122283 1.08159308 0.00075522 0.00000000
2.69445144 0.98609301 0.00128531 0.00000000
1.57158193 1.53730887 -0.00163951 0.00000000
0.43767326 1.59151291 -0.00137656 0.00000000
3.98229192 0.08401704 -0.00045676 0.00000000
2.16994958 0.41577550 0.00001073 0.00000000
2.93214111 1.32786592 -0.00162310 0.00000000
1.11602129 0.29146946 -0.00267972 0.00000000
0.43310122 0.45886418 0.00697017 0.00000000
0.00139747 1.93114318 0.00005810 0.00000000
2.03571759 1.39792710 0.00295747 0.00000000
2.33413747 1.15736004 -0.00145004 0.00000000
1.91527223 0.71502927 -0.00117403 0.00000000
2.33443766 1.92020938 0.00448288 0.00000000
1.65374006 1.42449748 0.00030693 0.00000000
2.57457265 0.19323251 -0.00526879 0.00000000
3.33148735 1.88541468 -0.00090512 0.00000000
4.17195336 1.38269306 0.00211322 0.00000000
1.44617770 1.91525146 0.00021112 0.00000000
2.34928076 0.26915451 0.00162461 0.00000000
3.41142080 0.38093700 0.00153677 0.00000000
0.89331088 1.17320435 0.00134638 0.00000000
2.95303142 1.72718063 0.00163070 0.00000000
0.74116793 1.88034395 0.00392688 0.00000000
1.74953171 1.40596214 -0.00028849 0.00000000
4.20897414 1.87078755 0.00149034 0.00000000
4.18391014 0.52432617 0.00237511 0.00000000
3.38843952 1.10173490 -0.00142215 0.00000000
0.14654844 0.63075731 0.00067325 0.00000000
0.59154882 2.07794598 -0.00275714 0.00000000
4.68643370 1.55146801 0.00295884 0.00000000
2.68616014 0.42870698 -0.00392571 0.00000000
3.64342702 0.46081564 -0.00121629 0.00000000
0.70775112 1.88353597 -0.00193224 0.00000000
3.50724390 1.80139859 -0.00264562 0.00000000
2.65419528 0.41425653 -0.00068305 0.00000000
3.64780777 1.66142129 -0.00308120 0.00000000
1.21639815 0.54523740 -0.00487517 0.00000000
1.34544742 1.67714704 -0.00277631 0.00000000
3.74280000 1.00096898 -0.00130625 0.00000000
2.83775790 1.43854689 -0.00075235 0.00000000
0.61552308 0.12795775 -0.00099934 0.00000000
2.15574785 1.57146600 -0.00511017 0.00000000
0.94895735 1.11776099 0.00304775 0.00000000
2.24140393 0.71887060 0.00168443 0.00000000
3.55080920 0.97612116 -0.00188150 0.00000000
4.62983785 0.43865168 -0.00038350 0.00000000
1.24645762 0.20752933 -0.00265900 0.00000000
0.70504035 1.27093106 -0.00091194 0.00000000
2.37266668 1.54012888 -0.00118556 0.00000000
4.44656840 1.47878767 -0.00388637 0.00000000
0.50666785 0.10867058 -0.00210311 0.00000000
3.37711769 1.90641476 -0.00031335 0.00000000
2.40820900 1.65747617 0.00179833 0.00000000
0.95036458 1.83026216 -0.00067329 0.00000000
2.39480693 2.07758371 -0.00205634 0.00000000
1.01901751 1.97763485 0.00433029 0.00000000
4.09653498 0.49234240 -0.00610720 0.00000000
0.36680173 1.61714325 0.00080244 0.00000000
1.73953893 0.13953401 0.00147014 0.00000000
2.17032178 1.74859025 -0.00009976 0.00000000
0.53497418 0.50250596 0.00184165 0.00000000
0.55279641 0.83620990 0.00142478 0.00000000
4.10671414 1.59390749 0.00017852 0.00000000
4.34657398 1.08959884 0.00293259 0.00000000
2.98875202 1.90005222 -0.00169761 0.00000000
1.38576588 0.59894403 0.00108306 0.00000000
3.50519243 0.75625673 -0.00314785 0.00000000
2.68117801 1.13865968 0.00037073 0.00000000
0.45201832 1.32946698 0.00001284 0.00000000
4.41201300 0.96642657 -0.00008850 0.00000000
4.65537417 0.69561851 0.00240843 0.00000000
2.36307327 1.33088834 0.00166649 0.00000000
3.32147767 1.83396647 0.00278297 0.00000000
2.59412684 1.79461754 -0.00100821 0.00000000
1.11032190 1.78809438 -0.00382559 0.00000000
3.46708892 1.99441453 0.00265725 0.00000000
3.21560380 0.59291549 0.00045192 0.00000000
3.48611482 0.41627708 0.00011807 0.00000000
1.81038752 1.54133033 0.00046396 0.00000000
0.80233277 1.75689577 0.00081275 0.00000000
2.08544449 1.06844428 -0.00019615 0.00000000
1.24371597 0.17471220 0.00283109 0.00000000
1.41682057 0.41021878 0.00269275 0.00000000
1.19438943 2.05582315 -0.00367927 0.00000000
1.22507975 0.84983730 -0.00056434 0.00000000
3.98388212 0.35494722 0.00164390 0.00000000
2.78171273 0.77311226 0.00031443 0.00000000
4.64656394 1.76894881 0.00114187 0.00000000
1.65327005 0.95522170 -0.00250743 0.00000000
2.91800640 1.30102389 0.00197280 0.00000000
1.79978214 0.56895826 0.00222553 0.00000000
0.74515089 1.39586683 -0.00189333 0.00000000
1.00772835 0.64190059 0.00159029 0.00000000
4.40733524 0.29127113 -0.00273342 0.00000000
1.15761333 1.02205360 0.00091773 0.00000000
0.34980739 0.29001655 0.00164251 0.00000000
1.34863667 0.01965635 -0.00280947 0.00000000
2.96669215 1.65032759 -0.00391902 0.00000000
2.73251328 1.23500569 0.00085102 0.00000000
2.17580013 1.49868585 -0.00012370 0.00000000
3.74710089 0.61214672 -0.00230508 0.00000000
0.10282759 1.64354222 -0.00131408 0.00000000
0.60159346 0.78453267 -0.00323828 0.00000000
3.23098734 1.22810411 0.00083416 0.00000000
4.35180874 1.38639729 0.00124387 0.00000000
4.47858664 0.22115557 0.00177925 0.00000000
0.10454713 1.22956223 0.00314782 0.00000000
3.78818681 2.09202374 0.00028256 0.00000000
1.45684652 0.65026502 0.00013387 0.00000000
3.15952733 1.84213222 -0.00458883 0.00000000
2.31113101 0.86885572 -0.00056689 0.00000000
3.93257465 0.66248374 0.00107457 0.00000000
0.84122714 1.70910683 0.00074518 0.00000000
1.89197548 1.84594128 0.00076113 0.00000000
4.60875711 1.45981135 0.00373508 0.00000000
2.69713674 0.01657564 0.00296610 0.00000000
3.71587636 1.87952359 0.00131505 0.00000000
2.37616721 1.01433205 -0.00105133 0.00000000
4.04189023 1.46611271 -0.00042914 0.00000000
2.52383054 1.60705327 0.00229022 0.00000000
0.54877399 1.72477662 -0.00123665 0.00000000
1.92790285 0.98622749 0.00099277 0.00000000
1.18753991 1.97731262 -0.00471147 0.00000000
1.25767971 0.31154906 -0.00157733 0.00000000
3.05982067 1.83479255 -0.00532342 0.00000000
4.20395038 1.09162288 0.00252275 0.00000000
3.23757646 1.65603240 -0.00215213 0.00000000
3.41030762 2.00027438 0.00088642 0.00000000
3.23730245 0.78357726 -0.00234872 0.00000000
4.57708177 1.68342000 -0.00069435 0.00000000
2.53556313 0.94504958 -0.00105564 0.00000000
0.06422809 1.42571854 0.00007101 0.00000000
0.50936442 1.01441677 0.00029825 0.00000000
2.76673423 0.35767704 0.00297633 0.00000000
1.71919671 1.42095392 -0.00027987 0.00000000
1.09571313 1.94982491 0.00121116 0.00000000
3.07651183 1.25032348 -0.00044278 0.00000000
1.04389380 1.00386477 0.00323563 0.00000000
3.34796830 0.79177684 -0.00002371 0.00000000
3.52570132 1.26297765 -0.00223136 0.00000000
1.48287670 2.09756090 -0.00255829 0.00000000
1.86306889 1.58057382 -0.00102697 0.00000000
4.38527140 0.08791398 -0.00000835 0.00000000
2.79368203 0.60938287 -0.00195975 0.00000000
0.41764854 1.45212275 0.00162996 0.00000000
2.25948487 0.86984523 -0.00034904 0.00000000
3.88087905 2.01586716 0.00102047 0.00000000
2.98399743 1.15520665 -0.00010614 0.00000000
4.70120523 0.24305919 -0.00223512 0.00000000
0.16005492 1.26377051 -0.00053953 0.00000000
2.51940682 2.00647329 -0.00257121 0.00000000
0.93208435 2.18087041 -0.00090884 0.00000000
3.83388844 1.46367300 -0.00392616 0.00000000
1.71698461 0.37284297 -0.00336718 0.00000000
4.28967246 0.93708469 -0.00088970 0.00000000
0.52534668 0.12182977 -0.00332831 0.00000000
0.19175141 0.98736134 -0.00444500 0.00000000
0.94000134 1.33583313 0.00281584 0.00000000
0.23090674 1.69003777 0.00189569 0.00000000
1.75255996 1.62135806 -0.00009341 0.00000000
1.84537671 0.07290581 -0.00010069 0.00000000
3.19823793 1.13549199 0.00267304 0.00000000
0.51093574 0.68232300 -0.00244531 0.00000000
4.36470731 0.50117851 -0.00282415 0.00000000
1.00130636 1.69181952 -0.00248480 0.00000000
4.06970602 2.11031255 0.00236001 0.00000000
2.21073285 0.30204316 -0.00696274 0.00000000
1.51978462 0.93930423 -0.00043720 0.00000000
3.74442326 2.13212755 -0.00098441 0.00000000
0.75365009 0.78188094 -0.00348923 0.00000000
1.15603718 0.89339981 0.00068339 0.00000000
3.69342992 0.38562547 0.00285321 0.00000000
2.88082936 1.97533022 0.00136059 0.00000000
0.53531035 1.26678864 0.00100158 0.00000000
0.30622113 2.04499087 -0.00168210 0.00000000
4.17939761 0.73356095 -0.00084485 0.00000000
1.04479474 0.30629194 -0.00023704 0.00000000
3.28192022 1.49481031 -0.00010591 0.00000000
0.22114049 2.09567174 0.00310483 0.00000000
1.13815728 1.38679333 -0.00328975 0.00000000
4.45302861 0.89784833 -0.00278547 0.00000000
4.07290163 0.25542460 -0.00344995 0.00000000
0.78414677 2.01120761 -0.00409464 0.00000000
1.03209851 0.12783470 0.00127246 0.00000000
3.46332795 2.10586402 -0.00297813 0.00000000
3.12679132 0.48033989 -0.00335780 0.00000000
3.24417189 1.35694068 0.00044958 0.00000000
2.10296772 0.97471290 -0.00393078 0.00000000
4.14314716 1.08145810 -0.00025460 0.00000000
3.48270561 0.25960922 0.00116006 0.00000000
1.52763896 0.36729179 0.00043107 0.00000000
2.21855372 2.17325624 0.00249132 0.00000000
2.83685899 1.41775985 0.00278907 0.00000000
1.00249181 0.45362071 -0.00118210 0.00000000
1.29772665 0.99370602 -0.00238605 0.00000000
3.48930402 0.97704543 0.00285879 0.00000000
3.01574699 1.59085077 0.00306134 0.00000000
0.83332613 0.17333289 0.00091672 0.00000000
0.86770882 0.30960511 -0.00020500 0.00000000
2.93192265 1.11571735 0.00128692 0.00000000
1.71653921 0.90151969 0.00138017 0.00000000
1.98969570 1.32345481 0.00052052 0.00000000
0.80313914 1.41088372 -0.00235463 0.00000000
1.39861994 1.05467308 0.00102279 0.00000000
1.32000597 1.42991846 -0.00179786 0.00000000
3.95366461 1.86040981 0.00396926 0.00000000
4.09323461 1.46381968 0.00324647 0.00000000
2.35959914 0.38951098 -0.00199516 0.00000000
3.20112107 1.56360433 0.00016989 0.00000000
4.19258667 0.18465938 -0.00071973 0.00000000
2.23854501 2.16453725 0.00139629 0.00000000
3.49527086 1.90287715 -0.00237390 0.00000000
3.10255134 0.83396185 -0.00471409 0.00000000
4.13448668 1.15592741 0.00056753 0.00000000
0.17347961 2.03549547 -0.00236191 0.00000000
1.83433987 1.39373626 -0.00052113 0.00000000
0.43229776 0.21799868 0.00191227 0.00000000
3.48214025 1.60391750 -0.00445004 0.00000000
2.96619047 1.68186058 0.00115146 0.00000000
2.37752684 1.59152221 -0.00078877 0.00000000
0.63551272 1.74774619 -0.00078476 0.00000000
2.52546605 1.62367361 -0.00071067 0.00000000
0.98013058 1.74604473 0.00056988 0.00000000
3.24860441 1.54245494 -0.00123754 0.00000000
1.42138564 0.59844291 -0.00040944 0.00000000
4.44300168 0.25007154 -0.00178121 0.00000000
1.53126289 1.45261941 0.00071048 0.00000000
3.72411092 0.01005405 -0.00161543 0.00000000
3.15161940 0.18958794 -0.00041497 0.00000000
1.01625804 0.14410248 0.00130506 0.00000000
3.85316697 1.25202703 -0.00196057 0.00000000
1.30602403 0.16233674 -0.00363592 0.00000000
1.45889757 1.50481897 -0.00280290 0.00000000
4.48573851 1.45595259 -0.00112436 0.00000000
1.00008367 0.59168118 0.00000608 0.00000000
2.33323992 0.80903308 -0.00065979 0.00000000
1.79436323 0.48135645 0.00116065 0.00000000
2.03005022 1.58626716 -0.00213394 0.00000000
0.31644566 1.61066094 -0.00071360 0.00000000
3.24370882 0.96981793 0.00444619 0.00000000
0.50242846 2.16219962 0.00191564 0.00000000
1.24796425 0.71824367 0.00015492 0.00000000
0.70125099 0.55491092 0.00119907 0.00000000
4.11286393 1.01196827 -0.00233881 0.00000000
2.75890168 0.89031410 -0.00099707 0.00000000
3.44695258 1.85531741 -0.00343276 0.00000000
0.11960217 0.21925152 0.00451281 0.00000000
3.07651883 1.99065663 0.00540969 0.00000000
2.10784936 0.83536629 -0.00124902 0.00000000
4.60953132 1.46598035 -0.00244728 0.00000000
1.73870938 1.73849348 -0.00016437 0.00000000
0.44708809 0.08246625 0.00049318 0.00000000
1.81576958 1.28965954 0.00196213 0.00000000
0.90104088 0.73077768 -0.00299791 0.00000000
1.18321423 1.91518906 0.00191834 0.00000000
3.11068722 1.51246768 -0.00149446 0.00000000
0.06296709 1.82952891 0.00048057 0.00000000
1.61091202 0.51310783 0.00009667 0.00000000
4.29479393 0.75014460 0.00217455 0.00000000
2.76206877 2.11805132 -0.00326995 0.00000000
3.20214991 0.97012732 -0.00094307 0.00000000
0.42518673 1.42781626 0.00128469 0.00000000
1.51576629 1.47135280 0.00398032 0.00000000
4.41188617 0.15246547 0.00298324 0.00000000
1.21135623 0.77708246 -0.00244619 0.00000000
2.86073723 1.95276400 0.00328002 0.00000000
2.87703614 1.31158837 0.00004829 0.00000000
3.10452496 1.81749791 -0.00446428 0.00000000
1.42774695 0.15589442 0.00114108 0.00000000
3.43377473 0.43204662 -0.00106132 0.00000000
0.73670481 0.33365188 -0.00119965 0.00000000
0.41616417 1.28901962 -0.00171638 0.00000000
2.44628530 0.55158503 0.00054053 0.00000000
0.03087740 1.92496769 0.00156282 0.00000000
3.30534914 1.32442494 -0.00341193 0.00000000
1.68838879 1.15903967 -0.00313914 0.00000000
4.49364145 1.71419631 -0.00199069 0.00000000
1.05600377 1.05384982 -0.00129471 0.00000000
2.78913583 0.18201518 0.00537530 0.00000000
2.55185988 0.26699668 0.00223757 0.00000000
3.89860701 1.25846486 -0.00239557 0.00000000
4.55052155 1.92455073 0.00537206 0.00000000
1.34150759 0.14677389 0.00048521 0.00000000
3.91317794 1.59089407 -0.00020896 0.00000000
4.64111333 1.26698973 0.00013431 0.00000000
2.86238431 0.21820208 -0.00044736 0.00000000
1.90420743 0.21652205 -0.00313839 0.00000000
3.97570579 0.71037915 -0.00170180 0.00000000
0.76564839 2.00487046 0.00147329 0.00000000
4.37166304 0.29396641 -0.00046795 0.00000000
0.44593913 1.52859438 0.00012437 0.00000000
2.97614687 0.81107210 0.00234607 0.00000000
2.66361297 0.98052372 -0.00018047 0.00000000
3.05842114 0.62204083 0.00356628 0.00000000
3.69301000 1.34601292 -0.00110290 0.00000000
1.43347102 0.80134177 -0.00175221 0.00000000
2.40089173 1.89242971 -0.00259889 0.00000000
2.41856240 0.42328428 -0.00090845 0.00000000
2.10129028 0.28627413 0.00070729 0.00000000
0.72161054 1.10317798 0.00073354 0.00000000
1.73113474 0.30262535 -0.00236257 0.00000000
2.62918653 1.51350835 -0.00010771 0.00000000
0.50638878 0.86683479 0.00564454 0.00000000
4.45079944 1.65171333 -0.00211599 0.00000000
0.90179812 1.22963656 0.00166388 0.00000000
3.38338288 0.53264846 0.00188758 0.00000000
4.02748218 1.21163439 0.00062147 0.00000000
2.77255444 1.45415523 -0.00069729 0.00000000
3.49301533 1.32079508 -0.00276289 0.00000000
0.95963320 1.71760705 0.00222911 0.00000000
2.71978378 1.64625492 0.00036970 0.00000000
2.91505528 0.00497187 0.00067563 0.00000000
3.81608856 1.23096446 -0.00005727 0.00000000
1.02251671 0.14281526 -0.00268356 0.00000000
2.69645196 1.28370583 0.00419018 0.00000000
1.15606368 1.52971238 -0.00126052 0.00000000
4.51266992 1.89530792 0.00054017 0.00000000
0.28924945 0.91085599 -0.00358464 0.00000000
1.50028375 1.23657524 -0.00064841 0.00000000
1.89740524 1.85567337 0.00084425 0.00000000
3.29932686 0.23281150 -0.00086677 0.00000000
3.49046755 1.71177742 0.00390013 0.00000000
0.08464528 1.80864787 0.00136030 0.00000000
0.67592101 0.52075043 0.00190545 0.00000000
3.49037771 1.52001866 -0.00353002 0.00000000
2.45451631 1.31306665 0.00057085 0.00000000
3.92621008 1.47432731 0.00136611 0.00000000
3.84724263 0.81173778 0.00457409 0.00000000
2.45781804 1.50632183 0.00344368 0.00000000
4.06144178 1.83588574 0.00110748 0.00000000
3.56389090 1.15288743 0.00622235 0.00000000
3.23838846 1.19262168 0.00002354 0.00000000
0.03782102 0.35523413 -0.00007794 0.00000000
2.06987003 1.44558311 0.00281936 0.00000000
2.55622565 1.33700010 0.00183519 0.00000000
0.91177779 1.36103181 -0.00074743 0.00000000
1.16326956 2.01067616 -0.00655304 0.00000000
2.77215390 1.81166634 0.00184747 0.00000000
1.59910160 1.06369379 -0.00250949 0.00000000
3.60219301 0.43245151 -0.00029080 0.00000000
1.97972790 1.78147892 -0.00241496 0.00000000
0.15192269 1.44885744 -0.00082733 0.00000000
0.76357090 0.07416781 0.00164399 0.00000000
0.76560742 0.71741501 -0.00235000 0.00000000
2.34138395 0.23173361 -0.00123203 0.00000000
4.06164092 0.72485786 0.00055690 0.00000000
2.77705443 1.95998353 0.00090801 0.00000000
2.92368511 1.40454839 0.00029327 0.00000000
2.63688495 1.57856599 -0.00373379 0.00000000
3.44147631 1.23707711 0.00041591 0.00000000
1.82635133 0.86234155 0.00004585 0.00000000
3.24666441 2.08495678 0.00422656 0.00000000
3.02633496 0.89930202 -0.00122025 0.00000000
4.17210511 0.11213640 0.00381190 0.00000000
2.13380110 1.12889827 -0.00180043 0.00000000
0.42883226 1.53076047 -0.00034050 0.00000000
1.94691892 0.11002496 0.00021804 0.00000000
0.81633323 0.74782848 -0.00122073 0.00000000
1.21340419 0.83381177 -0.00392172 0.00000000
2.41765277 0.00013660 0.00373428 0.00000000
2.62113827 0.25938458 -0.00145631 0.00000000
0.36266025 1.31860235 0.00195637 0.00000000
2.02715936 0.94768412 0.00135695 0.00000000
2.73842741 1.52228127 0.00095058 0.00000000
0.81306377 1.58117094 0.00455524 0.00000000
3.41686889 1.08746480 -0.00108478 0.00000000
3.44164870 0.74751413 -0.00330891 0.00000000
3.49060498 2.12322508 0.00338458 0.00000000
1.24667588 0.72237212 0.00145224 0.00000000
3.45155624 1.49785304 0.00052028 0.00000000
0.70914328 0.06331902 -0.00397490 0.00000000
1.52806183 0.07855362 0.00362025 0.00000000
1.79124812 1.96850660 -0.00027375 0.00000000
3.70403271 2.13501148 0.00372437 0.00000000
4.16178319 1.32817079 -0.00251972 0.00000000
3.10589381 0.69871116 0.00250364 0.00000000
3.74573447 0.59225115 0.00505012 0.00000000
1.38870000 1.40013806 -0.00090866 0.00000000
1.28089823 0.12969332 -0.00081770 0.00000000
2.51631376 0.77935254 0.00110751 0.00000000
3.18081993 1.35226246 -0.00025264 0.00000000
2.50556140 2.01908900 -0.00872726 0.00000000
3.37371271 1.24979331 0.00050825 0.00000000
2.26048191 1.79777179 -0.00073328 0.00000000
0.88892359 1.10175549 0.00075940 0.00000000
1.23165697 1.90469329 -0.00025254 0.00000000
0.53507930 1.91813119 -0.00066194 0.00000000
1.15084503 1.40634165 -0.00236130 0.00000000
0.89588211 1.57807229 0.00333069 0.00000000
2.11931064 0.21232096 0.00022464 0.00000000
2.07884798 1.08480546 0.00041488 0.00000000
0.90821333 1.43280118 -0.00295408 0.00000000
3.44200854 1.35346697 -0.00141837 0.00000000
1.57747992 1.17861945 0.00417444 0.00000000
3.73318611 0.12981006 -0.00120766 0.00000000
0.45554711 2.13271661 -0.00485498 0.00000000
3.31907572 1.03906599 -0.00139660 0.00000000
2.01495636 0.33391047 -0.00275981 0.00000000
1.00167264 0.58225254 -0.00104101 0.00000000
2.27779581 0.57740821 0.00019046 0.00000000
4.30600447 0.86926569 -0.00103555 0.00000000
1.91072572 1.88224105 -0.00135114 0.00000000
3.54780864 0.72672025 0.00031881 0.00000000
2.10919522 1.33809769 0.00262773 0.00000000
3.92056282 0.78401448 -0.00217208 0.00000000
3.41549244 2.05707722 0.00033942 0.00000000
3.24034858 1.73675987 0.00061985 0.00000000
0.12538140 2.17245592 -0.00182415 0.00000000
2.01144411 0.49853069 0.00583816 0.00000000
0.17875720 0.64325499 0.00543388 0.00000000
3.48728779 1.28699997 -0.00160838 0.00000000
3.57947760 1.59974147 -0.00168172 0.00000000
3.06729908 1.24832380 0.00113290 0.00000000
3.99938190 0.36548249 0.00246445 0.00000000
1.95740256 1.09329944 0.00333285 0.00000000
3.86174368 0.13883753 -0.00813726 0.00000000
0.49192020 0.92634640 -0.00018082 0.00000000
2.89973611 0.79707038 0.00325017 0.00000000
0.57059092 1.00907923 -0.00165136 0.00000000
2.40885648 0.30299507 -0.00117124 0.00000000
2.38602056 1.18173635 0.00181752 0.00000000
2.38364473 1.06585789 0.00302776 0.00000000
1.97508820 0.39316106 0.00108381 0.00000000
1.15171662 0.07017323 -0.00064546 0.00000000
3.19190650 2.08444490 -0.00671959 0.00000000
1.29335261 1.60694168 -0.00256118 0.00000000
3.70705693 1.00496789 -0.00067123 0.00000000
0.59560785 1.30233655 0.00111939 0.00000000
0.95012356 1.81709633 0.00015217 0.00000000
0.89692542 0.38591488 -0.00056320 0.00000000
2.14001196 0.24256345 -0.00162773 0.00000000
0.68391789 0.64143604 -0.00282467 0.00000000
3.14689690 1.29220937 -0.00072241 0.00000000
1.12730768 0.54655367 0.00148374 0.00000000
1.81504022 0.97076540 -0.00184215 0.00000000
1.61713073 0.01949289 0.00131773 0.00000000
1.81855896 0.66589591 -0.00031514 0.00000000
2.96930943 1.96306457 -0.00121700 0.00000000
3.67687078 1.40830604 -0.00187346 0.00000000
2.33423330 1.20378362 0.00502435 0.00000000
3.55479901 1.56105294 -0.00068458 0.00000000
0.58091930 1.40424672 -0.00066293 0.00000000
2.61816879 1.14664225 -0.00021796 0.00000000
2.01133995 1.36833207 0.00027993 0.00000000
0.76435403 1.76629504 0.00025189 0.00000000
3.15837046 0.79667355 0.00034568 0.00000000
0.28398302 0.88416882 0.00228426 0.00000000
4.18499005 2.18298921 -0.00022715 0.00000000
4.40164324 1.61868424 -0.00107315 0.00000000
2.15170921 1.02631697 -0.00172629 0.00000000
2.70521899 0.06667456 0.00442620 0.00000000
4.24234069 2.17265956 -0.00157974 0.00000000
4.08626987 1.17659350 0.00361069 0.00000000
4.43721432 0.72989567 0.00000551 0.00000000
2.94459640 0.18733793 -0.00013472 0.00000000
4.19734854 1.60162620 0.00055233 0.00000000
3.89306158 2.16856468 -0.00164141 0.00000000
4.35164983 1.68942327 0.00440501 0.00000000
2.91342175 1.70858881 -0.00053848 0.00000000
4.30411313 2.12148757 0.00005897 0.00000000
1.68585171 1.25819331 -0.00195795 0.00000000
4.58395627 1.48338394 -0.00154908 0.00000000
3.97299484 2.00697252 0.00162253 0.00000000
3.75326593 1.61820769 0.00351204 0.00000000
3.71808655 0.86005093 0.00127698 0.00000000
3.80684109 1.20547797 -0.00210115 0.00000000
0.25137237 0.05568491 0.00152412 0.00000000
3.16862272 2.07600662 -0.00195868 0.00000000
3.21564605 1.52411450 0.00446587 0.00000000
0.27809104 2.18711203 0.00168664 0.00000000
1.64553791 1.80798801 0.00211625 0.00000000
1.82759078 0.76369797 0.00054515 0.00000000
2.60781853 1.55448851 0.00159228 0.00000000
4.02765154 1.44012825 0.00477267 0.00000000
0.38229968 1.22482967 -0.00000278 0.00000000
0.75272163 1.96524026 -0.00132911 0.00000000
4.01818675 0.93966429 -0.00648628 0.00000000
3.50423374 1.70410953 -0.00217926 0.00000000
0.56746140 1.56248361 -0.00058850 0.00000000
2.13227896 1.49490969 0.00143951 0.00000000
4.65198101 1.02474886 -0.00621508 0.00000000
0.53506296 0.60113012 -0.00157302 0.00000000
3.87129095 0.17474765 -0.00506492 0.00000000
0.93957925 1.54178527 0.00167812 0.00000000
4.49470560 2.15622746 0.00009155 0.00000000
2.98041934 1.58241461 0.00051992 0.00000000
2.70158351 1.19831444 0.00368525 0.00000000
0.88248473 1.04437952 -0.00221517 0.00000000
3.93122387 0.51795092 -0.00127523 0.00000000
4.63878420 1.65380580 -0.00305889 0.00000000
4.42375381 0.65141811 0.00262868 0.00000000
4.21047140 1.99000034 -0.00099369 0.00000000
0.45325181 1.21225084 0.00185936 0.00000000
1.22444558 0.62278775 -0.00147854 0.00000000
1.91889142 1.74995853 0.00401762 0.00000000
3.69390228 1.22053972 0.00046846 0.00000000
3.34520332 0.83214558 0.00073329 0.00000000
3.34027007 1.06262731 0.00023529 0.00000000
4.31207381 0.68055816 -0.00258285 0.00000000
0.52883228 1.75487366 -0.00453974 0.00000000
4.47212150 0.48388980 -0.00047315 0.00000000
0.69469047 1.29985167 0.00226945 0.00000000
3.43678445 0.22801290 -0.00590469 0.00000000
3.83641275 0.99040706 -0.00340952 0.00000000
4.65125181 2.06110125 -0.00379425 0.00000000
2.28452003 2.12438957 -0.00446224 0.00000000
2.78005195 0.78952325 -0.00017250 0.00000000
2.87104289 0.62470643 -0.00118094 0.00000000
3.89609987 0.29125142 0.00069731 0.00000000
0.92790385 1.52477700 0.00218942 0.00000000
3.85397099 0.54456426 0.00042278 0.00000000
3.24173780 1.16046458 -0.00023270 0.00000000
2.64510056 0.82205093 0.00203724 0.00000000
0.30023623 2.03338037 -0.00128754 0.00000000
3.26282784 2.02436246 -0.00325263 0.00000000
1.34637802 1.62300337 -0.00275856 0.00000000
4.69873300 0.39609317 -0.00022094 0.00000000
0.89391014 0.90823808 -0.00117310 0.00000000
1.99595204 2.17585948 0.00472646 0.00000000
2.99474360 1.35600962 0.00179732 0.00000000
1.23856709 0.40517902 0.00005312 0.00000000
4.70410851 1.52468231 -0.00797506 0.00000000
1.04855790 1.35146719 -0.00204646 0.00000000
2.17415419 0.20702688 0.00106018 0.00000000
3.56818072 0.79325474 0.00119218 0.00000000
1.31108889 1.06417195 -0.00031190 0.00000000
2.29595024 1.77806063 -0.00354191 0.00000000
0.91465237 0.91951795 0.00095248 0.00000000
3.21141944 0.18525800 0.00072266 0.00000000
4.46571763 1.45778212 0.00024278 0.00000000
1.66494909 0.46173383 0.00096732 0.00000000
2.88141333 0.17205398 0.00500117 0.00000000
0.99216830 1.26272597 0.00066197 0.00000000
1.68905989 0.40585246 -0.00210934 0.00000000
3.06972030 1.24308000 -0.00172758 0.00000000
4.19072957 1.53251430 -0.00236418 0.00000000
1.40540056 0.15685428 -0.00035976 0.00000000
2.69000971 0.71095482 0.00093560 0.00000000
1.60126131 0.50200477 0.00441620 0.00000000
4.40236666 1.11283508 0.00390971 0.00000000
0.27168581 1.66714972 -0.00413326 0.00000000
2.01736979 1.71577186 -0.00266918 0.00000000
1.14278067 2.07789677 -0.00155304 0.00000000
3.55624326 2.04835164 0.00265458 0.00000000
1.81170323 1.67685986 0.00423006 0.00000000
4.53683575 1.12697756 -0.00261360 0.00000000
2.22952977 0.29267789 0.00331804 0.00000000
2.31660941 1.69695442 0.00327427 0.00000000
1.19143008 1.80906357 -0.00408290 0.00000000
0.73579260 0.88620760 0.00002605 0.00000000
3.59288455 0.59021955 -0.00040200 0.00000000
1.71109931 1.31490754 -0.00142159 0.00000000
2.78568090 0.61258840 -0.00006647 0.00000000
0.50071760 0.28125583 -0.00136232 0.00000000
4.05661146 2.03276329 -0.00320726 0.00000000
4.05808330 2.18817404 0.00060511 0.00000000
2.43171205 2.14676068 0.00017742 0.00000000
3.43986025 1.25415761 0.00115795 0.00000000
2.52031454 0.40619729 -0.00165426 0.00000000
1.94094667 0.16395286 -0.00215256 0.00000000
0.51491186 1.71613270 -0.00123447 0.00000000
4.47585758 1.67927957 0.00285391 0.00000000
0.44248678 0.65521180 -0.00086160 0.00000000
2.09831646 0.48824524 -0.00124033 0.00000000
4.58051712 0.32920212 0.00057387 0.00000000
0.61839460 1.10053256 -0.00326320 0.00000000
1.39113559 0.70883742 0.00104503 0.00000000
1.45083449 0.63973925 -0.00199678 0.00000000
1.64917121 1.34858349 -0.00011104 0.00000000
2.68494869 0.51104248 0.00423432 0.00000000
2.34757569 0.07397660 0.00158225 0.00000000
2.91517779 0.63635436 -0.00426754 0.00000000
0.42536481 1.74746766 0.00347478 0.00000000
0.96869702 2.09139110 -0.00050823 0.00000000
3.00984996 0.83603153 -0.00880894 0.00000000
4.20096983 0.59182491 0.00351765 0.00000000
2.62265658 0.83470022 0.00224916 0.00000000
3.23297694 1.73127422 -0.00130855 0.00000000
4.62838223 1.13004973 -0.00027979 0.00000000
3.78631208 1.08198780 -0.00120440 0.00000000
2.42761093 0.75536027 0.00062933 0.00000000
3.46563400 0.92292230 -0.00378456 0.00000000
2.05270743 2.17713305 -0.00126204 0.00000000
3.53748397 1.37348331 -0.00189427 0.00000000
0.99649949 0.67272677 -0.00203155 0.00000000
2.11461686 1.06196233 0.00035791 0.00000000
0.89637528 0.40442386 0.00457701 0.00000000
2.07767223 0.48804870 -0.00247669 0.00000000
3.01116270 1.73283769 -0.00536958 0.00000000
0.24977546 1.01487204 0.00021481 0.00000000
2.79314906 2.13946675 -0.00051160 0.00000000
1.14290030 1.54512100 0.00187419 0.00000000
1.10951195 1.38024192 0.00390637 0.00000000
3.21483750 0.77229153 -0.00274352 0.00000000
4.01238683 0.00815009 0.00357306 0.00000000
1.55979014 2.07000106 -0.00201168 0.00000000
4.66914583 1.76205280 0.00032868 0.00000000
0.66182423 1.92626779 0.00112337 0.00000000
3.91254162 0.18208235 -0.00164645 0.00000000
1.88504758 0.78449394 -0.00154370 0.00000000
2.83020298 1.89377426 -0.00159439 0.00000000
3.80810218 1.86604104 -0.00140291 0.00000000
4.58222599 0.50710227 0.00309886 0.00000000
3.62435221 1.42851404 0.00133149 0.00000000
0.95646192 0.68089499 -0.00497161 0.00000000
0.81477517 1.91907880 -0.00076226 0.00000000
4.13735090 0.86344374 -0.00518454 0.00000000
0.81307387 0.96917270 -0.00254955 0.00000000
4.58765444 1.21967844 0.00000818 0.00000000
3.96722187 0.65355617 -0.00064065 0.00000000
4.23236766 0.35790479 -0.00248341 0.00000000
4.38844071 0.81335747 0.00194439 0.00000000
1.59909540 1.52604900 -0.00203241 0.00000000
3.92012462 0.22131262 0.00106464 0.00000000
1.73977650 0.45039836 -0.00154509 0.00000000
1.70407586 0.41771175 -0.00148266 0.00000000
4.46175817 0.03503248 -0.00305854 0.00000000
0.04469673 0.45114758 0.00080054 0.00000000
0.94635526 1.38465920 -0.00153926 0.00000000
1.85066819 1.50542138 0.00427349 0.00000000
4.08608927 1.35064050 -0.00234207 0.00000000
1.17269666 0.50550147 0.00004183 0.00000000
1.55215124 0.91248621 -0.00154521 0.00000000
3.08272518 1.74934875 -0.00418402 0.00000000
3.05911320 1.47213551 0.00269395 0.00000000
0.68937671 0.42657124 -0.00341567 0.00000000
1.47733308 1.31748888 -0.00074866 0.00000000
1.16867643 0.09770557 -0.00087468 0.00000000
0.65775002 1.92713226 0.00073836 0.00000000
3.21537169 0.36863758 -0.00261228 0.00000000
0.05283411 1.03800291 0.00155098 0.00000000
2.89704825 0.10180386 -0.00072431 0.00000000
1.42675009 0.41168241 0.00140743 0.00000000
4.49899904 0.46971646 0.00192558 0.00000000
3.91975688 1.47480607 0.00159232 0.00000000
0.44576168 1.95182130 -0.00205001 0.00000000
2.67073922 0.34446562 -0.00297968 0.00000000
4.55463111 1.38452227 0.00251711 0.00000000
3.24000061 0.34376681 -0.00191836 0.00000000
0.03962450 0.09998538 0.00278564 0.00000000
1.11334040 0.91568786 -0.00049075 0.00000000
1.73823062 1.88222823 0.00152877 0.00000000
3.61713918 0.36529924 0.00143614 0.00000000
2.31625194 0.10430270 -0.00219617 0.00000000
1.54605776 0.82110538 0.00435150 0.00000000
0.48692312 0.25517119 -0.00421619 0.00000000
3.74312327 0.57267533 -0.00279785 0.00000000
2.97619997 0.29966019 -0.00630585 0.00000000
2.99667701 0.56549691 -0.00023883 0.00000000
4.34993278 2.05348452 0.00566714 0.00000000
4.65658193 2.15109803 -0.00150964 0.00000000
1.84271664 1.20064725 0.00240892 0.00000000
0.72466242 0.87341834 -0.00116398 0.00000000
0.34051234 1.49875010 -0.00148464 0.00000000
4.25012793 2.05203264 0.00174745 0.00000000
1.57419584 0.58175904 0.00292270 0.00000000
2.73916608 0.49619255 0.00240626 0.00000000
0.34544267 1.05611366 -0.00100026 0.00000000
3.41382507 2.13792307 0.00390864 0.00000000
1.39821525 0.78108500 -0.00051463 0.00000000
4.22654187 1.16251912 -0.00179586 0.00000000
1.18820217 0.33433742 -0.00253814 0.00000000
3.75660088 2.15602353 -0.00013015 0.00000000
0.29769281 0.30092781 0.00176879 0.00000000
1.82489968 0.49162933 0.00213629 0.00000000
1.40868815 1.43318946 0.00289640 0.00000000
1.44909680 1.89728235 0.00282799 0.00000000
1.05607985 0.69290866 -0.00499368 0.00000000
0.00670236 0.36976019 0.00209014 0.00000000
3.41764914 0.51443080 0.00216541 0.00000000
2.56208503 1.66352413 0.00277764 0.00000000
4.56625487 0.50567000 -0.00121239 0.00000000
0.37019777 0.19685599 0.00374241 0.00000000
2.67177169 0.61957912 -0.00366274 0.00000000
0.60459479 1.06044253 0.00014735 0.00000000
4.33338175 1.27700774 0.00354957 0.00000000
4.21256967 1.73188241 0.00191419 0.00000000
0.19948751 1.35354789 0.00312452 0.00000000
4.33194907 1.05645589 -0.00035895 0.00000000
4.45880215 1.55274683 0.00226146 0.00000000
4.15524980 1.55028983 -0.00161250 0.00000000
0.51863332 1.44293869 -0.00088141 0.00000000
3.88553675 1.18344243 -0.00052914 0.00000000
0.80275305 1.45905206 0.00532742 0.00000000
1.51406661 1.03142806 0.00397798 0.00000000
1.80674369 1.29794661 -0.00127644 0.00000000
0.14729473 2.06245880 0.00621602 0.00000000
4.21910735 2.09211253 0.00076185 0.00000000
3.25607394 1.72795263 0.00078769 0.00000000
3.90697158 0.35771020 -0.00043083 0.00000000
0.59676014 1.01993990 0.00190160 0.00000000
4.11811224 1.19303179 0.00030209 0.00000000
4.06730389 2.04590622 0.00154521 0.00000000
3.15312591 1.94746433 0.00244193 0.00000000
3.47694699 0.96014747 0.00229610 0.00000000
4.64914519 0.03494416 0.00104958 0.00000000
4.31623596 1.26102701 -0.00220712 0.00000000
3.12152864 2.04155511 -0.00281189 0.00000000
4.22111376 1.75321259 0.00589321 0.00000000
3.73953990 0.09182466 0.00645126 0.00000000
4.24739517 0.03647202 -0.00137770 0.00000000
3.35998673 1.39324447 0.00317992 0.00000000
3.71434660 0.60171472 -0.00153451 0.00000000
1.94373975 0.35753055 -0.00082459 0.00000000
3.78962410 0.47460637 -0.00331554 0.00000000
0.82961989 0.20934380 0.00489336 0.00000000
3.87898469 0.51636491 -0.00189582 0.00000000
2.84576580 1.61578373 0.00331352 0.00000000
2.75620491 1.26077566 -0.00013291 0.00000000
1.83963480 1.21943032 -0.00294081 0.00000000
0.39078579 1.92626222 0.00027059 0.00000000
2.64609773 1.39108876 0.00102844 0.00000000
3.19076133 1.79027195 0.00059068 0.00000000
0.29833029 1.65738132 -0.00168382 0.00000000
4.69793110 1.68809266 0.00062731 0.00000000
1.53757670 0.27111135 0.00514430 0.00000000
3.28466995 0.81774370 0.00188723 0.00000000
1.85059910 0.13248534 -0.00322652 0.00000000
0.01270642 0.10380314 0.00011212 0.00000000
3.38395159 1.60697268 0.00335660 0.00000000
3.80494160 1.42196121 0.00362185 0.00000000
1.51539408 0.20477487 -0.00025790 0.00000000
1.58870018 0.91617511 -0.00196433 0.00000000
3.87326226 1.72191971 0.00202550 0.00000000
0.10406868 1.62602880 0.00067971 0.00000000
1.63175282 0.38539916 -0.00009495 0.00000000
1.56329752 0.07554854 0.00151288 0.00000000
3.52495090 0.99602519 -0.00039814 0.00000000
3.25390647 1.21961828 0.00096025 0.00000000
2.40993590 0.24207223 -0.00128305 0.00000000
0.18816196 0.23804975 0.00379756 0.00000000
1.49667419 0.31858063 -0.00001298 0.00000000
0.82115697 1.02195438 0.00088008 0.00000000
1.58640168 1.63474374 0.00029344 0.00000000
3.64221531 0.76965426 -0.00111406 0.00000000
3.96688568 0.17880208 0.00040754 0.00000000
1.03398826 1.01628327 -0.00259168 0.00000000
0.29129732 0.87039694 0.00490870 0.00000000
0.44282214 0.39269671 -0.00284580 0.00000000
3.29370016 1.84774354 -0.00474179 0.00000000
2.15010304 0.64431298 0.00109012 0.00000000
4.42116428 0.09747072 -0.00021677 0.00000000
4.17401104 1.55860308 0.00357827 0.00000000
1.18118249 0.12070422 0.00083588 0.00000000
2.32788838 1.53141466 -0.00278477 0.00000000
0.05252835 0.03282198 -0.00156608 0.00000000
1.34620558 0.45633581 -0.00472211 0.00000000
3.90967571 0.10728767 0.00296364 0.00000000
1.01545243 1.14776809 0.00140422 0.00000000
3.09353604 0.58852919 0.00021350 0.00000000
4.42233276 1.96881336 0.00489504 0.00000000
0.32914102 1.79212078 0.00121000 0.00000000
2.01650502 1.63728329 -0.00720127 0.00000000
3.13011643 0.01453777 -0.00270355 0.00000000
1.15003275 0.66909114 -0.00119679 0.00000000
2.83251185 1.42889933 -0.00524420 0.00000000
0.45627137 0.08370807 0.00199889 0.00000000
3.09625145 2.09087341 -0.00261278 0.00000000
2.19018697 1.16988678 -0.00165794 0.00000000
1.28767235 1.41988527 0.00112357 0.00000000
0.44431337 2.03410965 -0.00102753 0.00000000
1.26004166 0.45553153 0.00192426 0.00000000
0.84452411 1.75105746 -0.00341909 0.00000000
4.57228739 0.81207404 0.00433053 0.00000000
0.93731269 0.82805777 0.00144489 0.00000000
4.65839579 0.78119889 -0.00110258 0.00000000
4.57870301 1.76741177 -0.00020706 0.00000000
2.58189142 1.88620769 0.00291567 0.00000000
2.63936550 1.78653173 -0.00147986 0.00000000
0.62040576 1.14210881 -0.00098896 0.00000000
1.90485733 0.46672798 0.00096235 0.00000000
1.58246184 1.47745855 -0.00143994 0.00000000
0.68175801 0.64009346 0.00061933 0.00000000
0.99500659 0.73456409 0.00137100 0.00000000
0.02677657 0.13837497 -0.00334808 0.00000000
0.77346403 0.12042878 -0.00091954 0.00000000
0.68446712 0.24695135 -0.00067335 0.00000000
1.15429381 0.42959026 -0.00105146 0.00000000
2.19184700 0.14185956 0.00541387 0.00000000
1.70720292 0.30248139 -0.00147235 0.00000000
0.32844701 1.21711164 -0.00216663 0.00000000
3.18359563 1.57632861 -0.00076776 0.00000000
0.65570871 1.42404309 -0.00327757 0.00000000
0.11648095 0.60887388 0.00360599 0.00000000
0.38271787 0.59753859 0.00057421 0.00000000
2.13392129 0.12954612 -0.00303995 0.00000000
1.97547487 0.83749916 -0.00177347 0.00000000
4.05618307 1.86041827 0.00386858 0.00000000
0.61890854 0.89581918 0.00148997 0.00000000
0.39194568 0.74732643 0.00514920 0.00000000
4.01632390 2.01624501 0.00006065 0.00000000
1.62465498 2.18886976 -0.00169086 0.00000000
4.36298952 0.98648915 -0.00497739 0.00000000
0.14336020 1.34502092 -0.00013492 0.00000000
3.19039179 0.34325392 -0.00144590 0.00000000
1.26723195 0.98291259 -0.00076742 0.00000000
3.28716992 2.13467523 0.00384810 0.00000000
0.07264200 1.80233982 -0.00041812 0.00000000
3.32623974 0.60553812 -0.00197205 0.00000000
1.54137998 2.10977203 0.00032706 0.00000000
0.37592727 1.46086709 -0.00001090 0.00000000
4.16843952 0.61439312 0.00090373 0.00000000
2.54871950 0.17343649 -0.00226075 0.00000000
3.00948553 1.57050838 0.00156025 0.00000000
4.15321438 1.15692465 -0.00173017 0.00000000
0.58443507 1.93454907 0.00364256 0.00000000
1.55412873 0.95287650 0.00058871 0.00000000
3.00846287 0.51677500 0.00244921 0.00000000
0.09380471 0.29298142 -0.00462222 0.00000000
0.46885372 1.52149323 0.00305384 0.00000000
0.06189161 0.70642995 -0.00503950 0.00000000
1.53310743 1.09692245 0.00189428 0.00000000
0.93006142 1.80754281 -0.00242774 0.00000000
0.83568045 0.25649521 -0.00230769 0.00000000
0.88599558 0.24390489 0.00089540 0.00000000
3.16194854 0.89108939 -0.00263064 0.00000000
2.79175722 1.09477845 -0.00319616 0.00000000
3.63199529 0.92934625 0.00058735 0.00000000
0.19904113 0.00866265 -0.00194348 0.00000000
0.04563589 1.14427161 -0.00264639 0.00000000
1.26356952 0.01839339 0.00186097 0.00000000
1.21785019 1.46291482 0.00359652 0.00000000
2.71126575 0.48131503 -0.00189002 0.00000000
2.56211882 0.20501916 -0.00177907 0.00000000
3.42411047 0.18521401 -0.00120973 0.00000000
3.39785757 0.50797998 0.00123666 0.00000000
3.02343609 0.61202327 0.00015562 0.00000000
3.25625367 1.91642770 -0.00233985 0.00000000
2.91140444 0.62501354 -0.00053023 0.00000000
0.92870409 0.89226762 -0.00504698 0.00000000
2.03513804 0.62468364 -0.00220220 0.00000000
0.36064362 0.21335920 -0.00073459 0.00000000
3.27207745 1.30689752 0.00824568 0.00000000
2.24785321 0.40899479 0.00308202 0.00000000
2.39164279 0.22664186 0.00315071 0.00000000
1.91816150 0.99349282 0.00113737 0.00000000
1.12728196 0.10718393 -0.00326075 0.00000000
3.56987289 1.42778014 -0.00072048 0.00000000
3.06626078 1.08935003 -0.00053330 0.00000000
2.08440703 2.08423230 0.00254193 0.00000000
4.09232684 1.97112656 0.00444149 0.00000000
3.23215073 2.15431797 -0.00200137 0.00000000
3.32505645 0.12257859 -0.00007644 0.00000000
2.42635663 0.07059579 0.00039554 0.00000000
2.49227606 0.94312929 -0.00241455 0.00000000
0.22941799 0.40787079 -0.00254411 0.00000000
3.57358162 0.76256486 0.00087076 0.00000000
4.36641868 1.61157597 0.00432578 0.00000000
0.89021340 0.37923706 -0.00543711 0.00000000
0.65330624 1.13999229 0.00339979 0.00000000
2.84721821 2.04220002 0.00114250 0.00000000
1.40008010 2.08828582 0.00277470 0.00000000
1.36259471 1.93609140 0.00694330 0.00000000
3.52351608 2.07795242 0.00064362 0.00000000
4.31506334 0.75693447 -0.00162743 0.00000000
3.03844519 2.06096261 -0.00277532 0.00000000
0.78659783 1.66284894 -0.00032848 0.00000000
3.45168497 2.09231783 0.00059156 0.00000000
2.44876955 0.17609070 -0.00197646 0.00000000
3.98395194 0.74913939 -0.00065937 0.00000000
4.39475758 0.10922652 0.00306313 0.00000000
0.92482848 0.70286180 0.00134715 0.00000000
2.86648586 0.92930034 -0.00315133 0.00000000
3.89133903 1.94465051 0.00042444 0.00000000
1.04680450 0.01504838 0.00026013 0.00000000
1.86681052 0.84886176 0.00325100 0.00000000
2.66463190 0.52715571 -0.00321689 0.00000000
0.68612124 1.61114839 -0.00470300 0.00000000
3.19586952 0.74181041 -0.00062741 0.00000000
0.65860000 1.37819478 0.00323194 0.00000000
0.01368901 1.27259597 0.00147601 0.00000000
0.81948474 1.04993648 -0.00415099 0.00000000
4.20334028 0.61428266 -0.00000280 0.00000000
1.60490328 0.15358771 -0.00141297 0.00000000
1.40050800 0.77239627 0.00016815 0.00000000
1.77960883 1.15448222 0.00342160 0.00000000
1.59401917 0.02369943 -0.00123510 0.00000000
2.15095389 1.97447203 0.00143463 0.00000000
2.84048906 0.03984886 0.00054573 0.00000000
0.81488106 1.89396481 -0.00136657 0.00000000
0.37779071 0.17151685 0.00281224 0.00000000
4.50837523 1.42722135 -0.00077567 0.00000000
2.10286178 1.65330424 -0.00071151 0.00000000
0.58321891 1.64648544 0.00465476 0.00000000
2.39281900 1.91869666 0.00049861 0.00000000
0.24415951 0.99240188 -0.00240739 0.00000000
2.16143739 1.21055785 0.00586103 0.00000000
3.17863369 0.19526488 0.00003126 0.00000000
4.67116547 1.39319358 0.00011006 0.00000000
4.33763224 1.37965360 0.00138132 0.00000000
0.55385931 1.91596615 -0.00352431 0.00000000
2.53922708 1.28491193 -0.00037887 0.00000000
2.89147610 0.38212566 0.00267095 0.00000000
2.83349931 1.19156815 0.00389123 0.00000000
3.65181188 0.46109848 -0.00118254 0.00000000
0.12990212 0.91799163 0.00038770 0.00000000
2.68150457 1.69005763 -0.00018176 0.00000000
4.52992759 1.93071639 -0.00384838 0.00000000
4.53516593 0.29777903 -0.00113768 0.00000000
3.86727890 1.65074145 -0.00120564 0.00000000
2.55208206 0.08774763 -0.00080855 0.00000000
1.94427077 0.82368231 -0.00144591 0.00000000
4.48623306 1.69792054 0.00282747 0.00000000
4.14810097 1.87405227 -0.00127746 0.00000000
1.78271304 0.11736666 -0.00058122 0.00000000
4.57716519 1.54738806 0.00322828 0.00000000
1.57966633 0.33717855 -0.00122681 0.00000000
3.07108573 1.11515183 0.00052492 0.00000000
0.13154210 1.19586342 0.00113842 0.00000000
2.05437987 1.06160454 0.00050984 0.00000000
0.88673165 0.69006598 0.00150477 0.00000000
0.77374855 1.19750198 -0.00109897 0.00000000
0.29285473 1.59380284 -0.00142692 0.00000000
1.58751900 0.35447223 0.00478578 0.00000000
1.49393880 0.27024364 -0.00317985 0.00000000
4.39903802 0.01124847 0.00135812 0.00000000
0.17208000 1.21808080 -0.00076022 0.00000000
3.97927301 1.96465185 -0.00191865 0.00000000
1.69103610 1.99663069 0.00272818 0.00000000
1.76512016 0.78160557 0.00486726 0.00000000
0.86829543 0.44138912 -0.00600004 0.00000000
0.11414283 1.71789543 0.00665003 0.00000000
1.68077423 0.75677282 -0.00370141 0.00000000
0.79427931 1.36136367 0.00364399 0.00000000
1.28380216 1.51369208 0.00147530 0.00000000
3.99959217 1.83002425 -0.00119935 0.00000000
0.72948685 0.31041777 -0.00234844 0.00000000
0.65388843 0.20606238 0.00020757 0.00000000
2.33953483 0.77783909 0.00063058 0.00000000
4.57651086 0.31378015 -0.00171760 0.00000000
0.84716536 0.31691891 -0.00168867 0.00000000
4.10744772 1.36924900 0.00361167 0.00000000
0.37599250 1.35916015 0.00063678 0.00000000
2.08121239 0.48546411 0.00180562 0.00000000
2.95960768 1.62864711 0.00139902 0.00000000
2.47131615 0.09741628 -0.00410922 0.00000000
3.95441061 1.39616270 -0.00456884 0.00000000
2.85801497 0.14153514 -0.00483799 0.00000000
2.02699905 1.02730542 0.00327442 0.00000000
1.16503987 0.19958676 0.00149894 0.00000000
4.36019289 1.24220535 0.00130323 0.00000000
1.88835173 1.80440248 0.00144920 0.00000000
3.04843192 0.70440506 -0.00036614 0.00000000
3.24252516 1.27816589 -0.00025937 0.00000000
0.33933501 0.77997710 -0.00245302 0.00000000
2.52194297 0.40318416 0.00405092 0.00000000
1.63083872 1.40371045 0.00232732 0.00000000
1.35842840 0.39907618 0.00165735 0.00000000
0.20871573 1.43427294 0.00075130 0.00000000
2.40686546 1.42602281 -0.00024011 0.00000000
0.73389437 2.06470343 -0.00061048 0.00000000
1.09522368 0.17436336 0.00287117 0.00000000
2.49219867 0.07448170 0.00200420 0.00000000
1.32520489 0.94983899 0.00080475 0.00000000
0.15869781 0.97875185 -0.00282315 0.00000000
0.80691380 1.86678218 -0.00098627 0.00000000
1.82585542 1.56711888 0.00066762 0.00000000
4.13489415 1.55545172 -0.00208678 0.00000000
4.14536291 0.31031750 -0.00136375 0.00000000
0.79954237 1.52054859 0.00303781 0.00000000
4.34297003 0.69649823 -0.00167760 0.00000000
1.70368124 1.97347817 -0.00191838 0.00000000
4.37256820 1.79317516 -0.00454980 0.00000000
0.44058037 0.11264829 0.00120830 0.00000000
3.41883226 1.68768021 0.00043615 0.00000000
3.34108654 1.79624012 -0.00340804 0.00000000
2.37837531 1.32084735 0.00184593 0.00000000
4.38231702 1.41430796 -0.00157012 0.00000000
1.61270173 0.24729276 0.00422113 0.00000000
0.62312825 2.08067119 -0.00349909 0.00000000
2.59266640 0.71158532 0.00317093 0.00000000
3.59294376 0.21547549 -0.00105045 0.00000000
1.06405824 0.26528456 0.00085963 0.00000000
1.97725779 2.11528552 -0.00009665 0.00000000
1.07652359 1.76773048 -0.00112730 0.00000000
0.32662249 0.91012813 0.00135890 0.00000000
1.32720336 1.74046401 -0.00121492 0.00000000
0.86300569 1.10588380 0.00081758 0.00000000
2.75576024 0.66466785 -0.00331050 0.00000000
2.02707773 1.06093582 -0.00007057 0.00000000
1.42053489 1.29431089 0.00089916 0.00000000
4.17972267 1.05715778 0.00046515 0.00000000
2.82954939 1.54418690 0.00038340 0.00000000
2.00608321 1.59373804 0.00307970 0.00000000
3.17221143 0.60309033 0.00227910 0.00000000
3.48161421 1.52619264 0.00291865 0.00000000
3.02696935 1.34792965 0.00178534 0.00000000
3.17119400 0.25840192 -0.00376203 0.00000000
0.40448590 0.72340248 -0.00247572 0.00000000
1.18224352 1.61093301 0.00100919 0.00000000
1.50407362 0.15709486 0.00242984 0.00000000
2.24878009 0.20967711 0.00077935 0.00000000
1.08723976 1.65968311 -0.00000754 0.00000000
2.97934790 1.71726500 0.00327825 0.00000000
4.13392053 1.67188382 0.00189527 0.00000000
4.06043511 0.79214472 -0.00053012 0.00000000
1.57587217 0.86181084 0.00021409 0.00000000
3.47474954 1.14045257 -0.00055349 0.00000000
3.25486986 1.13685923 0.00295219 0.00000000
2.05057955 2.17889575 -0.00151369 0.00000000
3.15799849 1.55582700 -0.00001336 0.00000000
0.06558304 1.14278502 0.00225007 0.00000000
1.51772224 1.96028203 0.00461925 0.00000000
3.12776793 1.89527651 -0.00033096 0.00000000
3.92943784 0.78949889 -0.00060849 0.00000000
1.10540826 1.74450010 0.00215687 0.00000000
0.74070773 0.02543437 -0.00416399 0.00000000
3.13848562 1.82255604 0.00113594 0.00000000
4.29117154 0.07897427 0.00112894 0.00000000
2.43706601 1.32552683 -0.00326861 0.00000000
0.19906058 1.94465444 0.00606486 0.00000000
0.57893132 1.63327491 0.00280060 0.00000000
2.68804929 1.64361949 0.00442054 0.00000000
1.36074579 2.00254300 -0.00152814 0.00000000
