1.749853 1.711917 0.002000 0.0
4.407940 1.114868 -0.001750 0.0
0.904122 1.070149 -0.002833 0.0
0.317505 1.238615 -0.000171 0.0
2.644131 1.359595 0.005919 0.0
3.666853 0.117323 -0.003998 0.0
1.516361 0.761426 0.000226 0.0
1.333017 1.469571 0.000205 0.0
3.923088 0.438741 -0.000469 0.0
3.125569 0.020331 0.000654 0.0
0.291234 0.076129 0.001283 0.0
4.414579 0.007458 0.000256 0.0
1.996096 1.436181 0.002587 0.0
4.464367 0.683907 0.000152 0.0
3.322357 0.262050 -0.001749 0.0
2.993614 0.624096 0.002677 0.0
3.335545 0.333761 0.001698 0.0
3.115771 0.832218 -0.003954 0.0
2.401797 0.336446 0.000607 0.0
2.644504 1.278341 -0.000487 0.0
1.992588 1.660473 0.003788 0.0
0.080463 0.469259 -0.001467 0.0
1.587509 0.346141 0.000809 0.0
1.677873 0.700764 0.001777 0.0
1.739590 0.568942 0.003935 0.0
3.658616 1.368540 0.003068 0.0
0.532195 0.488601 0.002456 0.0
0.791469 0.774658 0.003165 0.0
3.638011 1.551296 -0.007039 0.0
2.813346 1.120479 0.001878 0.0
3.286506 0.310606 -0.002847 0.0
0.907409 0.748501 -0.001848 0.0
1.677886 1.237860 0.000725 0.0
2.060860 0.888331 -0.001506 0.0
3.727764 1.127458 0.003972 0.0
3.452148 1.546948 0.001151 0.0
1.760421 0.843569 -0.001818 0.0
1.233280 1.110118 -0.002024 0.0
1.840960 0.724600 -0.000573 0.0
3.534600 1.598280 0.003499 0.0
1.417204 0.413926 0.001586 0.0
4.516740 0.779938 0.002620 0.0
1.386729 0.975687 0.001425 0.0
1.447421 1.221627 -0.001944 0.0
1.091364 0.605728 0.000955 0.0
1.805863 1.474068 0.002050 0.0
2.031639 1.619101 -0.002820 0.0
4.024940 0.810595 -0.001312 0.0
1.684072 1.158256 -0.000435 0.0
2.500110 1.155810 -0.000291 0.0
0.076876 0.531853 -0.000642 0.0
0.115500 1.470791 0.000164 0.0
4.104196 0.183664 -0.002698 0.0
2.589253 1.688177 -0.005749 0.0
3.248253 0.424526 0.001393 0.0
0.640294 0.117266 0.002967 0.0
0.740424 0.568054 -0.003448 0.0
2.480125 0.336458 -0.004415 0.0
3.926180 1.516195 -0.000741 0.0
3.923395 0.699581 -0.001647 0.0
0.358610 0.864114 -0.000061 0.0
1.823225 0.486382 0.003186 0.0
2.940160 1.593403 -0.000202 0.0
2.506232 1.442878 -0.002110 0.0
1.401893 1.193811 0.001125 0.0
1.791371 1.456711 -0.000423 0.0
1.214088 1.403108 0.000063 0.0
3.335964 0.858392 -0.003257 0.0
3.522259 1.125437 0.005035 0.0
3.159884 1.081476 -0.002839 0.0
2.840682 0.325277 -0.001202 0.0
4.434558 0.049739 0.000884 0.0
0.018167 0.004220 -0.000492 0.0
0.342599 0.090555 -0.003630 0.0
1.313220 0.766905 0.003367 0.0
4.038589 1.606623 -0.001014 0.0
2.148165 0.659882 -0.001169 0.0
1.827760 1.027703 0.000817 0.0
2.826320 1.417479 0.000571 0.0
3.650808 0.810363 -0.003785 0.0
1.285374 1.137609 -0.000981 0.0
2.930213 1.389235 0.000249 0.0
4.384248 0.256833 -0.002729 0.0
1.737325 1.170604 -0.000635 0.0
2.721940 1.633901 -0.003189 0.0
4.285011 0.694327 0.003851 0.0
3.972460 0.574017 0.003028 0.0
4.381108 1.387716 0.001420 0.0
1.398959 0.934468 0.002994 0.0
1.962393 1.564011 0.001439 0.0
0.675824 1.220111 0.001440 0.0
3.480374 0.145537 -0.000019 0.0
3.564511 1.158471 0.002694 0.0
4.144440 0.358610 -0.003185 0.0
4.339294 1.282469 0.004212 0.0
4.174504 0.463346 0.001455 0.0
1.863259 0.161183 0.000678 0.0
4.352621 0.684346 -0.002878 0.0
4.277773 0.345932 0.001493 0.0
2.244337 0.553458 0.000512 0.0
0.783088 1.692322 0.000115 0.0
2.725957 1.339074 -0.002508 0.0
1.154188 0.748368 -0.001280 0.0
2.751302 0.660395 -0.005034 0.0
0.608611 1.123399 0.002108 0.0
2.845024 0.368290 0.000891 0.0
2.964523 0.752624 0.000776 0.0
2.154818 1.053285 -0.002040 0.0
4.325569 0.852373 -0.001448 0.0
3.697638 0.666084 0.001009 0.0
1.176018 1.311179 -0.000258 0.0
2.460327 0.929489 -0.000037 0.0
3.612913 1.531961 -0.001377 0.0
1.485514 0.348419 0.000548 0.0
3.201163 1.265233 0.001482 0.0
0.601348 1.640148 -0.000640 0.0
1.310994 0.393884 -0.000778 0.0
2.288832 1.711238 0.005456 0.0
0.459506 0.384591 0.003411 0.0
3.619318 0.076753 0.000565 0.0
1.882802 1.208615 -0.004836 0.0
4.221875 1.362061 0.001248 0.0
1.329820 1.002634 -0.000249 0.0
3.493368 0.146326 0.000839 0.0
4.407617 1.268865 0.000034 0.0
3.972084 1.238611 0.002663 0.0
1.208892 1.711841 0.001735 0.0
3.678011 1.639724 0.003373 0.0
4.052930 0.338557 0.001593 0.0
2.985571 1.099035 0.002786 0.0
1.125157 1.054516 0.003735 0.0
1.658679 0.221510 0.004389 0.0
0.587307 1.117071 -0.001529 0.0
3.368568 0.365299 0.002676 0.0
4.302080 0.637143 -0.001232 0.0
4.291169 0.045135 -0.004841 0.0
2.137759 0.247140 -0.001544 0.0
2.070694 1.265102 -0.000030 0.0
0.206365 1.438914 0.002376 0.0
1.542071 0.571461 0.002816 0.0
3.377568 1.479030 -0.004022 0.0
3.546448 1.390650 0.000149 0.0
0.616184 1.015865 -0.000475 0.0
2.467294 0.878686 -0.002629 0.0
0.250313 0.545416 -0.002440 0.0
0.071865 0.090591 0.001701 0.0
1.717853 1.638977 -0.005521 0.0
3.911407 0.839585 -0.000464 0.0
3.143652 1.601919 -0.002028 0.0
3.560708 0.962428 0.002701 0.0
3.297402 1.195055 0.000201 0.0
1.768164 1.151051 0.002936 0.0
1.380053 1.286347 0.001527 0.0
3.102923 0.104760 -0.000870 0.0
0.461737 0.769266 -0.000070 0.0
3.193243 1.637139 0.002869 0.0
0.611793 1.190433 -0.001357 0.0
2.140045 0.948881 0.000713 0.0
1.232709 1.186705 0.001744 0.0
4.193714 1.279404 0.000309 0.0
3.849385 1.037602 0.001092 0.0
1.518056 0.072755 0.008162 0.0
1.251446 1.563113 -0.001242 0.0
3.493599 1.622724 0.002971 0.0
0.578700 0.156361 -0.002460 0.0
1.092134 0.949268 0.001866 0.0
2.530484 0.427618 0.002944 0.0
4.134381 1.202744 -0.000870 0.0
3.391144 1.280164 0.002421 0.0
4.150030 0.217567 -0.003953 0.0
1.520049 1.560147 -0.000891 0.0
4.395564 0.887107 0.000551 0.0
1.701235 1.033074 -0.001884 0.0
4.409445 0.310046 0.001681 0.0
2.420992 1.377343 -0.000176 0.0
0.528446 0.379333 -0.001808 0.0
1.474194 0.489576 0.005323 0.0
1.229634 0.110719 -0.005405 0.0
4.552985 1.594816 0.000694 0.0
2.499074 0.333795 0.000953 0.0
3.650245 0.847185 -0.001870 0.0
1.720584 1.510623 -0.001309 0.0
1.616117 1.484254 -0.005309 0.0
0.440618 0.144915 0.001204 0.0
2.706789 0.441541 0.003839 0.0
1.737994 0.938918 -0.001436 0.0
4.421230 0.360739 -0.000430 0.0
1.245321 1.437630 -0.000259 0.0
0.662740 1.630059 0.003751 0.0
4.484027 0.879820 -0.000402 0.0
2.658846 0.344949 0.000740 0.0
2.191473 1.685349 0.000011 0.0
3.113080 0.002048 0.002105 0.0
3.602674 1.549959 0.001243 0.0
0.997440 0.154551 -0.001905 0.0
1.654184 0.924813 0.001322 0.0
0.445349 1.043070 0.000455 0.0
4.036749 1.252910 0.000153 0.0
2.603315 0.450996 0.004557 0.0
0.917712 1.604879 0.003468 0.0
2.591103 0.527062 0.002549 0.0
3.755367 0.705704 0.001219 0.0
2.308964 1.584241 0.002328 0.0
2.025363 0.482520 0.003779 0.0
4.109966 0.127775 0.006233 0.0
2.802414 0.435433 0.000726 0.0
3.707975 0.760063 -0.001448 0.0
0.592198 1.334161 -0.000856 0.0
0.274712 1.063251 0.000256 0.0
3.394031 0.997199 -0.005045 0.0
4.260268 1.458134 -0.000566 0.0
3.319038 0.983102 -0.000312 0.0
3.901066 0.677237 -0.000924 0.0
4.514131 0.763960 -0.006219 0.0
0.354759 1.075489 0.001805 0.0
0.654415 0.621848 -0.004563 0.0
0.685483 1.281697 0.001835 0.0
4.248815 1.133465 0.003977 0.0
0.989607 1.097987 -0.000943 0.0
4.257808 0.106481 -0.003370 0.0
0.538992 0.208614 0.001800 0.0
3.282628 0.102292 0.003513 0.0
2.413293 0.751237 0.000865 0.0
2.895619 0.406428 -0.002447 0.0
2.039956 1.290188 0.000704 0.0
4.470514 0.100676 0.002854 0.0
2.237259 0.295117 -0.001111 0.0
4.404225 1.188151 0.001861 0.0
1.877162 0.513943 -0.000047 0.0
1.651635 1.328721 0.001099 0.0
4.501922 1.309916 -0.000048 0.0
3.325765 0.965655 0.000272 0.0
1.773228 0.138225 -0.000432 0.0
3.527600 1.670183 0.000560 0.0
1.455339 0.564928 0.004566 0.0
1.583599 0.481090 -0.001412 0.0
2.977599 0.999641 0.000610 0.0
0.787064 0.188471 -0.001652 0.0
1.976637 0.923711 0.002317 0.0
2.101556 0.592034 0.001242 0.0
3.401051 0.855281 0.001795 0.0
1.056908 0.168882 0.005853 0.0
0.999073 0.550413 -0.001916 0.0
3.111426 1.149291 -0.003321 0.0
0.721011 0.341819 -0.003506 0.0
4.487269 1.338883 -0.003486 0.0
0.972756 1.205826 0.000520 0.0
4.545573 0.189393 -0.001382 0.0
2.358390 1.265457 0.003449 0.0
2.625448 1.377016 0.001212 0.0
1.365390 0.146920 0.000314 0.0
4.482051 1.627866 -0.001657 0.0
0.256498 0.966834 0.000997 0.0
1.779204 0.575427 -0.003438 0.0
3.546858 0.688611 -0.000673 0.0
1.335333 0.171858 0.002698 0.0
2.506509 0.410594 0.001390 0.0
3.559119 0.967818 0.001228 0.0
2.966765 0.261497 -0.001353 0.0
4.304894 0.844194 0.001378 0.0
0.089750 1.416689 0.002915 0.0
0.336056 0.201923 -0.002113 0.0
3.643421 1.508686 0.004785 0.0
0.501826 0.635853 0.003597 0.0
2.256278 0.704105 0.000666 0.0
3.592716 0.539520 -0.001380 0.0
2.848776 1.030079 -0.001976 0.0
1.723538 1.690420 -0.000765 0.0
1.039953 0.159549 -0.000613 0.0
2.010566 0.017647 0.002101 0.0
3.718832 1.328379 -0.004165 0.0
0.956591 0.040265 0.003816 0.0
3.107636 1.247243 0.004086 0.0
2.429464 0.772532 -0.000632 0.0
4.531701 0.119347 -0.005039 0.0
1.073525 1.504704 -0.000899 0.0
1.508756 0.090608 0.000690 0.0
3.429639 0.538337 -0.000662 0.0
2.431790 1.409564 -0.000995 0.0
0.279824 0.532520 -0.001286 0.0
1.085988 0.238683 -0.002073 0.0
2.277863 1.533503 0.000455 0.0
4.350563 1.325280 0.002075 0.0
1.781917 0.245038 -0.001091 0.0
0.277212 1.239659 -0.000016 0.0
4.117920 0.139465 -0.001864 0.0
4.124452 1.707003 -0.000913 0.0
3.393657 0.896808 0.000466 0.0
4.118852 1.133444 0.001864 0.0
3.163879 1.065591 0.001970 0.0
2.738900 0.196026 0.001173 0.0
2.220704 1.684381 0.000181 0.0
3.795684 0.577540 0.004785 0.0
3.613660 1.532161 -0.003393 0.0
3.798234 1.498926 -0.001520 0.0
3.943698 0.155303 -0.001852 0.0
4.248359 1.335224 0.002811 0.0
4.149469 0.581107 -0.001821 0.0
0.635288 1.137863 -0.002128 0.0
0.487746 0.310590 0.000203 0.0
1.430299 0.535019 -0.003953 0.0
4.022325 0.115780 -0.000971 0.0
2.843222 0.564746 0.002380 0.0
3.517482 0.669080 -0.000441 0.0
2.320714 0.491919 -0.003070 0.0
0.804096 0.529586 0.000364 0.0
1.631874 1.073277 0.002496 0.0
1.759446 1.093411 0.000221 0.0
3.427340 0.126550 -0.001894 0.0
0.499735 0.560680 -0.000443 0.0
3.901766 0.731537 0.000951 0.0
2.478313 0.824004 0.002203 0.0
2.963560 0.559832 0.000037 0.0
2.200000 1.239851 -0.003222 0.0
1.199823 0.636958 -0.001318 0.0
0.065486 0.209344 0.000054 0.0
2.195608 1.015685 -0.000335 0.0
2.471089 0.263430 0.001251 0.0
2.196227 0.099910 -0.001963 0.0
2.579946 0.327503 -0.003089 0.0
3.781534 1.627641 -0.001968 0.0
1.844546 1.060845 0.001387 0.0
0.884785 0.815109 0.000048 0.0
4.463216 1.451021 0.000519 0.0
0.449974 0.073405 0.000390 0.0
3.095245 0.626026 0.002097 0.0
1.707866 0.628645 -0.003194 0.0
2.163129 1.527882 -0.001316 0.0
0.986515 0.377735 0.001331 0.0
1.866421 1.514758 -0.001476 0.0
4.352133 1.208412 0.000768 0.0
3.437267 0.542151 -0.000681 0.0
2.907243 1.595552 0.002585 0.0
3.646547 0.640146 -0.000413 0.0
1.270676 1.116849 -0.001186 0.0
3.639468 0.455508 -0.000599 0.0
4.430702 1.401387 0.001019 0.0
3.781074 1.259132 -0.004613 0.0
2.694452 1.496722 -0.001496 0.0
3.047485 0.249297 -0.001372 0.0
1.795933 1.360692 0.001412 0.0
3.557441 1.657372 -0.003119 0.0
0.925644 1.176848 -0.003111 0.0
2.355449 1.559107 0.000133 0.0
4.463963 0.082190 -0.001256 0.0
3.849055 1.610123 0.005638 0.0
2.737645 0.874138 -0.005025 0.0
4.477187 1.066627 0.002903 0.0
4.500671 1.597780 0.009138 0.0
4.455255 1.108634 -0.002232 0.0
2.282534 0.969425 0.002650 0.0
2.559887 1.028460 0.000994 0.0
2.951134 1.288259 0.000997 0.0
1.155881 1.501050 0.003695 0.0
1.503772 0.296328 -0.001118 0.0
2.197779 1.120853 -0.001023 0.0
4.536789 0.077490 0.002095 0.0
3.768982 0.118421 -0.000581 0.0
1.584140 1.350464 0.001157 0.0
3.969360 1.560436 0.002722 0.0
0.360474 0.263330 -0.001144 0.0
2.026180 0.743167 0.000843 0.0
1.828151 0.099178 0.002083 0.0
0.955362 0.273825 -0.002386 0.0
0.478918 0.770849 0.000051 0.0
3.311278 0.104505 0.003404 0.0
4.218616 1.566910 -0.000875 0.0
4.486894 1.039330 -0.002926 0.0
2.698586 1.387174 -0.000024 0.0
2.250544 1.521515 -0.000135 0.0
2.686638 1.184881 -0.001454 0.0
2.615341 0.065936 0.001293 0.0
2.567106 0.927847 -0.000289 0.0
1.471328 1.255205 -0.000804 0.0
1.566111 1.697883 0.001797 0.0
4.061051 1.007307 0.002860 0.0
1.550344 1.477368 -0.000250 0.0
4.433977 1.574858 0.003364 0.0
0.787483 0.306843 0.000123 0.0
1.366702 0.224863 -0.000184 0.0
1.213251 0.413820 0.001105 0.0
2.148881 0.077388 0.000943 0.0
2.233899 1.523602 0.001822 0.0
1.900876 1.149832 -0.001233 0.0
0.802119 1.084848 0.000286 0.0
0.745981 1.219670 -0.000367 0.0
4.466678 1.431830 0.004807 0.0
1.217305 0.298764 0.001413 0.0
1.570325 0.318057 -0.000996 0.0
0.367544 0.759891 0.003272 0.0
1.086432 1.060137 0.000766 0.0
0.904165 1.501804 0.000159 0.0
3.877374 1.550474 -0.001005 0.0
4.235446 0.115093 0.003310 0.0
4.519887 0.504416 0.001247 0.0
1.849225 0.344309 0.000944 0.0
2.651172 1.622489 0.002091 0.0
0.016708 1.597565 -0.000561 0.0
2.096450 1.034254 0.001151 0.0
4.041891 1.349297 0.003671 0.0
0.761192 0.433074 0.003827 0.0
4.453953 0.704017 -0.001510 0.0
3.702043 1.038041 0.001280 0.0
0.504661 1.473896 -0.000572 0.0
1.426203 1.389189 -0.002850 0.0
2.285058 1.015360 0.001630 0.0
0.625049 1.150676 0.000648 0.0
2.073033 1.457319 -0.002893 0.0
2.190451 1.637938 0.003199 0.0
2.943623 1.190680 0.002643 0.0
2.773159 0.078293 0.003645 0.0
3.750385 0.555444 -0.003393 0.0
1.671464 1.035592 0.000635 0.0
4.280294 1.255714 -0.000833 0.0
2.368048 0.195519 -0.001875 0.0
0.091140 1.513730 0.000899 0.0
3.478509 0.989007 -0.003046 0.0
1.593865 0.571358 -0.005822 0.0
0.986978 1.163443 0.003356 0.0
1.916829 0.875340 0.001299 0.0
3.349480 0.565836 -0.000472 0.0
0.255181 1.026000 0.002667 0.0
2.873373 0.450814 -0.000287 0.0
0.494073 0.473632 0.002450 0.0
1.972364 0.274488 0.001791 0.0
0.060940 0.811406 0.004467 0.0
1.726226 0.901205 -0.000779 0.0
1.412876 0.246000 -0.001867 0.0
1.095358 0.458545 0.001468 0.0
3.594235 0.029921 0.001357 0.0
3.241174 0.594281 -0.006152 0.0
0.019171 1.287018 0.002535 0.0
0.300832 1.119510 -0.002487 0.0
2.510810 0.063546 -0.001311 0.0
3.344229 1.622855 0.001845 0.0
1.964668 0.529948 0.000437 0.0
3.032904 1.622987 -0.004470 0.0
2.229202 1.410647 0.003701 0.0
2.188716 1.014577 0.000443 0.0
2.659585 0.272651 0.001581 0.0
2.941980 0.848457 -0.002896 0.0
2.518078 1.288890 0.000450 0.0
3.321934 0.387366 -0.002905 0.0
3.607236 0.325650 0.001565 0.0
3.930746 1.118382 -0.001093 0.0
3.510887 0.145642 -0.000394 0.0
2.207673 0.465563 -0.000419 0.0
1.447517 0.790424 0.002412 0.0
2.350400 1.695076 -0.003697 0.0
3.008423 0.424657 -0.005307 0.0
4.169243 0.764847 -0.001365 0.0
3.048747 1.415094 -0.001397 0.0
1.515014 1.550224 -0.003630 0.0
3.934026 1.649614 0.000326 0.0
4.364838 1.009658 0.000330 0.0
0.309280 1.619406 -0.001228 0.0
4.139456 1.701860 0.006400 0.0
3.302034 1.540176 0.004217 0.0
0.169183 0.554384 0.000499 0.0
3.053656 0.832781 0.000233 0.0
3.278559 0.699918 -0.002298 0.0
0.010150 1.080215 -0.001360 0.0
4.443184 0.239646 -0.000171 0.0
3.327185 1.450927 0.002927 0.0
3.756023 0.906094 0.001425 0.0
3.883021 1.609294 -0.001894 0.0
1.568244 0.630672 -0.001728 0.0
0.409503 0.926949 0.001994 0.0
1.958431 1.572756 0.002094 0.0
3.346790 1.325382 -0.002745 0.0
0.874993 0.401819 0.006419 0.0
0.851669 0.059887 -0.002044 0.0
3.061735 1.266458 0.002776 0.0
2.724550 0.450924 -0.000392 0.0
4.113422 1.374172 -0.000791 0.0
4.507011 0.066393 -0.002623 0.0
2.983668 0.603229 -0.001774 0.0
4.118612 0.097729 -0.002639 0.0
3.684875 1.323303 0.002504 0.0
1.495484 0.986378 -0.000515 0.0
1.414473 0.933268 0.000344 0.0
2.740589 1.436415 -0.000901 0.0
1.885380 0.606861 -0.001170 0.0
2.960548 0.110384 0.002223 0.0
3.560550 1.403809 -0.000147 0.0
3.510047 1.097780 0.002293 0.0
3.865392 1.713635 0.003208 0.0
3.975330 0.188845 0.005623 0.0
3.841841 1.375380 -0.005761 0.0
3.161517 0.384320 -0.003873 0.0
0.395617 1.059303 -0.001414 0.0
1.885615 0.526529 -0.001642 0.0
2.776774 1.172545 0.001209 0.0
1.181274 0.889907 -0.000778 0.0
3.406492 0.883006 0.000628 0.0
0.104955 0.785000 0.001418 0.0
1.435097 1.523095 -0.002180 0.0
4.033360 0.961516 0.001422 0.0
3.064568 1.108206 0.002931 0.0
3.111609 0.760112 0.004068 0.0
2.556935 0.319127 -0.001872 0.0
2.364466 0.697087 -0.002409 0.0
3.808341 1.011836 -0.001540 0.0
0.560728 0.297107 0.000570 0.0
2.742047 0.633677 -0.001872 0.0
2.201869 0.674803 -0.001905 0.0
0.276312 1.550747 -0.002805 0.0
1.897452 0.597101 -0.002009 0.0
2.860279 1.435118 -0.003997 0.0
1.732262 0.310829 -0.001668 0.0
4.485294 0.557964 0.003639 0.0
1.573232 0.464951 -0.001232 0.0
1.489707 0.868754 0.002125 0.0
1.187643 0.963403 -0.003711 0.0
0.692808 1.470710 -0.000668 0.0
1.581373 0.705486 0.001086 0.0
2.103188 1.658358 -0.000178 0.0
0.239625 0.864286 0.003056 0.0
1.152652 1.631839 0.000008 0.0
4.154280 0.187243 -0.000203 0.0
4.048875 1.519122 -0.001265 0.0
3.845030 1.509180 0.002736 0.0
4.207594 0.821732 -0.001689 0.0
0.725995 0.634779 -0.000923 0.0
1.675174 1.019550 0.003125 0.0
0.953762 0.473379 -0.004816 0.0
0.209206 1.659931 -0.000777 0.0
1.425739 0.531741 0.001694 0.0
2.443242 0.985337 -0.001957 0.0
3.302788 1.110242 -0.001897 0.0
3.753799 1.394545 -0.000328 0.0
3.461307 0.364225 -0.000086 0.0
1.764883 1.003426 -0.003805 0.0
4.002632 0.344678 0.002518 0.0
2.926316 0.925815 -0.002446 0.0
3.535160 1.241459 0.002547 0.0
4.381412 0.191969 0.000443 0.0
3.680098 0.968199 0.000642 0.0
4.131915 0.913333 0.001200 0.0
3.335320 0.216153 -0.001310 0.0
3.876862 0.984675 0.000461 0.0
2.222007 1.440773 -0.001028 0.0
3.833378 1.607839 -0.000548 0.0
1.028359 1.483820 -0.002739 0.0
2.408517 1.076570 0.003221 0.0
4.469868 0.381874 0.004000 0.0
2.553497 0.183436 0.003684 0.0
3.521539 1.531719 0.000137 0.0
4.319847 0.533092 0.002806 0.0
0.547594 1.433247 0.000263 0.0
4.104424 1.158820 0.001236 0.0
1.410799 0.348311 0.000080 0.0
2.682309 1.670606 0.001664 0.0
4.436565 1.040816 -0.001935 0.0
2.834728 0.627526 -0.001976 0.0
3.444168 1.147669 -0.002690 0.0
2.658389 1.144931 -0.000471 0.0
3.543911 0.616284 -0.004242 0.0
2.706791 1.046319 -0.000348 0.0
0.407354 0.445766 -0.001005 0.0
1.333101 1.327041 0.001756 0.0
0.667868 0.825692 0.001537 0.0
4.414415 0.619180 0.001856 0.0
2.821704 0.355498 -0.000978 0.0
1.131996 0.303028 -0.000315 0.0
0.602523 0.328436 -0.000662 0.0
2.452434 1.169744 0.000652 0.0
1.044095 1.355838 0.003935 0.0
2.222341 0.386473 -0.000886 0.0
1.317904 1.286693 0.002853 0.0
1.134132 0.844338 0.004488 0.0
1.728004 1.381355 0.003093 0.0
1.503311 0.707849 0.003531 0.0
0.161803 1.108027 0.000081 0.0
3.040240 1.531943 -0.003746 0.0
2.312310 1.262473 0.002770 0.0
1.390308 0.591099 -0.001933 0.0
0.068641 0.871552 0.004515 0.0
0.794332 0.746294 0.000294 0.0
0.769753 0.458960 -0.001922 0.0
3.399542 1.679253 -0.001228 0.0
3.040946 0.126545 0.002361 0.0
2.639619 0.209135 -0.001122 0.0
3.849360 0.504881 -0.008366 0.0
2.216649 1.585486 -0.001312 0.0
0.729628 1.129053 0.001303 0.0
0.181944 1.318282 0.001805 0.0
3.217868 0.276516 -0.002693 0.0
1.852798 0.061731 0.004020 0.0
1.287455 0.112761 -0.002726 0.0
0.376412 0.178711 0.000801 0.0
0.736123 0.692246 0.000922 0.0
0.426620 0.443053 0.003057 0.0
0.326204 1.057651 -0.000775 0.0
2.430126 0.109073 0.004168 0.0
0.605117 1.631453 0.006313 0.0
3.398251 0.027987 -0.002020 0.0
3.352178 1.302503 -0.000916 0.0
1.726235 1.140908 0.005154 0.0
3.657677 1.701891 0.001574 0.0
3.182049 1.210777 -0.001066 0.0
1.048925 0.674564 0.000672 0.0
1.698926 0.902612 -0.000592 0.0
0.960012 0.474017 0.000583 0.0
0.519813 0.423919 0.000010 0.0
4.482624 1.584805 0.004241 0.0
0.579758 1.052689 0.004617 0.0
0.966867 1.131057 0.000397 0.0
1.525034 0.842105 0.002230 0.0
3.004577 0.919881 -0.000914 0.0
2.750324 0.872852 0.003509 0.0
2.701062 0.500328 0.003398 0.0
1.198385 0.155926 0.000273 0.0
2.497960 0.705769 0.000640 0.0
1.078176 0.305529 -0.002498 0.0
3.250439 1.314141 0.002697 0.0
0.902664 1.394250 -0.001272 0.0
1.284106 0.329342 -0.001766 0.0
4.005444 0.829906 -0.001241 0.0
0.719413 1.422577 -0.001851 0.0
1.903180 1.579361 -0.003313 0.0
0.647505 0.279548 0.004312 0.0
4.406875 0.350709 -0.001720 0.0
1.335662 0.261960 -0.001667 0.0
2.795404 1.549052 -0.001019 0.0
2.277000 1.421253 -0.003550 0.0
1.892483 1.317540 -0.001569 0.0
3.644087 1.322078 -0.003087 0.0
0.336920 1.374826 0.001621 0.0
3.381218 1.097275 -0.006223 0.0
1.883441 0.297502 0.002537 0.0
1.406203 0.886184 0.003186 0.0
2.300879 1.648697 -0.001666 0.0
1.551293 1.090469 -0.002433 0.0
1.416947 0.400089 -0.000814 0.0
0.935951 0.672163 0.003035 0.0
4.235011 0.326599 0.002215 0.0
2.098946 1.238727 -0.004162 0.0
1.202406 0.491878 0.001056 0.0
0.335486 0.149181 0.002996 0.0
0.273464 0.396486 -0.003301 0.0
2.892592 1.681769 0.001488 0.0
4.120495 0.960130 -0.000595 0.0
3.994096 0.463133 0.000887 0.0
1.944319 1.566380 0.006596 0.0
1.047603 0.186153 0.003178 0.0
3.319616 0.391151 0.001142 0.0
4.395002 0.673749 -0.000119 0.0
3.075926 0.042009 -0.002144 0.0
2.557684 0.197591 0.002720 0.0
4.180324 1.383651 -0.002563 0.0
4.505836 0.147764 0.005452 0.0
4.241080 1.057334 -0.001436 0.0
3.492676 1.517168 0.001990 0.0
0.424820 1.053180 0.004386 0.0
1.875231 0.674539 -0.001677 0.0
4.123666 0.191768 -0.002445 0.0
1.549805 0.335239 -0.002790 0.0
0.042854 0.372188 -0.000098 0.0
0.094299 0.268272 -0.000232 0.0
0.280344 0.254990 0.001718 0.0
0.029038 0.377465 0.001002 0.0
4.530426 1.665306 0.000434 0.0
2.160100 1.199782 0.000192 0.0
2.683583 1.497696 0.002595 0.0
3.325297 1.404516 -0.002247 0.0
2.637547 0.552672 -0.004020 0.0
2.292321 0.116664 0.002276 0.0
0.720961 0.698244 -0.000802 0.0
0.542351 1.474826 0.007869 0.0
1.249563 0.233507 -0.002809 0.0
1.657828 0.983700 0.001486 0.0
0.454291 0.135447 -0.001607 0.0
2.050227 0.665855 -0.000338 0.0
0.927576 1.298155 0.005044 0.0
0.361660 0.332042 -0.003484 0.0
0.634823 1.169212 -0.000914 0.0
0.365897 0.049056 0.002525 0.0
3.908910 1.364305 0.001205 0.0
1.888945 1.005975 0.002482 0.0
2.808467 1.606846 -0.002564 0.0
0.873792 1.374856 0.000559 0.0
1.399750 1.183075 -0.000017 0.0
2.176478 0.200459 -0.001475 0.0
3.563286 1.469868 -0.001609 0.0
2.611923 1.213903 0.000440 0.0
3.581266 0.214308 -0.001193 0.0
0.837805 1.238983 0.002658 0.0
4.094684 0.838110 0.003187 0.0
2.886398 1.012457 -0.001114 0.0
1.621677 0.742532 -0.000031 0.0
3.422340 0.346628 0.002719 0.0
0.108825 0.047240 0.002718 0.0
0.786681 0.133222 -0.002016 0.0
0.573898 1.491379 0.003056 0.0
3.956964 0.824587 -0.003062 0.0
0.434641 1.595111 -0.000287 0.0
4.094902 0.175199 -0.000596 0.0
1.209509 0.469707 -0.003898 0.0
3.509269 0.826150 -0.000344 0.0
3.580091 1.484067 -0.001157 0.0
2.875695 1.478472 0.001515 0.0
1.824327 0.029346 -0.001201 0.0
1.320565 0.749348 -0.000832 0.0
0.087241 0.109309 0.000487 0.0
4.378083 0.674469 -0.001485 0.0
4.348128 0.316595 -0.002258 0.0
0.640005 1.068717 0.000965 0.0
1.968920 0.734119 0.000193 0.0
0.673282 0.411697 0.000969 0.0
3.489168 0.430554 0.000865 0.0
4.455324 1.122444 0.000452 0.0
3.663463 1.458640 0.000625 0.0
2.110731 1.124606 -0.000364 0.0
0.316102 0.442383 0.002847 0.0
3.256879 0.421271 0.004316 0.0
3.159819 0.180669 0.001819 0.0
0.059294 0.335898 -0.004192 0.0
2.269250 0.796077 -0.002592 0.0
3.779891 0.222613 0.002440 0.0
2.848409 1.036009 0.004737 0.0
0.582722 0.215854 -0.001821 0.0
2.972361 1.408189 -0.000820 0.0
1.409817 1.303210 0.003519 0.0
2.871897 0.427923 0.002844 0.0
3.958910 0.255524 -0.000587 0.0
0.295002 1.386176 0.001649 0.0
1.419568 1.697679 -0.005408 0.0
3.376624 0.441208 -0.000029 0.0
1.533711 0.142704 0.002101 0.0
4.184573 0.384160 -0.001703 0.0
3.381554 0.964784 -0.000030 0.0
0.058413 1.486705 0.001368 0.0
0.393167 1.680135 0.001313 0.0
3.696416 1.525392 -0.000712 0.0
2.153102 1.544069 0.000636 0.0
1.523100 1.637460 0.004694 0.0
3.338456 1.322421 -0.002152 0.0
2.508227 1.083404 0.004383 0.0
1.116119 0.260317 0.002395 0.0
2.507517 0.382194 0.006746 0.0
3.461898 1.126166 0.002902 0.0
1.244697 1.234464 0.002644 0.0
2.317343 1.141407 -0.003231 0.0
4.225301 0.835099 -0.001397 0.0
1.440223 1.322006 0.003727 0.0
1.294351 0.793819 -0.001960 0.0
0.071832 0.585057 0.001882 0.0
0.548691 0.586422 0.000219 0.0
4.435835 0.310254 0.004737 0.0
0.555133 0.562238 -0.004219 0.0
1.245730 1.067713 0.000387 0.0
3.025150 1.096741 -0.002699 0.0
3.181015 1.050954 0.001159 0.0
1.425215 0.558410 0.000209 0.0
0.215531 0.300754 0.000032 0.0
3.630218 1.238883 -0.000584 0.0
2.405198 0.601109 -0.002705 0.0
3.219791 1.175206 -0.004545 0.0
0.955360 1.271603 0.001232 0.0
0.854059 1.374084 -0.002728 0.0
3.249597 0.785410 0.001165 0.0
2.045608 1.576659 -0.000716 0.0
0.537596 0.347530 -0.000914 0.0
2.782287 1.588992 0.004375 0.0
0.655135 0.581551 -0.000561 0.0
1.269434 1.458562 -0.001237 0.0
3.046457 1.418670 -0.000441 0.0
0.008241 0.305230 -0.000578 0.0
0.669816 0.710229 0.003001 0.0
1.507384 1.035140 0.001239 0.0
2.162359 0.578936 0.002775 0.0
3.175049 0.059882 0.004507 0.0
4.073545 1.019857 -0.002810 0.0
2.328060 0.878332 0.001367 0.0
0.891300 1.391310 -0.003369 0.0
0.854524 0.716648 -0.000925 0.0
2.311004 0.202287 0.001042 0.0
4.314186 1.594369 -0.000141 0.0
2.785253 1.263802 0.001118 0.0
3.481120 1.593525 0.001140 0.0
4.198431 1.515583 -0.000387 0.0
1.339197 1.430623 -0.000988 0.0
2.242394 0.049198 -0.002628 0.0
3.486447 0.142016 -0.001204 0.0
4.016110 0.638419 -0.003219 0.0
3.282482 0.119582 0.002316 0.0
0.456133 1.653140 -0.000028 0.0
2.949677 1.129446 0.000410 0.0
1.349940 1.553502 -0.003410 0.0
1.887917 1.301846 -0.003908 0.0
2.991797 1.393353 -0.001680 0.0
3.773804 0.730211 -0.000489 0.0
0.874265 0.564018 0.002398 0.0
0.900246 1.028988 -0.002345 0.0
3.153181 1.034786 -0.004089 0.0
4.032219 0.660885 -0.003591 0.0
0.797791 1.166745 0.000531 0.0
2.633903 1.386765 0.001503 0.0
3.893857 0.941675 -0.001351 0.0
3.673631 0.750794 -0.001140 0.0
0.609552 1.556394 0.004514 0.0
2.838579 0.452675 -0.002794 0.0
4.160885 0.766804 -0.001345 0.0
4.548905 1.051439 0.002174 0.0
4.275909 1.653096 0.000281 0.0
0.118742 1.381832 0.002557 0.0
2.928661 0.192977 -0.001455 0.0
4.109236 1.067635 -0.000103 0.0
1.883718 0.531873 -0.002906 0.0
1.710166 1.147548 -0.002708 0.0
0.533950 1.079484 0.004406 0.0
4.300155 0.493859 0.002546 0.0
0.210547 1.703923 -0.000849 0.0
1.269777 1.002625 -0.001832 0.0
3.307999 0.863976 -0.003387 0.0
0.058639 0.622093 -0.000166 0.0
1.145610 0.970770 0.004754 0.0
3.113167 0.543246 0.000277 0.0
0.527295 0.291537 0.002117 0.0
2.185574 0.432643 0.000489 0.0
0.068001 1.135895 0.001322 0.0
1.526411 1.437933 -0.001661 0.0
1.146061 0.775239 -0.001660 0.0
0.299084 0.531691 0.001657 0.0
0.810832 0.385227 -0.002393 0.0
3.823639 1.372872 -0.005599 0.0
1.387137 1.566837 0.001470 0.0
4.433520 0.259496 -0.004665 0.0
0.878381 0.521361 0.004553 0.0
0.649479 1.403761 -0.002892 0.0
0.697492 1.016603 0.003100 0.0
2.735209 0.304677 -0.003158 0.0
2.904343 0.581055 0.005109 0.0
2.413394 1.454478 -0.000293 0.0
4.504673 0.904367 -0.001587 0.0
3.628922 1.697305 -0.000652 0.0
4.175492 0.241174 0.003308 0.0
2.076061 0.723145 -0.000799 0.0
4.324372 0.928878 -0.001959 0.0
1.620476 1.048908 -0.000187 0.0
2.940651 1.141015 -0.002821 0.0
3.592783 0.668840 -0.002956 0.0
2.586935 0.730939 -0.003950 0.0
2.104745 0.027111 -0.002527 0.0
0.171791 1.331589 -0.001861 0.0
3.326244 0.732263 0.001445 0.0
2.770460 1.595099 0.004589 0.0
0.600788 1.549854 -0.002489 0.0
0.953817 1.577615 0.003175 0.0
0.045398 1.535114 0.003399 0.0
2.228942 0.513081 -0.002651 0.0
2.055104 0.094861 0.006351 0.0
4.171400 1.049303 0.001895 0.0
2.863865 0.487030 0.003436 0.0
2.001031 1.139437 0.003219 0.0
4.307064 1.206848 -0.001910 0.0
0.055653 1.693411 0.004304 0.0
3.168867 0.777180 -0.000791 0.0
1.937727 1.097235 -0.002631 0.0
2.263374 0.623018 0.000822 0.0
0.678576 1.375227 0.000733 0.0
1.875485 0.013220 -0.003140 0.0
0.107354 0.445750 0.001059 0.0
1.495427 1.101373 0.001506 0.0
0.734080 0.976232 -0.000221 0.0
1.370800 0.974107 0.002063 0.0
0.577351 0.814124 0.000096 0.0
3.810910 0.157236 -0.000285 0.0
4.165521 1.527246 -0.005264 0.0
3.745382 1.491887 -0.000437 0.0
3.030437 1.137212 0.000924 0.0
1.295930 0.645312 -0.002741 0.0
2.046967 1.204117 -0.003129 0.0
1.957439 1.406169 -0.002394 0.0
2.715821 1.310319 0.002335 0.0
2.123257 0.035779 0.000969 0.0
3.216375 0.014151 0.001810 0.0
0.032823 1.632881 -0.002614 0.0
2.375187 0.842764 0.001216 0.0
0.614698 0.557775 0.001986 0.0
0.763491 0.613114 -0.000561 0.0
4.316642 0.496048 -0.000179 0.0
3.083687 0.265769 -0.002747 0.0
4.314765 1.294109 0.007184 0.0
0.483801 1.338693 -0.004018 0.0
3.158134 1.065172 -0.000890 0.0
4.505134 1.670181 0.002364 0.0
4.129918 0.661629 -0.000029 0.0
0.918352 1.031489 -0.003383 0.0
2.240208 1.012711 0.002192 0.0
2.389369 0.696302 0.004849 0.0
4.186221 0.533674 0.000461 0.0
3.561224 1.416637 0.000336 0.0
0.014650 0.001695 -0.001827 0.0
4.083649 1.340683 -0.003557 0.0
2.612611 0.317060 -0.003196 0.0
1.363354 1.473511 0.000286 0.0
0.600000 0.384784 -0.002483 0.0
1.955911 1.447371 0.001537 0.0
0.379928 1.525164 0.003265 0.0
1.868686 1.200510 -0.000613 0.0
3.434741 1.634227 -0.000140 0.0
2.762546 0.005467 0.002420 0.0
0.207817 1.282683 -0.002071 0.0
2.066435 0.061791 0.000617 0.0
1.244802 0.402980 0.000366 0.0
2.118142 1.153317 -0.002650 0.0
4.332364 0.089423 -0.001256 0.0
2.405012 1.424440 0.002720 0.0
1.005094 0.153297 -0.002582 0.0
3.797948 0.142085 -0.000685 0.0
0.358284 1.227709 -0.000040 0.0
1.330828 0.043678 -0.001169 0.0
3.694675 0.384400 -0.001367 0.0
0.414821 0.764008 -0.001012 0.0
2.057936 1.663161 -0.001554 0.0
0.353329 0.891764 0.001028 0.0
4.361841 1.336575 0.001502 0.0
1.599817 1.575932 -0.001506 0.0
2.376158 0.623512 -0.003192 0.0
0.787967 0.725965 -0.000850 0.0
1.364959 1.227322 0.002886 0.0
1.498703 0.533837 0.001969 0.0
4.273630 1.546683 -0.000466 0.0
3.594315 1.047937 0.004445 0.0
2.835643 0.798118 0.000311 0.0
3.198412 0.843490 0.001228 0.0
0.930741 1.494698 0.003328 0.0
0.798971 0.384452 -0.003527 0.0
2.291806 0.609151 -0.001375 0.0
2.259860 0.964674 0.003430 0.0
1.335544 1.241226 -0.003334 0.0
3.848514 0.211528 0.000150 0.0
3.522807 0.922869 -0.001005 0.0
4.387172 0.935390 0.001444 0.0
0.309379 1.037482 -0.002947 0.0
1.852074 1.694651 -0.000394 0.0
4.216542 0.642409 0.003808 0.0
1.244787 0.940644 -0.003739 0.0
1.803743 0.443407 -0.001787 0.0
0.786796 0.806600 -0.001547 0.0
0.402588 1.041614 0.001305 0.0
2.988263 1.425047 0.001493 0.0
2.424352 0.081504 0.001764 0.0
3.581000 1.122656 0.000805 0.0
4.180362 1.040137 -0.003292 0.0
3.100608 1.697643 -0.003211 0.0
1.809464 0.326986 0.000028 0.0
3.471924 1.528132 -0.001039 0.0
1.571469 1.700613 -0.004077 0.0
3.338231 0.651483 0.001918 0.0
1.048567 1.135583 -0.003625 0.0
4.116757 0.479154 0.003065 0.0
0.510318 0.660937 -0.001312 0.0
3.715838 0.769867 -0.001794 0.0
0.957322 1.414715 -0.001068 0.0
4.482079 0.847028 0.000061 0.0
0.124600 0.594138 0.001054 0.0
3.907396 0.923183 -0.002385 0.0
0.936211 1.659528 -0.004996 0.0
1.488719 1.191534 -0.000954 0.0
2.770445 1.396886 -0.002870 0.0
2.952645 0.764361 0.003435 0.0
1.851006 0.260221 0.004961 0.0
2.667992 1.472171 -0.000133 0.0
1.968713 0.552562 0.000702 0.0
3.610634 1.019924 0.003163 0.0
3.095454 1.043410 0.000496 0.0
3.973045 1.415572 -0.002668 0.0
3.489311 0.712507 0.000975 0.0
0.123582 0.469632 0.000698 0.0
4.046899 0.719120 0.002006 0.0
0.736609 0.554556 -0.000353 0.0
1.687780 0.912951 -0.001148 0.0
1.531346 0.441899 0.002240 0.0
0.850004 0.146017 0.001208 0.0
3.096366 1.101203 0.003171 0.0
2.139492 1.026828 -0.000201 0.0
0.453558 0.621616 0.000492 0.0
3.337671 0.495257 0.002335 0.0
0.850318 0.258227 -0.000747 0.0
1.239090 0.931574 0.000149 0.0
4.456991 1.622079 -0.005428 0.0
2.887109 1.470056 0.001481 0.0
4.239313 0.365264 0.000308 0.0
3.473829 0.703816 -0.000098 0.0
0.059826 1.259500 0.002551 0.0
0.523591 0.269979 0.001582 0.0
1.186045 -0.003895 0.000246 0.0
1.815418 0.945881 0.001092 0.0
1.164163 1.244086 0.000244 0.0
1.848848 1.321403 -0.001431 0.0
1.584366 1.331407 -0.000776 0.0
2.294397 0.351631 0.002473 0.0
1.663688 1.117089 -0.003009 0.0
2.223606 0.692192 0.001567 0.0
0.709023 0.341456 -0.001917 0.0
3.552495 0.926713 -0.002153 0.0
2.448983 0.844911 0.001785 0.0
2.388901 0.104217 -0.000312 0.0
2.005044 0.256030 -0.001764 0.0
1.437095 0.052871 0.006254 0.0
2.647767 0.653281 0.000203 0.0
2.756416 0.315302 0.004131 0.0
4.459916 0.653130 0.002343 0.0
0.957407 1.149222 0.001161 0.0
2.277550 0.594942 -0.001018 0.0
2.075304 0.619643 0.004983 0.0
3.894005 1.277845 0.002145 0.0
2.697536 1.083800 -0.000918 0.0
3.126624 0.266297 0.000643 0.0
2.267603 0.412887 -0.002792 0.0
2.860785 0.048072 -0.001473 0.0
3.119407 0.296698 0.000948 0.0
2.616317 1.155202 -0.002024 0.0
4.101004 0.483687 0.004953 0.0
0.776832 0.634889 -0.000320 0.0
3.555869 1.003268 0.000448 0.0
2.634739 0.649722 0.001009 0.0
2.713810 0.788481 -0.001169 0.0
3.325896 0.280087 -0.001966 0.0
2.713930 1.637492 -0.001763 0.0
2.876432 1.198857 -0.000003 0.0
3.554513 1.130313 0.001911 0.0
1.232256 0.733504 0.000805 0.0
1.787677 1.647056 0.001579 0.0
2.563002 0.127931 0.004277 0.0
1.251877 1.429251 0.005898 0.0
1.365064 1.565649 -0.000063 0.0
3.593050 0.400010 -0.003168 0.0
4.013556 1.670276 -0.001012 0.0
3.034163 0.223092 -0.003104 0.0
1.932844 0.414502 0.000670 0.0
3.647330 0.354437 0.003465 0.0
2.825044 1.435713 -0.001695 0.0
3.615002 0.345598 0.001320 0.0
4.279976 0.330416 0.000863 0.0
4.466377 0.134076 -0.004601 0.0
1.728203 1.515814 -0.002987 0.0
2.063822 1.174639 -0.001415 0.0
2.372411 0.284598 0.001481 0.0
0.170813 0.818548 0.000860 0.0
2.948324 0.478260 -0.001519 0.0
1.825851 0.618179 -0.001536 0.0
2.259379 1.040285 -0.002954 0.0
0.932485 1.110145 -0.001997 0.0
0.473394 0.833930 0.003906 0.0
1.094523 0.196817 0.001753 0.0
3.379845 0.050829 -0.001124 0.0
2.397733 0.379271 -0.002274 0.0
0.130813 0.348975 -0.001510 0.0
3.994857 1.513215 -0.002171 0.0
0.615863 0.116746 -0.000820 0.0
0.371320 0.622772 -0.000090 0.0
2.206493 1.132628 -0.004043 0.0
0.696666 1.157588 -0.003445 0.0
1.580158 0.788742 0.000013 0.0
2.400339 0.522419 -0.001754 0.0
3.930670 0.675818 -0.000042 0.0
3.218668 1.082782 0.003610 0.0
4.229395 0.856489 0.002686 0.0
1.902377 0.116224 -0.002558 0.0
4.159329 0.994151 0.004392 0.0
3.764075 1.450464 0.002891 0.0
3.194138 1.058484 0.004830 0.0
1.210008 0.841007 -0.001849 0.0
1.265539 0.196107 -0.000278 0.0
2.304823 1.195254 -0.000094 0.0
4.199656 0.044068 0.001549 0.0
1.638810 0.345466 -0.003030 0.0
2.272239 0.403790 0.000823 0.0
1.676316 0.860851 -0.004674 0.0
1.878540 0.627655 0.000808 0.0
3.763541 0.810214 -0.001637 0.0
3.877817 0.535365 -0.001903 0.0
1.300159 0.917042 0.002744 0.0
0.383894 0.923794 -0.005101 0.0
3.921359 1.188832 0.001265 0.0
1.668115 0.595386 -0.000858 0.0
0.369400 1.401114 -0.004475 0.0
2.624288 0.628807 0.000626 0.0
2.329324 1.455099 -0.002533 0.0
3.647998 0.449383 0.002481 0.0
1.059748 0.390647 0.000175 0.0
2.823046 0.330758 0.000373 0.0
0.680623 1.157594 -0.000383 0.0
0.138157 1.256849 -0.000022 0.0
0.013067 1.024172 -0.000430 0.0
2.642368 0.082855 0.003152 0.0
3.760833 1.570756 0.000602 0.0
0.901109 0.358676 -0.003217 0.0
0.250178 1.341516 0.004144 0.0
4.401185 1.195434 -0.001075 0.0
2.026054 0.839656 0.001791 0.0
3.352719 1.690790 -0.000677 0.0
3.271384 1.683191 -0.002110 0.0
1.383685 1.521521 0.000462 0.0
1.214383 0.395543 -0.006009 0.0
4.029385 1.401813 -0.001994 0.0
1.430789 1.652487 -0.002163 0.0
1.218070 1.609991 -0.001906 0.0
4.155052 1.123986 -0.003627 0.0
2.315257 0.559220 -0.000788 0.0
3.532849 0.903378 -0.000117 0.0
1.208376 1.203481 -0.001774 0.0
2.871111 0.093648 0.002074 0.0
0.822505 0.604463 -0.001939 0.0
2.352560 0.837175 0.002235 0.0
1.155255 1.041859 -0.003650 0.0
1.353784 1.363601 -0.000493 0.0
2.667946 0.596556 0.004650 0.0
0.931923 0.173259 -0.003353 0.0
4.361832 0.033139 -0.002306 0.0
0.392266 1.203365 0.001774 0.0
2.953042 1.705426 0.000910 0.0
0.148733 1.209054 0.002964 0.0
4.429496 0.201822 -0.002845 0.0
0.241363 1.547278 0.002116 0.0
4.504691 1.702189 0.002863 0.0
3.584654 0.765285 -0.002303 0.0
0.866106 0.172165 -0.001464 0.0
3.746670 0.867278 0.001321 0.0
2.776471 0.923174 -0.003329 0.0
0.275611 0.720866 0.000753 0.0
3.295453 1.394441 -0.002836 0.0
0.048864 1.171449 0.000000 0.0
1.687539 0.883521 0.003938 0.0
0.934423 1.327179 0.001138 0.0
1.756221 1.285571 0.002344 0.0
2.050033 1.394098 -0.006438 0.0
3.973680 0.406127 -0.000238 0.0
4.028510 0.008499 -0.002130 0.0
2.469997 0.832196 -0.002178 0.0
3.459503 1.041366 0.002323 0.0
2.271752 1.260070 0.003867 0.0
0.273392 0.610948 -0.000665 0.0
0.315300 1.128523 -0.003759 0.0
3.669253 0.216629 -0.000408 0.0
2.057816 0.363894 -0.001725 0.0
1.402076 0.662359 0.003201 0.0
2.127363 0.950419 -0.002416 0.0
3.613306 1.353077 0.000913 0.0
0.450627 0.127443 0.000540 0.0
3.154849 1.136550 0.003587 0.0
3.565240 1.216558 0.000352 0.0
4.490610 1.082777 -0.001412 0.0
3.079862 1.129584 0.002016 0.0
2.455382 1.215332 -0.004905 0.0
1.076614 0.596257 -0.002526 0.0
2.180246 0.071441 -0.004535 0.0
4.100815 1.082531 -0.002383 0.0
3.891008 1.589616 0.001100 0.0
2.528359 0.170508 0.001459 0.0
2.138488 1.042662 -0.002024 0.0
3.953183 0.466767 0.000072 0.0
1.456784 0.553442 -0.006734 0.0
2.289514 0.447395 0.000015 0.0
0.868181 1.113404 0.000126 0.0
0.002736 1.699890 -0.007428 0.0
2.872616 0.748156 -0.002815 0.0
3.290314 1.268964 0.000471 0.0
0.860902 0.433871 0.001991 0.0
2.132363 0.870955 0.001594 0.0
2.495524 1.172143 0.006364 0.0
0.334689 1.606301 0.000156 0.0
4.061218 0.082046 0.001448 0.0
2.509192 1.635684 0.000533 0.0
2.706727 0.727576 0.002723 0.0
1.845729 0.414560 0.002241 0.0
3.514053 0.845153 -0.003351 0.0
1.635401 0.582054 0.001179 0.0
2.693479 0.813213 0.003104 0.0
1.545901 1.523451 -0.000879 0.0
3.357490 0.787755 -0.000839 0.0
0.826549 0.399653 -0.003204 0.0
4.511146 1.531447 -0.000856 0.0
1.913195 0.801736 0.000823 0.0
2.572150 1.094925 -0.001568 0.0
3.379388 1.686084 0.001822 0.0
2.269884 0.236486 -0.000843 0.0
1.653224 0.445633 -0.004884 0.0
2.461080 0.563690 0.002867 0.0
0.993377 0.791314 -0.002273 0.0
3.499627 1.601452 -0.004185 0.0
2.929659 0.900851 0.000922 0.0
1.121120 0.323978 0.000941 0.0
1.201327 0.252189 -0.002682 0.0
1.326088 1.112512 0.000956 0.0
0.476504 1.510569 0.001180 0.0
4.287829 0.400331 -0.002585 0.0
0.635571 0.404635 0.004312 0.0
4.047351 1.713638 0.000805 0.0
1.316264 0.736417 -0.001509 0.0
1.287417 0.987251 0.001814 0.0
0.834140 1.178256 -0.004454 0.0
2.945720 1.053373 -0.004742 0.0
3.810455 1.281349 -0.000699 0.0
0.146388 0.552377 -0.000991 0.0
0.834329 0.903930 0.001110 0.0
2.644827 0.023497 -0.008555 0.0
0.237450 1.486378 0.005512 0.0
2.985043 0.957226 0.004553 0.0
3.063889 0.141590 0.002660 0.0
2.140376 0.716757 0.002340 0.0
4.190507 0.107273 -0.004263 0.0
3.330203 0.490900 0.002022 0.0
1.828260 1.383077 0.002403 0.0
3.386405 0.687880 0.001955 0.0
1.856329 0.896023 0.003091 0.0
2.268619 0.699777 0.002804 0.0
4.337126 0.357987 0.000172 0.0
4.500466 0.560076 0.000142 0.0
0.705533 0.511438 0.000188 0.0
2.350744 1.633298 -0.001920 0.0
0.194257 0.564348 -0.000196 0.0
0.955037 0.942098 -0.005957 0.0
1.848211 1.648266 -0.005260 0.0
1.089151 1.554029 -0.000218 0.0
1.340924 0.270314 -0.007679 0.0
3.091187 0.498757 -0.000128 0.0
1.731389 0.460713 0.000878 0.0
3.363475 0.009585 0.001365 0.0
2.303981 0.034416 -0.003581 0.0
2.684208 0.976667 0.000052 0.0
0.491832 0.497533 -0.001332 0.0
2.867383 1.368167 -0.000579 0.0
0.165762 0.587536 0.000284 0.0
2.527552 1.405990 -0.003096 0.0
4.291707 1.227848 -0.002776 0.0
3.189918 0.552414 -0.001942 0.0
3.994713 1.588331 -0.003774 0.0
3.051575 0.894166 -0.002405 0.0
2.622148 0.575900 0.000330 0.0
0.844337 0.823634 0.001870 0.0
1.786723 1.481910 0.002466 0.0
1.090666 1.175015 0.002165 0.0
3.688543 0.965136 0.001359 0.0
2.990399 1.300080 0.002767 0.0
1.996667 1.115977 -0.000628 0.0
0.421240 0.093952 -0.000160 0.0
3.894161 0.226715 0.004488 0.0
2.013461 0.503911 0.001653 0.0
2.319660 0.048389 0.000066 0.0
2.490495 1.356834 -0.003384 0.0
2.989143 0.596971 -0.001879 0.0
4.097061 1.286197 -0.000981 0.0
1.781634 1.471615 -0.002045 0.0
2.177220 1.179519 -0.000178 0.0
3.014689 1.497518 0.000835 0.0
3.326848 0.372856 -0.000961 0.0
2.192270 0.450842 0.002267 0.0
0.369571 0.233570 0.001047 0.0
2.126573 0.478894 -0.003729 0.0
1.033095 0.164714 0.001894 0.0
2.077270 0.440719 0.000228 0.0
1.644601 0.496059 0.002585 0.0
0.279785 1.700514 0.003995 0.0
2.756162 0.011650 0.002053 0.0
2.001614 1.103521 -0.003317 0.0
2.756065 0.657220 -0.002279 0.0
3.981582 0.012297 0.001645 0.0
2.879831 1.670458 0.002959 0.0
0.794042 1.441261 -0.005126 0.0
2.928700 0.659771 0.004720 0.0
0.181697 0.927959 -0.002177 0.0
4.071711 1.380975 -0.003493 0.0
2.996475 1.446160 0.001548 0.0
0.218225 0.523926 0.004387 0.0
1.487550 1.018599 0.003877 0.0
0.125368 0.002862 -0.002187 0.0
3.375535 1.018199 -0.002410 0.0
0.607018 0.967292 -0.001870 0.0
0.646965 0.627489 0.003203 0.0
4.393143 0.024281 -0.002241 0.0
1.298142 1.034334 -0.000887 0.0
1.042852 0.217420 -0.000115 0.0
3.252442 0.342874 0.001950 0.0
2.164520 0.771260 -0.003932 0.0
1.404636 1.097890 -0.000090 0.0
1.193947 1.437152 0.003257 0.0
3.835844 1.311478 0.000017 0.0
3.130330 0.583169 -0.006447 0.0
1.552266 0.794030 0.001435 0.0
2.996029 1.254875 -0.000041 0.0
2.109039 0.814959 -0.001767 0.0
1.859039 1.004327 0.000318 0.0
0.468052 1.683304 0.001792 0.0
3.106138 1.366554 0.003189 0.0
0.096583 0.772852 -0.000639 0.0
0.658805 1.187934 -0.005323 0.0
1.680352 1.229968 -0.000329 0.0
2.654634 1.210002 0.001872 0.0
0.490094 0.986441 -0.001468 0.0
2.121524 0.721457 -0.000519 0.0
0.169385 1.682270 0.002702 0.0
4.169115 0.252174 -0.006070 0.0
1.582884 1.566532 0.001753 0.0
4.232377 1.435575 0.002489 0.0
4.299719 0.476261 -0.003166 0.0
0.112692 1.276700 0.002109 0.0
3.739905 0.839641 0.001833 0.0
2.967230 1.431598 0.001470 0.0
2.668745 1.057252 -0.001218 0.0
4.533365 0.816401 -0.001329 0.0
3.283834 1.690069 -0.002313 0.0
0.496255 1.003809 -0.003398 0.0
2.619896 0.508296 0.003053 0.0
1.909292 0.732910 -0.000490 0.0
1.299945 0.201668 -0.003075 0.0
3.255672 0.115985 0.001139 0.0
1.005567 0.655842 -0.001009 0.0
0.420184 1.061800 -0.000455 0.0
3.014046 1.275651 -0.000096 0.0
2.931197 0.622414 -0.000374 0.0
1.546974 1.358320 -0.002395 0.0
0.147062 1.603542 0.002339 0.0
0.443049 0.623711 -0.001014 0.0
4.281056 1.303185 -0.000202 0.0
4.483802 1.572629 -0.000890 0.0
3.989285 0.235214 -0.000002 0.0
3.068087 1.046120 -0.002700 0.0
3.488306 0.231706 0.001832 0.0
3.715894 1.216402 -0.000159 0.0
2.378857 0.650480 0.003295 0.0
2.954372 0.851690 -0.000100 0.0
1.457790 1.685270 -0.005769 0.0
1.824701 1.640718 0.000347 0.0
1.627527 0.882598 0.000799 0.0
0.609315 0.668064 -0.000962 0.0
3.974338 0.565602 -0.003988 0.0
3.015036 1.234354 0.000309 0.0
0.735957 0.226649 0.001969 0.0
1.860099 1.050951 -0.002280 0.0
3.986790 0.176293 0.006306 0.0
2.397003 0.597947 0.000499 0.0
2.471940 0.653263 -0.000521 0.0
3.695655 1.354606 -0.003286 0.0
1.149554 0.880877 0.003305 0.0
1.870770 0.807063 0.002268 0.0
3.377563 1.322876 0.001472 0.0
3.454825 0.805151 -0.000140 0.0
3.181205 1.238310 -0.001788 0.0
0.635996 1.462940 -0.000966 0.0
2.899097 0.045547 0.003157 0.0
1.187743 0.353007 -0.001100 0.0
1.535056 0.291681 0.001691 0.0
1.287006 0.872620 0.002218 0.0
0.181438 0.190064 -0.003539 0.0
1.309585 0.455687 -0.000552 0.0
2.627197 0.632212 -0.001425 0.0
3.979372 0.434809 -0.001969 0.0
0.657612 1.045085 0.000572 0.0
3.862747 1.029453 -0.000511 0.0
4.514611 0.821683 0.000157 0.0
1.169826 0.035364 0.001430 0.0
2.083183 1.647761 -0.000972 0.0
3.436085 1.483352 -0.000921 0.0
1.877913 0.602220 -0.004516 0.0
2.642757 1.166406 -0.005245 0.0
3.275017 1.054679 0.000139 0.0
1.094785 1.118086 0.000006 0.0
4.458537 0.495176 0.002828 0.0
1.886582 0.915632 0.002783 0.0
1.913076 0.365551 -0.001809 0.0
4.051602 0.590863 -0.003345 0.0
1.092967 1.373754 -0.002287 0.0
2.597013 0.391711 0.000919 0.0
1.819574 0.899410 0.001535 0.0
2.923123 1.630793 0.001781 0.0
0.145396 0.910078 0.000351 0.0
2.113069 0.343047 -0.000891 0.0
3.916664 0.409957 -0.001685 0.0
3.620735 0.676811 -0.001918 0.0
4.261694 0.681342 -0.000321 0.0
2.414319 0.793856 0.001014 0.0
1.471512 0.869878 0.001646 0.0
2.954348 0.480946 0.002143 0.0
1.595202 0.157286 0.001423 0.0
3.968588 0.750905 0.001780 0.0
1.106157 0.396233 0.000711 0.0
0.308591 0.249144 0.002832 0.0
2.985989 1.687962 0.000016 0.0
3.329203 0.376912 0.000181 0.0
3.731733 0.317988 -0.001928 0.0
0.864902 0.166514 -0.004188 0.0
2.837645 0.317242 -0.003406 0.0
0.358201 0.240028 0.005583 0.0
1.666738 1.658314 0.001272 0.0
2.498205 1.088191 -0.000455 0.0
3.683400 0.316152 -0.000362 0.0
4.299914 1.145434 0.000985 0.0
0.223863 0.281395 0.000910 0.0
3.118413 0.861969 0.000372 0.0
0.364659 1.415192 -0.001929 0.0
2.489114 0.639793 0.001062 0.0
4.349568 0.510080 0.000141 0.0
1.613953 1.155689 -0.001118 0.0
3.846963 0.665914 -0.001924 0.0
2.135456 1.415368 0.002062 0.0
2.995605 0.649307 -0.000613 0.0
2.254789 1.572546 0.000709 0.0
0.354578 0.136125 -0.000855 0.0
3.598340 0.443232 -0.004731 0.0
2.915218 1.417209 -0.000571 0.0
3.028291 0.525739 0.002139 0.0
4.168634 0.404287 -0.004124 0.0
3.434894 1.387577 0.002306 0.0
1.400015 1.015483 -0.002354 0.0
0.729334 0.494377 -0.000987 0.0
3.666535 0.165915 0.001252 0.0
1.360059 0.390538 0.001803 0.0
1.576774 0.837580 -0.000699 0.0
0.187718 0.694841 -0.001960 0.0
3.188948 0.988494 0.001242 0.0
2.636471 0.683677 0.003650 0.0
3.470243 0.048643 -0.000755 0.0
2.970680 0.442151 0.001466 0.0
1.186339 0.816230 0.003805 0.0
2.201522 0.104839 0.000124 0.0
1.391373 0.891464 -0.000488 0.0
3.950824 0.520145 0.001445 0.0
3.233085 0.250094 0.002936 0.0
1.018226 0.095641 0.004772 0.0
0.647081 0.716350 0.000404 0.0
2.909578 0.747073 0.001686 0.0
0.715136 0.564696 -0.001483 0.0
0.714843 0.331658 0.000870 0.0
0.510682 1.054884 0.002489 0.0
4.014843 0.091877 0.000411 0.0
2.540704 0.035548 -0.000033 0.0
2.668367 1.344428 0.000246 0.0
2.278942 1.161783 0.000689 0.0
4.252640 1.204753 0.002199 0.0
1.153075 0.004779 -0.000179 0.0
3.767435 1.193234 0.002732 0.0
1.342391 0.831909 0.003528 0.0
0.642585 0.381009 -0.003419 0.0
0.741252 1.377204 0.001642 0.0
2.221931 1.339781 0.000517 0.0
2.795229 0.559700 -0.002017 0.0
2.870969 1.128704 -0.000205 0.0
4.125488 0.821753 -0.003072 0.0
0.944486 1.143680 -0.000951 0.0
3.471207 0.899047 0.002900 0.0
1.248962 1.444180 0.001430 0.0
0.983438 0.379114 -0.001844 0.0
3.860883 0.809081 -0.004142 0.0
1.095680 0.472162 0.001592 0.0
1.663909 0.733583 0.002428 0.0
1.673473 0.548451 0.001862 0.0
0.072164 0.804126 0.001566 0.0
0.154389 0.672863 0.002859 0.0
2.814978 0.105743 -0.000462 0.0
2.842646 0.285963 -0.001486 0.0
3.079616 1.137232 -0.001141 0.0
2.326346 0.728652 -0.002110 0.0
4.430578 1.321437 0.001025 0.0
1.755208 0.228769 0.004634 0.0
1.650352 0.535871 -0.003357 0.0
0.749696 1.344475 0.003609 0.0
2.375973 0.727648 0.000750 0.0
0.327068 1.400721 0.002126 0.0
2.470555 0.680636 0.001719 0.0
1.576515 1.639575 0.002418 0.0
2.277282 0.311945 -0.004476 0.0
2.999140 1.520148 -0.000141 0.0
3.095265 1.356553 -0.000083 0.0
0.670365 0.350675 0.000551 0.0
3.537769 1.315006 0.004406 0.0
3.356631 0.997941 -0.000895 0.0
3.240128 0.779824 -0.000673 0.0
1.752020 0.961148 -0.000832 0.0
2.681090 0.066368 -0.000510 0.0
3.141855 0.850632 0.001613 0.0
0.598485 1.342104 0.000099 0.0
1.348113 1.668806 -0.004394 0.0
0.654638 0.802251 0.000227 0.0
0.203029 0.920661 0.001700 0.0
0.759220 1.015861 -0.001991 0.0
2.411121 1.479461 0.000812 0.0
2.514477 1.583695 0.001749 0.0
0.234571 1.017014 -0.001992 0.0
4.411828 0.290464 0.005906 0.0
0.413579 0.413885 0.004758 0.0
4.460764 1.311546 0.003854 0.0
2.345352 0.157540 -0.001902 0.0
0.641252 1.687601 -0.000984 0.0
2.700548 1.194547 0.001682 0.0
1.529351 1.504160 0.000439 0.0
1.143697 0.992705 0.004364 0.0
2.351561 1.540953 0.001991 0.0
3.777423 1.553283 0.002479 0.0
2.135156 0.783205 -0.001126 0.0
2.817550 1.525837 -0.002951 0.0
3.394115 1.435034 0.000226 0.0
4.185842 0.926191 -0.003674 0.0
1.693487 1.163054 -0.003304 0.0
2.714254 0.749149 -0.001947 0.0
3.599833 0.067086 -0.000774 0.0
3.683340 1.223440 -0.001432 0.0
2.988840 1.489443 -0.002228 0.0
1.414496 0.272300 0.002446 0.0
2.019730 1.512086 -0.003511 0.0
1.035392 0.078162 0.001119 0.0
1.288751 0.113746 0.002036 0.0
0.730938 0.810901 0.002381 0.0
0.252311 1.025884 -0.002457 0.0
3.764928 0.182421 -0.002628 0.0
4.193023 1.288024 0.003956 0.0
4.236685 1.402179 -0.004331 0.0
1.904087 0.085807 0.004429 0.0
3.034860 1.038387 -0.001929 0.0
0.886348 0.329135 -0.003589 0.0
4.046931 0.256528 0.002692 0.0
0.361591 0.240476 -0.000668 0.0
0.604915 1.647795 -0.001726 0.0
1.489789 1.684631 -0.006870 0.0
2.372375 0.551243 -0.001520 0.0
4.159733 0.408247 0.001582 0.0
2.468814 1.074395 0.002348 0.0
0.032133 0.697066 0.000422 0.0
3.874018 1.628536 0.002105 0.0
