1.698548 0.003358 -0.001572 1.0
0.064331 0.001357 0.001974 1.0
2.840124 -0.003905 -0.002302 1.0
2.954524 -0.001113 -0.001614 1.0
0.753405 -0.000415 0.001569 1.0
2.269851 -0.002815 -0.001320 1.0
1.954787 0.002944 -0.002049 1.0
1.632293 -0.000931 0.004291 1.0
3.188816 0.000468 0.003342 1.0
0.548321 -0.001378 0.004703 1.0
0.600557 0.003196 0.002915 1.0
4.039806 -0.006898 -0.000712 1.0
3.461708 0.001195 -0.003240 1.0
3.493058 -0.000176 0.001859 1.0
1.930476 0.000815 -0.001401 1.0
1.519017 -0.000764 -0.005628 1.0
1.482205 -0.001803 0.003430 1.0
3.830038 -0.001109 -0.003716 1.0
3.047748 0.001282 0.001856 1.0
1.013046 0.003090 -0.002238 1.0
3.215945 -0.003914 -0.000690 1.0
1.537753 0.000050 0.002763 1.0
3.878119 -0.001210 -0.001334 1.0
2.589755 0.004319 -0.002568 1.0
4.000249 0.003156 -0.003624 1.0
2.044090 0.000112 0.003242 1.0
4.175311 -0.004424 -0.005278 1.0
1.982734 0.001912 -0.000178 1.0
3.021911 0.004659 -0.002461 1.0
1.697224 -0.003207 0.000382 1.0
3.678221 -0.006571 0.000282 1.0
0.866630 -0.001609 -0.002053 1.0
1.798286 0.002699 -0.002472 1.0
0.521976 -0.002031 0.003509 1.0
2.054510 0.002581 0.001175 1.0
3.177518 -0.001489 -0.001072 1.0
3.149072 -0.002184 -0.003269 1.0
2.555580 0.003404 -0.005198 1.0
1.518788 0.001010 0.000553 1.0
3.447918 -0.000903 -0.004307 1.0
2.723236 0.001105 -0.001061 1.0
2.983864 -0.005179 0.000549 1.0
2.371886 -0.001134 0.000278 1.0
0.866351 -0.001535 0.003610 1.0
2.671594 -0.001198 -0.003319 1.0
3.453239 -0.001355 0.002020 1.0
0.945459 -0.002724 0.003370 1.0
3.633496 0.004158 -0.004638 1.0
1.907022 0.001955 0.004382 1.0
0.606201 -0.000417 -0.006669 1.0
0.088089 -0.002931 -0.000827 1.0
0.407516 -0.001378 0.002941 1.0
0.622820 0.001506 0.001556 1.0
3.441557 -0.000196 0.000013 1.0
4.344263 0.001000 -0.004219 1.0
0.861432 -0.003677 0.002464 1.0
1.056379 -0.001185 -0.002691 1.0
3.274146 0.003638 -0.001373 1.0
0.671495 0.003321 -0.001533 1.0
1.495033 0.000978 -0.004225 1.0
3.795394 -0.001623 -0.002286 1.0
3.912649 0.002622 0.004178 1.0
3.668438 -0.001541 0.000216 1.0
1.437891 -0.002044 0.004288 1.0
3.450531 0.003116 -0.001314 1.0
0.142545 0.003630 -0.002131 1.0
0.631788 0.001117 -0.002885 1.0
0.347625 -0.000430 0.000828 1.0
0.378495 -0.000474 -0.001516 1.0
0.865761 -0.002251 -0.004694 1.0
0.643438 -0.000858 0.000886 1.0
2.041042 0.004356 -0.000902 1.0
2.504865 0.002258 -0.000477 1.0
3.315156 0.001194 0.000554 1.0
1.347340 -0.002462 -0.001266 1.0
2.330498 -0.001546 -0.002976 1.0
2.414970 0.000273 0.000491 1.0
0.009544 -0.000785 -0.002119 1.0
0.168688 -0.000432 -0.000504 1.0
3.882445 0.000182 -0.001533 1.0
0.488750 -0.000734 0.003595 1.0
3.165738 -0.006219 0.001703 1.0
1.770747 0.004711 0.003666 1.0
3.434011 -0.001217 -0.003637 1.0
4.138073 0.000215 -0.002427 1.0
3.700008 0.000051 -0.000530 1.0
0.806967 -0.000999 0.002542 1.0
0.605572 -0.003558 -0.002326 1.0
1.856260 -0.002321 -0.000254 1.0
0.134929 -0.002974 -0.000584 1.0
1.081199 -0.006061 0.001293 1.0
1.373338 -0.002150 -0.003730 1.0
3.164370 -0.002111 0.002207 1.0
3.421901 0.002475 0.001596 1.0
1.886599 -0.000115 -0.002764 1.0
1.946189 0.001795 -0.004722 1.0
0.668472 -0.000923 0.000671 1.0
1.327273 0.004224 -0.001597 1.0
3.624614 -0.001698 0.003279 1.0
3.537181 -0.002599 -0.001029 1.0
3.173047 0.001291 0.003418 1.0
0.955153 0.001462 -0.004488 1.0
0.648079 0.000516 0.001018 1.0
3.289422 0.000895 -0.001155 1.0
2.258192 -0.002091 -0.002455 1.0
2.105550 -0.000512 0.003251 1.0
1.488503 0.005654 0.000166 1.0
1.671282 -0.001750 -0.002008 1.0
4.163459 0.003482 -0.002824 1.0
1.904560 0.848061 0.000380 0.0
0.177902 1.467199 0.000855 0.0
3.336959 0.759020 0.002411 0.0
3.396586 0.280012 0.000316 0.0
1.332269 1.416884 -0.001171 0.0
1.295449 0.883359 0.003802 0.0
0.634975 1.320738 -0.004239 0.0
1.193465 1.579499 -0.002880 0.0
0.602620 0.226051 0.000017 0.0
3.120189 2.087826 -0.000317 0.0
0.226172 1.743113 0.001955 0.0
0.132215 0.103243 0.001659 0.0
3.713046 1.814017 -0.002129 0.0
0.258156 1.725934 0.001657 0.0
0.982198 1.538204 0.000947 0.0
4.240612 0.764446 0.003997 0.0
3.920249 2.030546 -0.000129 0.0
1.379149 0.206024 -0.003457 0.0
0.467170 0.593901 -0.000670 0.0
2.734596 1.723475 0.002393 0.0
1.127417 1.504816 0.000715 0.0
4.231640 0.673345 -0.005591 0.0
2.765525 0.638243 -0.000839 0.0
2.112663 0.705426 -0.004057 0.0
1.564753 1.905383 -0.001593 0.0
2.052752 1.399575 0.000683 0.0
3.934172 0.480197 0.003917 0.0
4.054201 1.482142 -0.003653 0.0
1.932790 1.252934 -0.000521 0.0
4.102766 1.832670 0.003727 0.0
2.330797 1.791788 -0.000863 0.0
2.925585 2.049873 -0.003305 0.0
3.238559 0.418925 0.000853 0.0
4.167433 1.253813 0.004448 0.0
2.850016 0.083542 -0.001243 0.0
2.382957 0.029680 -0.000858 0.0
1.715940 1.531401 0.001484 0.0
1.018523 1.406138 0.002681 0.0
2.894275 1.489500 0.000198 0.0
0.095525 0.021278 0.000051 0.0
3.851419 0.143249 0.002710 0.0
2.583094 0.900507 0.001193 0.0
3.705660 1.523894 -0.002927 0.0
3.590000 0.839825 0.000103 0.0
0.085457 2.012165 -0.001265 0.0
1.127756 0.800303 -0.001575 0.0
1.445094 1.700875 0.000551 0.0
4.022469 0.091264 -0.005540 0.0
3.765057 1.349119 -0.002208 0.0
0.741084 0.304734 0.001960 0.0
0.824744 1.955757 0.005950 0.0
2.507111 0.887669 -0.005929 0.0
0.560735 1.290624 -0.005008 0.0
0.820677 0.812049 -0.000658 0.0
0.865893 1.364788 -0.003148 0.0
0.068695 1.356877 0.000898 0.0
1.863464 0.554003 -0.001457 0.0
2.892374 0.016720 0.001332 0.0
1.074050 0.081845 0.002502 0.0
1.733261 0.386438 -0.001408 0.0
3.142137 1.885447 -0.001296 0.0
2.535118 0.580428 -0.000119 0.0
0.354217 1.992572 -0.004116 0.0
1.490679 1.768637 0.003776 0.0
0.052044 1.800350 -0.000282 0.0
1.848748 1.133205 -0.002153 0.0
2.521471 0.890329 0.001341 0.0
4.346286 0.127203 0.003159 0.0
3.255649 2.090361 0.001397 0.0
3.710083 0.652184 -0.003278 0.0
1.003747 0.331802 -0.001188 0.0
1.146962 1.561363 -0.000119 0.0
1.401434 1.832267 -0.000116 0.0
0.166274 1.638686 -0.006593 0.0
2.890553 1.768426 -0.001744 0.0
3.988001 0.560866 0.000167 0.0
0.616961 0.272663 -0.004264 0.0
0.983140 0.417471 -0.005212 0.0
4.327389 1.113292 0.001428 0.0
3.321213 1.283923 0.003402 0.0
3.271526 1.559484 -0.001374 0.0
1.826840 1.137662 0.000453 0.0
2.277322 1.002751 -0.001468 0.0
2.626257 0.824727 0.001427 0.0
2.575265 0.488710 0.001278 0.0
1.959099 0.231057 0.004225 0.0
0.120483 0.578077 0.002560 0.0
4.208377 0.610091 -0.000398 0.0
0.138423 0.178736 -0.002065 0.0
4.283142 0.324595 0.001778 0.0
3.351747 0.890295 -0.002116 0.0
0.881704 0.225335 0.000331 0.0
3.016558 1.930189 0.001050 0.0
2.729035 0.584290 -0.000989 0.0
1.444181 2.072461 0.001184 0.0
2.568911 1.465000 -0.001839 0.0
4.197420 1.687009 -0.003584 0.0
4.237718 1.440001 0.003963 0.0
2.330655 0.809525 0.000123 0.0
3.786331 1.039363 -0.000992 0.0
1.758635 0.657517 -0.000810 0.0
2.126744 2.094708 -0.002109 0.0
3.623075 0.758779 0.001884 0.0
4.044153 0.851671 0.000703 0.0
1.192450 1.315075 -0.000813 0.0
2.849675 1.055551 -0.002219 0.0
2.900921 0.908958 0.000228 0.0
2.187176 1.237116 0.000550 0.0
3.190402 1.314166 -0.003352 0.0
3.097786 1.201208 -0.004058 0.0
1.370318 0.310787 -0.003008 0.0
0.421784 1.819247 -0.002424 0.0
0.452757 0.642564 -0.001869 0.0
3.396550 0.527380 0.003792 0.0
4.321997 1.202140 -0.003671 0.0
2.316954 0.198777 -0.000139 0.0
1.015967 0.561262 -0.002594 0.0
1.500698 0.750198 -0.000415 0.0
0.289318 1.920654 0.001573 0.0
1.289022 1.093710 -0.001213 0.0
2.224108 0.683600 -0.001310 0.0
2.265799 1.516898 -0.000887 0.0
2.736747 1.535131 0.000761 0.0
4.091281 0.805738 -0.001380 0.0
1.687710 0.320108 0.000888 0.0
0.298107 1.396697 -0.001076 0.0
0.494180 1.384470 -0.003456 0.0
2.298003 1.333859 0.002142 0.0
1.420246 0.409515 0.000953 0.0
4.151048 0.864209 0.001839 0.0
0.466396 1.081528 -0.001235 0.0
0.913470 0.453540 0.002329 0.0
1.705515 0.135770 -0.000470 0.0
1.269126 2.035212 0.005279 0.0
0.694066 1.792059 -0.005469 0.0
0.697373 1.333734 0.000125 0.0
2.024367 0.356297 -0.005034 0.0
0.174942 1.027451 0.002888 0.0
0.299252 1.334547 0.004245 0.0
1.064344 0.012314 0.003913 0.0
2.022104 0.663803 -0.006095 0.0
1.735493 1.374828 -0.000133 0.0
1.394309 0.616810 0.001189 0.0
3.194954 1.349821 -0.000011 0.0
1.105021 1.243396 -0.005100 0.0
0.003324 1.228708 -0.000846 0.0
0.659711 0.492190 -0.000350 0.0
4.233273 1.720026 -0.002879 0.0
0.342776 0.876909 0.001426 0.0
4.311364 1.845065 0.000475 0.0
0.314377 0.157521 -0.002717 0.0
3.499200 1.740082 -0.001506 0.0
2.251098 1.480923 -0.004480 0.0
1.579953 0.643690 -0.003625 0.0
3.502638 0.880255 -0.002007 0.0
1.018925 0.771482 0.002625 0.0
3.023712 1.918536 -0.000150 0.0
3.814827 1.576872 0.005645 0.0
2.966191 0.491282 0.001791 0.0
0.517443 1.199880 -0.005078 0.0
3.538178 1.636105 -0.001511 0.0
4.087185 0.505916 0.001373 0.0
2.143661 0.446558 0.000090 0.0
2.980743 0.758428 -0.000487 0.0
4.339611 1.372107 0.000409 0.0
3.506173 1.946021 0.001566 0.0
2.386769 1.004557 -0.002769 0.0
0.153890 0.064780 -0.002720 0.0
0.861428 0.707038 0.001433 0.0
0.301261 0.103135 -0.001552 0.0
2.878316 1.391730 0.004148 0.0
1.671338 0.672917 -0.003504 0.0
4.082755 1.893705 -0.002821 0.0
2.967934 0.327804 -0.000622 0.0
2.134087 0.379163 -0.003185 0.0
1.333073 2.065230 -0.004295 0.0
0.142058 0.575706 -0.004230 0.0
2.662766 1.728915 -0.001030 0.0
1.636791 0.073910 0.000260 0.0
4.217670 0.762381 0.001409 0.0
0.330581 0.108087 0.003688 0.0
0.744700 0.902246 0.003486 0.0
2.149863 0.459877 -0.003198 0.0
2.550141 0.753766 -0.002298 0.0
0.882805 1.852319 -0.000071 0.0
0.138532 0.473271 -0.001545 0.0
2.967278 0.907621 0.000935 0.0
2.505902 0.539824 0.001341 0.0
4.298094 1.685749 0.002534 0.0
2.049176 0.928485 0.001997 0.0
3.468131 0.750805 -0.002790 0.0
3.828678 1.837885 0.001442 0.0
1.622151 0.847408 -0.002163 0.0
1.504783 1.200456 0.001783 0.0
0.436434 1.616268 -0.003620 0.0
1.327589 1.298555 -0.000785 0.0
1.882536 1.307859 0.000558 0.0
2.270438 1.903261 -0.003397 0.0
1.508146 1.787701 0.003403 0.0
4.251824 1.053050 0.001268 0.0
2.396233 0.933319 0.001643 0.0
0.127926 0.757776 0.000344 0.0
1.005008 1.467638 0.002107 0.0
0.087187 1.707252 -0.002580 0.0
0.686969 1.924708 0.003898 0.0
1.691046 0.628188 0.000643 0.0
3.756159 0.086691 -0.000952 0.0
0.844246 0.880226 -0.001387 0.0
3.601927 0.036055 0.002937 0.0
2.305296 0.741683 0.002282 0.0
1.664110 0.422507 0.001568 0.0
3.760287 0.946141 -0.002326 0.0
3.109299 0.104618 -0.001886 0.0
1.011339 0.736587 -0.002450 0.0
2.626603 0.431823 0.002498 0.0
0.915858 1.158545 -0.001780 0.0
3.434420 1.812643 -0.000680 0.0
1.185972 0.700609 -0.000075 0.0
1.934012 1.513082 0.001728 0.0
0.375541 1.601645 0.000264 0.0
2.472012 1.454525 -0.002244 0.0
3.837017 1.506510 0.003298 0.0
1.618529 1.445405 0.000071 0.0
2.577096 1.114689 -0.000012 0.0
3.816500 1.990172 -0.004499 0.0
2.947406 1.133758 0.000643 0.0
1.835032 1.155192 -0.004096 0.0
1.244364 1.016204 0.002692 0.0
1.529240 1.418880 0.004060 0.0
1.488318 1.178807 -0.001718 0.0
3.008616 1.404010 0.002207 0.0
1.838673 1.454033 0.002669 0.0
3.169915 1.897243 0.001106 0.0
3.758179 0.671215 -0.001315 0.0
2.687087 0.215166 -0.002380 0.0
3.449664 0.454820 0.002987 0.0
1.011665 1.997783 0.003048 0.0
2.352110 0.651001 0.000332 0.0
1.260021 0.807325 0.005771 0.0
0.375226 0.200465 0.006200 0.0
3.116417 1.827235 0.004841 0.0
1.899587 2.008512 0.004236 0.0
0.524769 0.218678 -0.004650 0.0
2.945174 0.819624 -0.002941 0.0
1.977808 0.771033 -0.000709 0.0
3.833339 1.650269 0.000290 0.0
3.478941 1.700688 -0.003152 0.0
1.808412 1.390326 0.003916 0.0
4.124318 0.530257 -0.000844 0.0
2.841964 0.162801 -0.004341 0.0
3.953652 0.280491 0.000134 0.0
3.667291 1.973098 -0.000852 0.0
2.824737 0.882168 -0.004029 0.0
3.115719 0.939523 -0.002955 0.0
0.533205 0.255297 0.000778 0.0
0.274158 0.200623 0.003553 0.0
1.052001 0.648900 -0.000414 0.0
4.060168 0.395177 -0.002989 0.0
0.549150 1.114262 0.001279 0.0
3.488923 1.992301 0.000977 0.0
1.258064 0.040561 0.000859 0.0
3.180726 1.678337 -0.003685 0.0
2.327549 1.219802 -0.003459 0.0
1.165678 0.033050 0.002967 0.0
4.187075 0.595901 -0.001075 0.0
0.032024 1.068206 -0.000384 0.0
3.227294 2.032804 0.001385 0.0
0.268845 0.458109 0.004278 0.0
1.644472 1.913582 -0.002566 0.0
0.892749 0.447690 -0.003794 0.0
2.770899 0.921477 0.000745 0.0
2.482188 1.051494 -0.000311 0.0
1.831408 0.306647 -0.003064 0.0
1.164522 1.782899 0.001044 0.0
3.382482 0.246891 0.001636 0.0
1.893021 1.985566 -0.000866 0.0
0.767286 1.859129 0.000237 0.0
1.258818 1.646335 0.002264 0.0
4.057387 0.072004 0.000825 0.0
4.054344 1.626428 -0.001314 0.0
3.193335 0.557392 0.002612 0.0
0.753469 1.973243 0.000216 0.0
1.963423 2.011954 -0.001768 0.0
2.548818 0.566189 -0.002004 0.0
0.532726 1.614154 -0.002574 0.0
1.545865 0.020763 0.005689 0.0
3.231539 2.026405 -0.005488 0.0
0.347465 0.118440 -0.000643 0.0
0.743926 0.245131 0.000528 0.0
0.096461 1.964403 0.005379 0.0
0.690453 1.668878 0.002458 0.0
4.009740 0.054633 0.003959 0.0
0.277168 1.281084 -0.002558 0.0
4.075486 1.530264 -0.001055 0.0
3.659941 1.224965 -0.001112 0.0
0.203552 0.287669 0.002631 0.0
0.245870 1.217387 -0.003735 0.0
0.106247 2.004392 -0.002296 0.0
4.300786 0.469613 0.004203 0.0
1.759753 1.214528 -0.000382 0.0
0.753260 1.885760 -0.002381 0.0
2.260220 1.317320 0.002069 0.0
1.981174 0.815899 0.001186 0.0
2.144240 0.075726 0.002199 0.0
2.823342 0.291008 0.001358 0.0
4.277695 0.189755 0.001760 0.0
4.231757 0.972201 0.001345 0.0
1.968119 0.123499 -0.002636 0.0
2.210428 1.659623 -0.006900 0.0
1.730883 0.281686 0.001246 0.0
4.211842 1.199128 0.003494 0.0
1.372413 0.418099 0.000954 0.0
2.126707 1.824519 -0.003199 0.0
1.569843 1.945657 -0.002862 0.0
0.585565 1.684872 0.002298 0.0
2.682077 0.660813 0.000530 0.0
2.599654 1.666930 0.004673 0.0
1.230078 0.748031 -0.001129 0.0
3.371603 1.073512 -0.001680 0.0
1.454131 1.378558 0.001260 0.0
1.309590 1.524417 -0.001379 0.0
0.356114 1.865610 0.002127 0.0
1.726396 1.165099 -0.000932 0.0
0.156275 1.374444 0.005231 0.0
4.241501 0.130748 0.005968 0.0
1.089333 2.015638 -0.000759 0.0
1.749952 0.697025 -0.000826 0.0
3.253311 2.073683 -0.000515 0.0
2.411781 0.927517 -0.002234 0.0
1.191785 1.621513 0.003645 0.0
0.838736 1.911929 -0.002515 0.0
3.882472 0.252320 -0.001094 0.0
4.017413 1.329233 -0.002052 0.0
0.443813 1.677464 0.000347 0.0
0.023219 0.905224 0.004901 0.0
2.638991 0.962631 0.002317 0.0
3.962562 1.097635 0.003643 0.0
1.564118 1.722379 -0.000214 0.0
1.798202 2.074391 -0.003554 0.0
2.835253 2.008234 0.001057 0.0
4.060673 1.415359 -0.003311 0.0
0.595047 0.602330 -0.001549 0.0
3.653463 1.823775 0.003579 0.0
1.841697 0.471171 0.003066 0.0
0.306864 0.925167 -0.001006 0.0
4.142681 1.876319 0.003905 0.0
3.918734 1.834324 0.002126 0.0
2.499800 2.041604 -0.000612 0.0
0.438098 1.292759 -0.001419 0.0
1.329387 1.963851 0.001320 0.0
1.609795 0.918638 -0.000437 0.0
0.510217 1.108957 0.000855 0.0
2.717810 1.125678 -0.002758 0.0
2.389714 1.667845 -0.000760 0.0
2.645200 0.577880 0.000681 0.0
3.679628 0.443722 0.000357 0.0
0.918875 0.716464 0.003614 0.0
0.578486 1.629766 0.000695 0.0
0.048265 0.992440 -0.002028 0.0
0.169515 0.326569 0.005467 0.0
3.420756 0.717563 0.002389 0.0
4.326076 0.682967 -0.004240 0.0
1.552569 0.936313 0.001022 0.0
4.143817 0.572534 -0.000550 0.0
3.195896 1.910554 -0.000397 0.0
1.942278 1.530655 -0.003430 0.0
0.186574 0.709239 -0.006428 0.0
2.193635 0.899924 0.002292 0.0
2.495031 0.912744 0.001073 0.0
2.823901 1.521832 -0.001686 0.0
2.768400 1.473098 0.000505 0.0
0.890582 0.947086 -0.001103 0.0
4.052177 1.893436 -0.004421 0.0
2.320265 1.599963 -0.000313 0.0
0.420468 0.941808 -0.000926 0.0
2.307205 0.182373 -0.000122 0.0
3.133484 0.430137 0.001154 0.0
1.822228 0.176020 0.000073 0.0
3.205797 1.250699 -0.001482 0.0
0.575465 1.358387 -0.001048 0.0
4.337768 1.269130 0.001710 0.0
3.682063 0.455049 0.000454 0.0
4.107564 1.143496 0.000863 0.0
1.556254 1.176521 -0.006643 0.0
3.339844 1.998910 0.003646 0.0
3.095248 1.170119 -0.005919 0.0
1.503926 1.352547 -0.004208 0.0
2.310973 0.039171 -0.001520 0.0
3.957052 0.739554 -0.001504 0.0
1.868904 1.744338 0.001952 0.0
0.570471 1.069347 0.003615 0.0
2.873406 0.782995 0.003581 0.0
2.259982 2.074664 0.000423 0.0
0.479788 0.329163 0.000173 0.0
0.988362 1.930403 -0.002944 0.0
2.779076 0.705250 -0.000694 0.0
3.290218 0.923818 0.000674 0.0
3.789470 1.107688 -0.003704 0.0
3.919466 0.287602 0.000120 0.0
0.274152 0.036765 0.002733 0.0
2.146831 0.392201 0.003572 0.0
3.350871 0.891469 -0.001747 0.0
2.377117 0.056121 -0.001184 0.0
2.726587 2.086756 -0.003682 0.0
4.141685 1.710843 0.000485 0.0
1.810441 2.076536 0.005160 0.0
1.859755 0.858585 -0.002006 0.0
0.651340 0.322693 -0.000513 0.0
3.416159 1.285645 0.001919 0.0
0.382296 1.581593 0.000974 0.0
0.420660 0.797852 -0.000539 0.0
3.296881 1.750290 -0.003642 0.0
4.059804 0.235456 -0.001937 0.0
1.281734 0.665868 0.003526 0.0
1.967163 1.990794 -0.000363 0.0
0.048362 1.560020 0.004050 0.0
2.754747 1.981361 -0.001901 0.0
3.365479 0.198525 0.005059 0.0
3.603397 0.809908 0.002090 0.0
1.950193 1.201562 -0.001722 0.0
1.673834 2.106600 -0.001721 0.0
3.190168 1.216589 0.001642 0.0
2.689108 0.133925 0.001752 0.0
0.310249 0.616724 0.004736 0.0
2.952131 1.245287 0.001245 0.0
0.730064 0.353948 -0.001977 0.0
2.217549 1.060324 -0.000804 0.0
1.522243 2.067277 -0.001463 0.0
0.963346 0.947504 -0.000385 0.0
0.800344 0.424388 -0.003673 0.0
1.832741 0.103986 0.001544 0.0
2.391366 1.286294 0.001655 0.0
2.921524 1.291333 -0.000914 0.0
0.766589 0.756570 0.001616 0.0
2.425327 1.262131 0.005101 0.0
0.384545 1.359783 -0.003113 0.0
2.768929 0.796289 0.001696 0.0
2.077517 0.124193 0.000110 0.0
1.120967 2.029716 0.002268 0.0
0.725818 1.737011 0.002782 0.0
1.680184 0.006453 0.001160 0.0
3.392777 0.494752 -0.004659 0.0
0.911341 1.230764 0.000616 0.0
3.098945 0.543644 0.002575 0.0
3.115960 2.103907 0.003700 0.0
2.817243 1.949778 0.001949 0.0
3.831869 1.979398 0.002444 0.0
1.007051 0.380858 0.001258 0.0
1.352110 1.901206 -0.001457 0.0
2.737739 1.146326 -0.000190 0.0
4.081942 1.852982 0.000475 0.0
2.596804 0.197897 0.002200 0.0
4.281005 1.638303 0.002952 0.0
4.029599 1.598262 0.001063 0.0
1.044403 0.936871 -0.000317 0.0
1.971771 0.722663 -0.003018 0.0
0.560218 1.413003 -0.000560 0.0
0.945718 2.085322 -0.004162 0.0
1.507960 0.128853 0.002002 0.0
3.304718 2.104684 0.001612 0.0
0.675170 1.590817 0.000985 0.0
2.091564 0.961767 0.001408 0.0
4.208776 0.101926 0.000284 0.0
0.499602 1.048128 0.004211 0.0
2.737518 1.722701 0.003073 0.0
1.108714 0.178084 0.002852 0.0
4.225276 0.325698 0.000961 0.0
0.619980 0.085791 0.002970 0.0
3.566201 0.823116 0.001874 0.0
1.856008 1.682699 -0.003145 0.0
1.481631 0.126672 0.001452 0.0
0.476790 0.302859 0.000797 0.0
3.735618 2.094147 0.004002 0.0
0.217472 0.360736 0.000680 0.0
3.576783 0.524174 0.000263 0.0
0.588236 0.946230 -0.001304 0.0
0.057620 1.067145 0.001282 0.0
1.854665 0.404291 0.001326 0.0
3.238216 1.512453 -0.000592 0.0
3.229309 0.931774 -0.000800 0.0
3.707146 0.292310 0.000322 0.0
2.302030 1.358605 0.002955 0.0
0.890924 1.244667 -0.001462 0.0
3.748577 0.633861 0.001126 0.0
2.948270 2.034662 0.000041 0.0
1.509452 1.461887 0.002664 0.0
2.092682 1.467513 -0.001249 0.0
2.180552 2.046773 -0.003121 0.0
4.106149 0.121115 0.001816 0.0
2.401122 1.474988 0.003111 0.0
1.585512 1.418462 -0.003709 0.0
0.502250 0.542067 0.000772 0.0
0.436780 1.306223 0.000582 0.0
0.516437 0.074906 0.005249 0.0
3.496074 0.331248 0.002543 0.0
3.338564 1.395799 0.001063 0.0
2.867622 1.248539 -0.000418 0.0
2.821571 0.426301 -0.000409 0.0
1.660506 0.800670 -0.002314 0.0
0.257730 0.500084 -0.000163 0.0
2.533815 0.723326 0.000034 0.0
0.481044 1.876679 -0.003213 0.0
2.649239 1.336968 0.000050 0.0
3.215463 0.852570 -0.000040 0.0
0.193306 0.230054 -0.003287 0.0
4.089099 1.524610 -0.002672 0.0
2.365353 1.358751 0.000131 0.0
0.150984 0.399445 -0.000759 0.0
4.320098 0.282598 -0.002417 0.0
4.138554 2.076831 0.000850 0.0
2.942191 1.718990 -0.000376 0.0
1.363505 1.877860 0.000902 0.0
3.743231 1.475109 0.001952 0.0
3.239062 0.117627 -0.001689 0.0
1.994866 1.177522 0.002548 0.0
3.304726 0.840738 0.000716 0.0
0.877467 1.525104 -0.002346 0.0
2.046904 1.642300 0.001071 0.0
2.954857 0.522079 0.000038 0.0
0.181089 1.130283 -0.002008 0.0
2.448076 1.006752 -0.001173 0.0
1.650674 1.644688 -0.000823 0.0
3.790762 0.636063 -0.001433 0.0
4.246049 0.234810 0.001294 0.0
0.710928 0.818215 -0.003521 0.0
2.139574 1.371703 -0.000872 0.0
1.691946 2.014265 -0.002866 0.0
1.794986 1.911709 -0.000408 0.0
0.529137 1.126513 0.004783 0.0
2.145501 2.067524 -0.002233 0.0
3.912397 0.277654 0.000535 0.0
0.611776 1.091593 -0.001162 0.0
2.148534 1.115492 0.001210 0.0
2.988245 1.577140 0.005349 0.0
3.473970 0.745798 0.003744 0.0
0.092537 0.107531 -0.001695 0.0
3.472052 1.859157 0.003820 0.0
1.093943 0.047221 0.003940 0.0
0.024557 0.115409 0.001083 0.0
3.175776 1.574334 -0.002050 0.0
2.879545 0.358062 0.001584 0.0
2.133963 0.225766 -0.002636 0.0
2.650188 0.291544 0.000023 0.0
1.070985 0.007122 -0.001591 0.0
2.965764 1.573648 0.001697 0.0
2.250141 1.667435 -0.000013 0.0
1.419980 1.862507 0.001030 0.0
1.899174 1.337570 0.001624 0.0
1.766872 0.893538 0.002934 0.0
4.277382 0.591579 -0.001930 0.0
3.730047 1.121851 -0.001449 0.0
4.039230 1.992180 -0.000255 0.0
1.382216 1.838143 -0.001393 0.0
4.090783 1.004744 0.002040 0.0
2.502371 0.682253 0.005221 0.0
3.685111 1.973517 0.002886 0.0
1.453054 0.835791 0.002686 0.0
0.637437 0.010127 -0.000506 0.0
1.294195 1.236543 0.001011 0.0
0.314927 0.410319 -0.001045 0.0
2.433616 1.233307 0.000226 0.0
0.495789 0.810558 0.003548 0.0
0.522640 0.784051 0.002222 0.0
4.109458 1.474883 0.002645 0.0
0.985326 2.003057 0.002338 0.0
3.562313 1.756537 -0.000106 0.0
0.472560 0.516447 -0.002898 0.0
1.384070 0.711135 -0.003893 0.0
3.583736 0.288293 -0.000446 0.0
0.020914 0.227033 -0.002384 0.0
2.368335 1.957745 -0.002778 0.0
3.502893 0.024670 0.005425 0.0
3.975177 0.728973 -0.000663 0.0
1.516230 0.835638 0.003770 0.0
3.707085 1.511620 0.003746 0.0
0.174572 1.577061 0.002959 0.0
1.893858 1.584192 -0.001199 0.0
0.136192 0.304166 0.001856 0.0
3.126454 1.901522 -0.002435 0.0
1.210964 0.376676 0.001790 0.0
2.591848 1.912145 0.002459 0.0
2.226090 0.670796 -0.000990 0.0
3.499694 0.166406 -0.004542 0.0
1.106743 1.533563 0.001620 0.0
1.981024 1.938067 0.001204 0.0
0.909381 1.519058 -0.001790 0.0
0.909078 2.016144 -0.000503 0.0
2.937051 0.147307 -0.002507 0.0
0.265747 0.085311 0.002206 0.0
0.681026 2.091893 0.000566 0.0
1.162044 1.995349 -0.005955 0.0
2.652438 1.266210 -0.001105 0.0
2.510262 1.815913 0.000228 0.0
1.773814 2.040554 -0.000180 0.0
1.941211 0.385127 -0.002268 0.0
2.060449 0.715590 -0.007204 0.0
3.633004 1.833211 0.001998 0.0
1.128582 0.708623 -0.002115 0.0
2.459242 1.355310 -0.005549 0.0
2.564271 1.573709 0.000550 0.0
3.688526 1.173501 0.002683 0.0
0.374757 1.558212 -0.000025 0.0
3.600355 0.067898 -0.000727 0.0
3.862110 0.183822 0.000607 0.0
3.006340 0.623290 -0.002751 0.0
4.187120 1.628427 -0.001889 0.0
3.240418 0.473759 0.000260 0.0
2.680534 1.963589 0.000021 0.0
1.080984 0.574290 -0.001459 0.0
0.896903 0.578965 0.004451 0.0
3.026271 2.014046 -0.001700 0.0
0.956214 0.206810 -0.001555 0.0
3.233579 0.415837 0.001370 0.0
3.799710 0.724257 -0.001142 0.0
3.862339 1.221125 0.002016 0.0
3.576713 1.361109 0.003823 0.0
2.864772 1.989979 -0.001024 0.0
2.294281 1.358357 -0.001317 0.0
1.920271 1.605674 0.000212 0.0
2.176167 1.952468 0.001115 0.0
3.240037 0.720612 -0.002249 0.0
2.188055 0.413526 -0.000480 0.0
2.278908 1.589047 0.000365 0.0
3.244101 2.082850 -0.001326 0.0
2.187016 2.104149 0.005585 0.0
3.167699 0.851558 0.001478 0.0
1.334092 1.157568 -0.000117 0.0
2.770321 1.337472 -0.001506 0.0
3.906437 1.641428 0.001624 0.0
2.481272 1.808020 -0.000817 0.0
3.266230 0.125265 -0.001087 0.0
0.871339 0.914961 0.003436 0.0
2.735706 1.547688 -0.002715 0.0
2.871215 0.217522 0.003346 0.0
1.229204 1.507821 -0.004022 0.0
1.826906 1.868122 0.005006 0.0
2.789858 0.053918 0.001194 0.0
2.861613 1.840370 0.000272 0.0
2.427136 0.747940 -0.002568 0.0
3.574419 0.018365 0.001014 0.0
2.895980 0.218219 0.002965 0.0
1.916612 0.959060 -0.001389 0.0
3.864113 0.534143 0.001994 0.0
1.838720 1.163796 0.000561 0.0
3.098484 1.916511 -0.001483 0.0
2.285555 0.485609 0.002602 0.0
4.120375 2.097643 0.000616 0.0
4.016045 1.526693 0.000503 0.0
1.469909 0.888087 -0.002272 0.0
0.544902 1.158905 0.001568 0.0
3.571600 2.079130 0.003603 0.0
2.635396 0.563967 -0.000598 0.0
0.233080 0.633710 0.003159 0.0
2.987130 2.014751 0.000745 0.0
3.931915 0.711110 -0.001306 0.0
0.035986 1.276781 -0.000317 0.0
2.648884 1.374974 0.001456 0.0
3.550578 1.176312 -0.001010 0.0
0.816440 1.212367 -0.001780 0.0
3.108328 0.384359 0.008079 0.0
3.396379 0.789766 0.003167 0.0
3.993547 1.556591 0.001777 0.0
2.779770 0.350022 -0.000848 0.0
1.735166 0.724605 -0.003603 0.0
2.213920 1.667449 -0.002475 0.0
1.966171 0.169752 -0.001264 0.0
0.424419 1.016422 -0.000287 0.0
4.218731 0.306673 -0.000639 0.0
3.238520 1.992610 0.000049 0.0
3.997334 0.831928 -0.000182 0.0
3.260018 0.970152 -0.002534 0.0
1.172776 1.072203 -0.003274 0.0
4.110077 0.905543 0.002115 0.0
3.646862 1.189375 -0.002414 0.0
0.233006 1.741179 0.000704 0.0
1.634234 0.268323 -0.001893 0.0
3.143755 0.819682 -0.000285 0.0
2.980746 1.973871 0.000857 0.0
4.167246 1.317017 -0.000141 0.0
2.237500 1.949815 0.002159 0.0
3.637168 1.251200 0.003719 0.0
3.336520 1.559679 -0.000688 0.0
3.459522 1.237683 0.000750 0.0
2.024784 0.990036 0.002144 0.0
2.261024 0.387705 -0.001972 0.0
2.845565 0.166464 -0.002042 0.0
1.730717 0.890368 -0.001903 0.0
0.908726 1.188772 -0.000824 0.0
4.165684 0.332691 -0.002016 0.0
1.289294 0.718045 -0.002192 0.0
3.068179 1.699550 -0.001313 0.0
4.269293 1.514248 -0.001934 0.0
4.232331 1.256761 -0.002238 0.0
2.381445 0.695583 0.000351 0.0
1.905985 0.697087 0.002238 0.0
3.398693 0.984177 -0.003300 0.0
1.947270 1.108968 0.001739 0.0
3.685437 1.586469 -0.000894 0.0
0.983875 1.735126 -0.002699 0.0
3.364747 1.406213 -0.000265 0.0
0.549286 1.417830 0.003495 0.0
0.017196 0.691010 0.000895 0.0
1.524800 1.611393 0.000719 0.0
3.888872 1.622188 0.002471 0.0
1.472806 1.927663 0.001916 0.0
3.230261 0.209967 -0.002036 0.0
0.907432 0.490952 0.001589 0.0
3.191386 1.648165 0.002729 0.0
1.230127 1.900617 -0.000258 0.0
3.144228 0.049743 0.000557 0.0
0.977736 1.019540 -0.002080 0.0
2.505074 0.482529 0.000783 0.0
4.224042 1.226889 0.001428 0.0
0.382880 1.657690 0.001615 0.0
2.526219 0.558295 -0.001446 0.0
0.337051 1.579784 0.001476 0.0
1.415955 1.584327 -0.003094 0.0
1.385998 1.478656 -0.002227 0.0
2.204361 0.196827 -0.000844 0.0
0.516042 0.101406 0.000633 0.0
4.145355 0.418373 0.001034 0.0
1.109244 1.763232 -0.001106 0.0
2.745634 0.646964 -0.001825 0.0
3.871742 0.032047 -0.001100 0.0
3.993860 1.940037 -0.003102 0.0
0.763241 1.924374 0.000878 0.0
1.022152 1.990982 -0.002326 0.0
0.638665 2.013337 0.001854 0.0
0.810775 0.070792 -0.000747 0.0
0.797897 1.641235 0.000346 0.0
2.190910 0.165541 -0.004725 0.0
1.877018 1.575039 0.000185 0.0
4.011286 1.524315 -0.002551 0.0
0.422743 1.185979 0.003245 0.0
3.112277 1.907718 -0.002537 0.0
0.871201 0.763594 0.001477 0.0
2.192845 1.449546 -0.000919 0.0
1.942311 1.401221 -0.000124 0.0
0.573506 1.802026 0.002460 0.0
0.424732 0.459210 0.001773 0.0
0.158754 1.030741 0.003815 0.0
3.733235 0.721979 0.002421 0.0
1.449415 0.421245 -0.004382 0.0
1.755405 1.157493 0.000528 0.0
2.968213 0.107225 -0.000568 0.0
0.599909 0.875367 -0.001997 0.0
0.879478 0.870803 -0.001207 0.0
0.434303 1.314410 -0.001564 0.0
3.429910 0.982733 -0.000814 0.0
1.587489 0.866163 -0.003434 0.0
3.989632 1.072657 -0.001959 0.0
1.909926 0.381613 -0.000009 0.0
3.628840 0.012242 0.000190 0.0
3.796959 0.112850 -0.000744 0.0
4.270683 1.270732 0.000262 0.0
0.127028 0.907304 -0.003479 0.0
1.096689 1.097588 -0.002889 0.0
3.507756 1.456458 -0.002512 0.0
3.782956 0.885312 -0.005588 0.0
4.213205 1.615850 -0.002204 0.0
2.687599 0.880561 -0.000267 0.0
3.181295 0.770718 0.003181 0.0
0.910641 0.512012 0.003226 0.0
1.170574 0.567011 -0.000122 0.0
1.933229 1.774968 0.000805 0.0
1.659460 1.801559 0.003304 0.0
3.759561 1.215955 -0.003890 0.0
2.651517 1.517472 0.002202 0.0
0.256935 2.002314 0.002020 0.0
2.487724 0.996549 -0.000232 0.0
4.045514 1.692244 0.000128 0.0
0.179953 1.181753 0.000493 0.0
2.142989 1.370221 0.001980 0.0
4.321471 0.841109 -0.002745 0.0
0.257561 0.744120 0.003084 0.0
1.623108 1.109687 -0.001455 0.0
3.528562 1.936209 -0.000001 0.0
1.088409 0.970779 -0.001992 0.0
4.146970 0.718485 0.003053 0.0
1.580120 1.015877 0.000480 0.0
4.278458 0.470131 -0.001956 0.0
3.603609 1.003255 -0.000449 0.0
2.392102 0.053228 -0.001247 0.0
0.633466 0.527076 -0.001973 0.0
0.166422 0.073781 0.002181 0.0
3.635403 0.151204 0.000336 0.0
1.956173 0.506181 -0.001947 0.0
1.742943 0.409637 0.002009 0.0
0.185449 1.421217 -0.002855 0.0
1.313633 0.487329 0.001158 0.0
3.798916 1.140375 0.001638 0.0
3.593020 0.988243 0.001380 0.0
2.669139 0.552786 0.003724 0.0
1.177362 1.518915 -0.000327 0.0
3.693459 0.549705 -0.000526 0.0
0.440611 1.828831 -0.002208 0.0
0.947980 1.288686 0.000258 0.0
1.491533 2.066986 0.003446 0.0
2.445183 0.951806 -0.003120 0.0
2.715399 0.629740 0.001136 0.0
3.897244 0.190162 -0.000492 0.0
0.246584 1.727190 -0.003667 0.0
0.998348 0.749774 -0.000815 0.0
2.819662 0.228898 -0.000862 0.0
0.522419 1.594337 0.002200 0.0
0.382364 1.752883 0.000706 0.0
3.654773 1.849318 -0.001128 0.0
1.129199 1.537654 0.001088 0.0
3.590669 0.181307 0.004174 0.0
2.444795 0.862021 0.001285 0.0
0.353664 0.473692 0.006077 0.0
3.968512 0.125777 0.000642 0.0
0.309339 1.794700 0.000182 0.0
2.250493 0.668082 -0.003449 0.0
2.906554 0.802308 0.000974 0.0
3.873935 1.912445 -0.000192 0.0
1.738278 0.808823 -0.002882 0.0
0.242293 1.294020 -0.001727 0.0
2.822455 0.664714 -0.000002 0.0
1.789933 2.046849 -0.004475 0.0
2.977630 0.051356 -0.000844 0.0
3.271248 0.145201 -0.000441 0.0
1.615055 1.051684 0.000684 0.0
0.478080 1.039254 0.001010 0.0
3.473650 0.584096 -0.002228 0.0
2.884307 0.706662 -0.000758 0.0
3.379686 0.161856 -0.000495 0.0
0.345932 0.540850 -0.002802 0.0
3.959154 1.983224 0.000177 0.0
3.771017 1.535922 0.001597 0.0
3.460113 1.932666 -0.001725 0.0
1.135490 1.998766 -0.003258 0.0
0.516148 0.834476 0.001154 0.0
1.975200 0.439501 -0.002999 0.0
1.922488 1.847799 -0.009237 0.0
4.125516 0.130346 0.002421 0.0
3.967558 0.367934 -0.002854 0.0
3.905461 1.287290 -0.005381 0.0
3.956031 1.770095 -0.001751 0.0
2.520439 0.278726 0.001095 0.0
3.943011 1.674917 -0.002533 0.0
0.500297 2.035817 -0.003218 0.0
2.060590 0.250819 -0.004986 0.0
0.711365 1.118386 0.000955 0.0
0.264407 1.629076 -0.001403 0.0
2.513626 0.388550 -0.000091 0.0
0.034655 1.213933 0.000548 0.0
1.198361 1.684050 -0.004704 0.0
0.872063 1.593443 0.002266 0.0
2.783973 1.585312 0.002491 0.0
0.773316 0.754107 0.000988 0.0
0.742742 0.210261 -0.001024 0.0
2.036804 1.147135 -0.005536 0.0
3.212840 1.503292 0.002572 0.0
0.557480 0.583416 -0.007401 0.0
4.039448 0.829430 -0.000915 0.0
4.089418 2.021941 0.000685 0.0
0.101241 1.978914 -0.002201 0.0
4.314724 1.639360 0.001226 0.0
3.564233 1.715589 -0.002427 0.0
2.092112 0.255161 -0.001260 0.0
4.113084 0.901732 -0.005044 0.0
2.149193 1.678142 -0.000167 0.0
2.120460 1.159694 0.000074 0.0
1.410509 0.499184 -0.001645 0.0
4.036989 0.073948 0.003820 0.0
0.072721 0.663898 0.002216 0.0
0.535711 1.383565 -0.005026 0.0
2.861838 1.649881 0.001071 0.0
2.341976 0.570985 0.001352 0.0
1.519099 1.014399 -0.000553 0.0
2.546358 0.140128 -0.001488 0.0
1.625704 1.551289 0.000287 0.0
4.242582 0.826772 -0.000032 0.0
2.566741 0.394469 0.001409 0.0
0.221604 1.552239 0.001910 0.0
2.033846 1.162097 0.000975 0.0
0.943089 0.182189 0.002259 0.0
3.418405 1.318008 0.003581 0.0
3.297949 0.674127 -0.003513 0.0
2.744244 0.963651 0.002454 0.0
1.612019 1.998825 -0.003671 0.0
2.818655 0.353359 0.000051 0.0
3.436021 0.915101 -0.003497 0.0
3.692835 1.713811 0.002210 0.0
1.859108 2.067973 -0.000175 0.0
3.681362 1.312615 0.000950 0.0
3.768056 1.798817 0.002036 0.0
3.659058 1.030836 0.002849 0.0
2.516874 0.880455 -0.005383 0.0
2.563675 0.108090 0.003525 0.0
0.786680 1.231014 0.002354 0.0
1.812062 0.269052 -0.004025 0.0
3.714429 1.560500 -0.002806 0.0
2.070777 0.168062 -0.004510 0.0
0.374690 0.748639 -0.000204 0.0
3.467944 1.938905 -0.000468 0.0
3.383174 1.447682 -0.000314 0.0
1.459015 1.506065 0.000014 0.0
1.503410 1.198168 -0.000680 0.0
1.300060 0.497815 -0.003394 0.0
0.419197 1.510074 -0.000126 0.0
2.174162 1.440875 -0.003713 0.0
0.578059 0.136797 -0.001245 0.0
4.329976 1.533492 -0.000273 0.0
0.203057 1.346769 0.000814 0.0
4.344779 0.336390 -0.003062 0.0
2.677320 1.383349 0.001536 0.0
2.217500 0.936089 -0.000906 0.0
0.175526 1.452439 -0.001309 0.0
3.253525 0.414679 0.000429 0.0
3.092263 1.101890 -0.000786 0.0
3.992265 1.855830 0.006088 0.0
3.211616 0.311273 -0.001168 0.0
1.575216 0.729764 -0.003805 0.0
2.823773 1.866935 0.000381 0.0
2.161268 0.928655 -0.002172 0.0
4.036888 0.174620 -0.000589 0.0
2.153886 0.669440 0.002760 0.0
3.704201 0.614703 -0.000792 0.0
2.485201 1.696028 0.001263 0.0
0.252048 1.649358 -0.000415 0.0
3.399752 0.762000 -0.002129 0.0
3.809652 1.919263 0.002912 0.0
3.830880 1.707277 0.001814 0.0
2.092988 0.366036 -0.000535 0.0
2.757772 0.415427 0.000168 0.0
1.007728 0.002282 0.000944 0.0
0.231064 0.511903 -0.003070 0.0
1.555110 0.247363 -0.002254 0.0
2.966101 0.692231 0.000738 0.0
0.187437 1.562383 -0.002603 0.0
2.155336 0.730624 -0.002903 0.0
3.038769 1.324151 -0.001441 0.0
2.405269 1.134951 0.002942 0.0
1.056125 0.226735 -0.004547 0.0
0.296354 1.504356 0.000859 0.0
1.902927 0.424463 0.005252 0.0
3.392921 2.074892 0.001362 0.0
0.490419 1.652824 0.004836 0.0
2.555532 0.150500 0.000704 0.0
3.396276 0.468624 0.003445 0.0
3.751286 2.027726 0.003358 0.0
0.681846 0.291559 -0.000719 0.0
3.631944 1.408356 -0.001233 0.0
3.292892 0.803023 -0.002590 0.0
1.821024 0.787403 -0.000027 0.0
3.132351 2.109765 -0.000430 0.0
1.097718 0.181598 -0.001205 0.0
0.992756 0.116558 0.001468 0.0
1.680311 1.613246 -0.003434 0.0
1.171324 1.187974 -0.000061 0.0
1.149513 2.037796 -0.002695 0.0
3.293056 0.441458 0.000252 0.0
3.372040 0.484124 0.004313 0.0
2.015697 2.058760 -0.002037 0.0
0.112409 0.072088 0.000959 0.0
3.133296 0.176896 -0.000228 0.0
3.548304 0.353084 0.005493 0.0
0.780165 0.226098 0.001526 0.0
1.807172 0.422821 0.001113 0.0
0.459371 0.169232 0.003452 0.0
1.527595 0.599504 0.002087 0.0
3.419087 1.338666 0.002959 0.0
3.464102 0.226255 0.002184 0.0
3.167299 1.643015 -0.003227 0.0
3.322494 1.607870 0.003545 0.0
1.587563 0.301603 0.005618 0.0
3.371973 0.222824 -0.001503 0.0
0.879683 0.944402 0.002672 0.0
1.345198 0.358761 0.001814 0.0
4.346878 1.005497 -0.002698 0.0
1.198526 1.078294 -0.000229 0.0
1.761916 1.224441 0.002251 0.0
3.023787 0.566712 0.003300 0.0
0.640097 1.562446 0.003554 0.0
1.527519 2.079879 0.001162 0.0
0.784397 1.714409 -0.003009 0.0
1.582733 1.284664 -0.000246 0.0
0.298783 1.274205 -0.001288 0.0
0.310150 1.029798 -0.000591 0.0
0.278296 1.483637 0.001742 0.0
1.749304 0.895668 0.000541 0.0
1.179537 0.084082 0.002041 0.0
0.993304 1.129422 0.001658 0.0
4.228775 1.303063 -0.001054 0.0
3.925484 1.220781 -0.002212 0.0
1.665565 1.669141 -0.000924 0.0
4.305939 1.571908 -0.004614 0.0
0.450334 1.020695 -0.001628 0.0
2.494311 1.359145 -0.000151 0.0
2.777325 0.524455 -0.000937 0.0
2.685262 1.670920 -0.004656 0.0
1.410282 0.043282 0.000550 0.0
1.910442 1.846201 0.000114 0.0
4.226276 0.747240 -0.001963 0.0
0.367076 1.963743 0.001464 0.0
0.348652 1.604930 -0.001499 0.0
3.745456 1.502041 -0.001517 0.0
1.558674 0.416357 0.003435 0.0
4.129790 0.179833 -0.003481 0.0
1.742302 0.090349 0.000815 0.0
0.139283 1.003617 0.000854 0.0
0.076480 0.446617 -0.000689 0.0
1.616649 1.898440 0.001573 0.0
1.079463 1.128996 0.002606 0.0
0.354085 0.535106 0.003639 0.0
1.627895 1.909392 0.001034 0.0
2.404581 0.866720 -0.000410 0.0
3.635956 1.400819 -0.002551 0.0
2.361560 0.679846 0.002408 0.0
0.933728 1.469743 -0.003140 0.0
1.651275 2.000256 -0.000066 0.0
1.000345 1.455054 -0.000911 0.0
1.548222 0.631374 -0.000349 0.0
3.535373 0.233336 -0.000608 0.0
1.529744 1.921208 -0.002504 0.0
0.916119 1.848340 0.001195 0.0
3.029494 1.778601 -0.003893 0.0
3.774526 1.902242 -0.001774 0.0
3.526312 1.540117 -0.001364 0.0
0.648666 0.595254 0.000478 0.0
3.062998 0.902734 0.002558 0.0
4.126934 0.079115 0.004921 0.0
1.768350 0.577878 -0.000195 0.0
1.603674 1.704824 -0.000683 0.0
2.011315 1.194504 0.003732 0.0
0.975403 1.982861 -0.001398 0.0
0.374704 0.865767 0.000830 0.0
4.140861 1.189995 0.001390 0.0
3.862831 0.737014 0.001481 0.0
0.512338 1.531894 0.004152 0.0
3.052085 1.860856 -0.000007 0.0
1.546691 1.358458 -0.000030 0.0
3.552146 1.124982 0.000949 0.0
0.515517 1.426724 -0.000601 0.0
2.705042 1.190585 0.001566 0.0
1.112726 1.943558 -0.001249 0.0
3.383164 1.119692 -0.001792 0.0
4.279129 1.326731 -0.000952 0.0
0.811075 0.770253 -0.002928 0.0
3.284103 1.661635 0.003795 0.0
3.580380 1.623967 0.000770 0.0
3.579362 1.771726 0.003059 0.0
0.955637 1.133992 0.003905 0.0
2.548159 1.407006 0.000719 0.0
0.179283 1.271059 -0.000680 0.0
2.628983 1.095131 0.002187 0.0
1.317579 0.508474 -0.003988 0.0
3.050042 0.589709 0.002147 0.0
1.240154 1.115684 0.002062 0.0
0.066412 0.357746 0.002182 0.0
0.226309 0.623488 -0.002410 0.0
4.336880 0.192776 -0.004889 0.0
0.697236 1.421738 -0.001153 0.0
0.934667 0.976998 -0.001943 0.0
0.614282 1.803855 -0.000878 0.0
1.729962 1.494625 0.001988 0.0
1.345923 0.899013 0.000902 0.0
2.282446 2.106351 0.005838 0.0
1.789388 1.493463 -0.001872 0.0
3.670269 1.576046 -0.001503 0.0
3.351035 1.144415 0.001923 0.0
0.968447 0.127609 -0.005807 0.0
3.974513 0.540360 -0.002612 0.0
0.721435 2.030952 0.000574 0.0
3.836283 1.529028 0.001897 0.0
1.114046 0.823515 -0.002039 0.0
4.163351 0.761243 -0.002022 0.0
3.242719 0.154919 0.002233 0.0
1.766583 1.139081 0.001180 0.0
1.696399 0.839223 0.001679 0.0
0.429071 0.679141 0.001025 0.0
3.581201 1.784593 -0.002532 0.0
1.129310 0.289580 0.002128 0.0
2.838778 1.446297 -0.000151 0.0
3.792491 1.450592 0.002087 0.0
4.334397 0.499007 0.001823 0.0
0.576481 0.936250 -0.000453 0.0
1.591443 1.413725 0.002241 0.0
3.516124 1.452520 0.003787 0.0
1.988566 1.801598 -0.001716 0.0
2.559818 1.002400 0.003167 0.0
1.075616 0.310632 0.001338 0.0
1.306625 0.520276 0.001300 0.0
4.208490 1.619701 -0.001663 0.0
4.112526 1.748835 -0.000317 0.0
2.350666 1.153645 -0.002536 0.0
3.387423 0.232079 0.000696 0.0
3.161090 0.009600 -0.003379 0.0
1.929431 0.925874 -0.002695 0.0
0.624075 0.478962 -0.002768 0.0
3.710715 1.577847 -0.002452 0.0
3.815778 0.340692 0.001006 0.0
0.015013 1.632208 0.003527 0.0
2.760712 1.521205 -0.000995 0.0
1.963706 1.637064 0.004844 0.0
2.202931 0.026643 -0.001456 0.0
0.999338 0.314403 0.002965 0.0
3.757532 2.047845 -0.000126 0.0
2.145172 0.785430 0.001394 0.0
2.782116 1.760585 0.002276 0.0
1.791265 0.692317 -0.000570 0.0
4.198773 1.898970 0.001320 0.0
3.776749 1.801059 0.002216 0.0
2.028692 1.931976 -0.002937 0.0
2.750730 1.635525 -0.000135 0.0
0.325488 0.439872 0.000080 0.0
0.148353 0.375124 -0.001525 0.0
1.850328 1.669432 -0.000366 0.0
0.539064 0.598708 -0.000819 0.0
1.269832 1.891583 -0.000059 0.0
2.516653 2.058699 0.000818 0.0
4.073830 1.685613 0.002825 0.0
1.941100 0.462117 0.004979 0.0
3.886719 1.848336 0.000046 0.0
2.082845 1.345867 0.000936 0.0
0.076239 1.322805 0.002561 0.0
4.184421 1.165009 0.003758 0.0
1.729505 0.217667 -0.001791 0.0
3.283810 1.281030 -0.004187 0.0
2.782542 1.344205 -0.003618 0.0
1.803733 1.836662 0.002537 0.0
1.554429 1.775126 -0.000998 0.0
1.615405 1.979114 -0.000549 0.0
3.668142 1.238934 0.000611 0.0
3.843695 0.184926 -0.000203 0.0
0.364268 0.527197 -0.002998 0.0
3.201745 0.938062 0.002053 0.0
3.300978 1.485216 0.000175 0.0
1.009690 2.054151 0.001507 0.0
0.294620 0.289177 -0.001059 0.0
1.455548 0.636013 0.001496 0.0
0.496935 1.775830 -0.001120 0.0
2.185464 0.215370 -0.000954 0.0
4.342801 0.214475 -0.002383 0.0
0.085074 1.939384 -0.001118 0.0
1.467192 0.634924 0.001817 0.0
1.910856 2.028722 -0.001174 0.0
0.889067 0.941519 0.002117 0.0
1.301019 0.594207 -0.000690 0.0
0.537012 1.036369 0.002130 0.0
4.001596 0.118867 -0.004329 0.0
1.911420 1.460144 0.004708 0.0
3.979872 0.923961 -0.001245 0.0
1.027671 0.277701 0.000767 0.0
2.421668 0.196052 0.001668 0.0
1.269746 0.702381 0.003224 0.0
3.621970 1.051592 -0.000468 0.0
1.649955 1.378067 0.000049 0.0
0.989057 1.984110 0.002408 0.0
0.855405 1.555306 -0.001668 0.0
0.951236 0.396295 -0.000004 0.0
0.611132 1.340545 -0.001596 0.0
3.985839 0.075219 -0.004198 0.0
4.316594 1.563534 0.002778 0.0
0.022616 2.075320 -0.000336 0.0
1.007582 0.264395 0.000653 0.0
0.896987 1.623192 -0.003821 0.0
4.247736 0.984918 -0.001602 0.0
3.361005 2.015872 -0.001600 0.0
2.893025 1.348531 -0.000013 0.0
2.842978 2.099938 -0.003734 0.0
3.523586 0.765086 -0.001426 0.0
2.646026 0.060336 -0.002262 0.0
0.378139 0.765474 -0.000598 0.0
2.801324 0.629721 0.006168 0.0
2.117892 0.488203 0.000910 0.0
4.215711 1.872249 -0.001354 0.0
2.777544 0.488657 -0.001557 0.0
3.643244 1.129360 -0.004654 0.0
2.124299 0.358119 -0.002671 0.0
3.127821 0.894349 0.000147 0.0
3.882289 0.412890 0.002404 0.0
0.645469 1.606273 0.001545 0.0
1.686335 1.722320 0.005744 0.0
4.038444 0.696930 -0.000712 0.0
0.425879 1.765083 -0.001051 0.0
2.296685 1.138148 -0.002368 0.0
1.995133 2.109045 0.002298 0.0
2.637325 0.103561 0.000787 0.0
3.114366 1.489869 0.000866 0.0
1.871515 0.897359 -0.001286 0.0
4.048648 0.812923 0.004084 0.0
3.425060 1.535840 0.002570 0.0
3.054434 1.434008 0.003009 0.0
3.490026 0.020936 -0.001656 0.0
0.519384 1.956136 0.000140 0.0
0.286709 0.568034 -0.000934 0.0
0.322968 0.343798 0.005240 0.0
2.504661 1.084396 0.000517 0.0
4.214281 0.738654 0.004098 0.0
2.974636 0.094199 -0.003966 0.0
2.480958 0.430601 -0.002104 0.0
0.180710 2.078645 -0.001823 0.0
0.470899 1.446174 0.002388 0.0
2.441285 1.012546 0.002148 0.0
2.426798 0.834122 -0.000752 0.0
1.189180 0.128285 0.001472 0.0
1.753097 1.798777 -0.001617 0.0
0.941591 1.594462 0.004237 0.0
3.830360 1.688159 0.001931 0.0
1.277095 0.552481 0.002683 0.0
3.247068 1.007481 -0.005234 0.0
2.791345 1.920284 -0.000922 0.0
0.612856 1.006904 0.001219 0.0
1.475142 1.282630 -0.001472 0.0
1.545705 1.136329 0.000178 0.0
4.224510 0.129361 0.000555 0.0
2.542203 0.993560 0.000891 0.0
3.478629 0.458021 -0.001247 0.0
1.228530 0.150998 0.000519 0.0
4.351420 0.444968 -0.001229 0.0
4.307875 1.435140 0.001488 0.0
1.973617 0.297489 0.002079 0.0
1.559158 0.921713 0.000132 0.0
1.931285 2.071788 -0.005641 0.0
4.127231 0.507050 0.000492 0.0
2.245744 2.073080 0.000080 0.0
1.514785 1.106083 -0.000544 0.0
0.043694 0.952742 0.004481 0.0
0.575003 1.271338 -0.001949 0.0
3.279576 1.697925 -0.001283 0.0
1.940495 0.593058 0.002350 0.0
0.549551 1.973196 -0.001393 0.0
2.807637 0.600231 -0.002583 0.0
1.455112 1.398351 -0.001851 0.0
0.127591 0.321558 -0.001520 0.0
1.460764 0.025924 0.003815 0.0
3.447825 0.585271 -0.003398 0.0
2.019780 1.177004 0.000694 0.0
4.260090 0.161430 -0.002203 0.0
4.323091 1.358890 -0.001414 0.0
1.347566 0.645583 -0.002528 0.0
1.254813 0.518280 0.000053 0.0
0.457269 1.335565 -0.002062 0.0
3.224876 1.040392 0.002028 0.0
2.462808 1.322870 -0.005732 0.0
1.807682 2.020181 -0.000859 0.0
0.242645 1.692421 0.002182 0.0
3.686270 0.931500 0.001798 0.0
1.014494 0.133912 0.000732 0.0
2.677351 0.816363 -0.001827 0.0
2.788516 0.023033 0.003455 0.0
1.506872 1.550237 -0.003809 0.0
2.873336 1.595326 -0.001157 0.0
1.980123 0.485927 -0.002532 0.0
2.016193 0.227482 -0.001970 0.0
1.429588 0.565314 -0.000717 0.0
4.016131 1.762607 -0.002074 0.0
4.133075 0.673598 -0.003436 0.0
0.031078 0.696155 0.003255 0.0
2.898461 1.900000 -0.001930 0.0
4.234647 0.381990 0.008741 0.0
1.687264 1.853891 0.000023 0.0
3.891242 1.102192 0.001117 0.0
2.016751 1.225521 -0.000778 0.0
1.454053 0.277725 0.000914 0.0
0.391770 0.832470 0.001933 0.0
2.643636 1.288879 0.000524 0.0
2.979181 0.484797 -0.000643 0.0
3.653152 0.754295 0.002137 0.0
3.596622 0.315843 -0.002079 0.0
3.748862 0.727213 0.000187 0.0
4.274529 0.225960 0.003670 0.0
3.160859 1.398024 -0.000863 0.0
2.793229 0.146369 0.003933 0.0
3.227925 0.330161 0.002322 0.0
3.449360 0.818847 0.001300 0.0
3.973672 0.637368 -0.002346 0.0
3.706576 0.954372 0.000347 0.0
2.690210 0.865889 0.003639 0.0
1.810490 0.240476 0.000792 0.0
2.706784 0.831159 0.001718 0.0
1.064449 2.030478 0.003785 0.0
0.770222 0.117390 0.000229 0.0
2.877824 0.260838 -0.000986 0.0
1.548964 0.564107 0.000412 0.0
0.780498 0.776406 -0.002081 0.0
2.602689 2.098866 0.002117 0.0
2.448607 1.446848 -0.002629 0.0
4.060257 1.409422 0.001047 0.0
1.120877 0.877135 -0.000733 0.0
1.349270 1.686378 -0.005775 0.0
3.523670 0.437025 0.002892 0.0
0.016713 1.279457 -0.000304 0.0
0.447730 0.360678 0.002562 0.0
0.259532 0.077795 0.001589 0.0
0.722265 0.632242 -0.000605 0.0
1.893787 1.221685 0.001896 0.0
3.165904 0.161331 0.002526 0.0
3.158102 1.669359 0.000969 0.0
3.551846 0.628403 -0.001675 0.0
2.997415 1.914506 -0.000672 0.0
1.668971 0.440423 0.000996 0.0
4.053578 2.095228 0.000962 0.0
3.387982 1.670623 0.000555 0.0
1.152895 0.448651 -0.000252 0.0
2.457679 0.531628 -0.002254 0.0
0.192896 0.249562 0.000505 0.0
1.822767 0.361151 0.004117 0.0
2.850491 1.919783 0.000982 0.0
1.095150 0.493457 -0.001963 0.0
1.375465 0.514630 -0.002149 0.0
1.586426 0.879589 0.002526 0.0
1.478216 2.104364 0.000230 0.0
0.721389 0.452834 -0.001280 0.0
4.301806 0.042473 0.000983 0.0
2.959883 1.333525 -0.000353 0.0
0.758986 0.243428 -0.003425 0.0
3.913446 1.561608 0.000394 0.0
3.106999 0.646148 0.005184 0.0
2.406769 0.852602 0.002031 0.0
3.449233 1.474475 -0.001880 0.0
3.564641 0.130774 -0.003562 0.0
2.332016 1.515501 0.000056 0.0
1.849246 0.415977 0.002858 0.0
3.867033 1.431634 0.000457 0.0
1.285466 2.079627 -0.001060 0.0
3.630320 1.290305 0.001486 0.0
1.128552 1.707212 0.000200 0.0
2.509721 1.271929 0.001755 0.0
0.407951 1.779600 0.001472 0.0
3.510690 0.577073 0.002254 0.0
1.244307 0.933665 -0.001356 0.0
0.841514 0.238786 0.000392 0.0
0.188770 1.646569 -0.001290 0.0
2.851877 2.027239 -0.000948 0.0
1.508069 1.154265 0.001762 0.0
1.457576 0.819596 0.001803 0.0
2.242125 0.673506 -0.002565 0.0
4.011232 1.696294 -0.002638 0.0
3.943825 0.917527 0.004113 0.0
1.290181 0.880008 -0.002012 0.0
0.659293 1.282583 0.001360 0.0
3.609472 0.886953 -0.002598 0.0
0.524077 1.776932 -0.001646 0.0
3.512254 2.047435 0.000966 0.0
0.020006 1.504607 -0.001676 0.0
1.801116 0.406056 -0.004201 0.0
1.067854 1.738793 -0.003214 0.0
1.982088 1.834226 0.003553 0.0
1.466634 1.066794 0.000149 0.0
2.738989 1.365827 0.001277 0.0
3.297343 0.337002 0.000623 0.0
2.021448 1.586393 0.002310 0.0
1.111272 1.346808 0.001606 0.0
1.502021 0.680135 0.006323 0.0
1.821519 0.159213 0.000905 0.0
3.415897 1.260523 0.001658 0.0
3.144332 1.587868 -0.003057 0.0
0.033980 0.177585 0.001185 0.0
2.631566 0.221636 0.000070 0.0
2.197169 0.960747 0.000810 0.0
1.061429 0.390892 0.003118 0.0
2.139266 1.312900 0.000715 0.0
4.145428 1.470115 -0.004249 0.0
1.177960 1.166291 -0.003490 0.0
3.304153 0.368230 0.003586 0.0
2.414229 1.120473 -0.004393 0.0
2.407984 2.102858 0.000269 0.0
3.498839 1.152508 -0.001563 0.0
3.269408 1.483212 -0.000554 0.0
2.909988 0.870703 -0.000156 0.0
0.964582 0.160890 -0.003453 0.0
0.413183 0.103838 -0.001246 0.0
1.997575 1.982396 0.005169 0.0
0.433528 0.569757 -0.001301 0.0
1.127133 1.662374 -0.001100 0.0
0.367004 0.118197 0.002643 0.0
0.396894 0.785186 0.003368 0.0
3.079271 0.986611 0.000376 0.0
3.024194 1.183381 -0.003546 0.0
4.309725 0.472953 0.001117 0.0
1.187413 1.167160 -0.006724 0.0
1.815670 0.930417 -0.003889 0.0
3.258967 1.317726 0.003364 0.0
3.527488 1.597083 -0.002603 0.0
3.394977 1.901748 0.001759 0.0
2.243357 0.867929 0.000063 0.0
3.632772 0.386991 0.007609 0.0
0.635457 1.236623 0.002742 0.0
0.279021 0.305668 -0.000972 0.0
2.063466 0.665197 -0.000538 0.0
2.920949 2.025065 0.002153 0.0
3.037425 1.723746 -0.001593 0.0
2.359644 1.074126 -0.002497 0.0
2.572022 1.623325 0.002172 0.0
1.877609 1.292666 0.004176 0.0
1.729494 0.636580 -0.002039 0.0
3.944474 1.285379 -0.000453 0.0
4.137921 1.605109 -0.004066 0.0
0.500801 2.068404 0.000172 0.0
0.014812 1.493159 -0.005233 0.0
2.422852 1.978945 -0.003191 0.0
2.107697 0.915153 0.003301 0.0
1.834537 1.068711 0.003298 0.0
3.728134 0.192624 -0.004109 0.0
0.825544 1.361921 -0.001663 0.0
1.309672 0.136069 0.005756 0.0
2.173985 0.187077 -0.000933 0.0
3.660108 2.005948 0.001442 0.0
2.842081 1.034726 0.001467 0.0
3.520488 0.997355 0.000937 0.0
3.599226 1.697113 0.005653 0.0
0.095857 0.666432 -0.001900 0.0
1.027883 0.929236 -0.000064 0.0
0.177452 1.467662 -0.002802 0.0
0.268859 0.169290 0.000599 0.0
1.884703 0.315503 0.000352 0.0
4.117167 1.077376 0.000992 0.0
2.792963 0.112683 -0.001805 0.0
