0.494539 1.332137 0.001897 0.0
4.133978 2.217527 0.001679 0.0
0.852387 1.625031 0.002511 0.0
2.273660 2.120300 -0.000449 0.0
4.533366 0.729117 0.003218 0.0
4.455494 1.337975 0.002145 0.0
0.898804 1.469249 -0.000909 0.0
4.514552 1.235555 -0.000484 0.0
3.364423 0.442938 0.001555 0.0
3.949928 2.353932 -0.001546 0.0
3.196284 0.553099 -0.003171 0.0
0.713388 1.761939 -0.000575 0.0
3.747467 0.613699 -0.004205 0.0
3.159515 0.510264 -0.000177 0.0
1.582911 2.102822 0.004716 0.0
0.903830 1.008458 -0.002528 0.0
4.009146 1.518519 -0.000880 0.0
0.302820 0.519526 -0.000677 0.0
0.271644 1.389121 -0.003361 0.0
4.336624 0.417777 0.000582 0.0
2.322041 1.449098 -0.001308 0.0
0.071955 0.174525 -0.003424 0.0
0.777230 0.173830 0.000339 0.0
4.234482 1.826327 0.002453 0.0
2.523782 0.401041 -0.000258 0.0
3.128625 1.550672 -0.004222 0.0
4.156979 0.469310 0.001369 0.0
1.516988 0.154461 -0.000555 0.0
1.746682 0.354723 -0.002290 0.0
3.303994 1.599221 -0.003337 0.0
2.583500 1.579155 -0.002519 0.0
4.543071 1.638927 0.001687 0.0
2.172785 0.222966 0.001199 0.0
2.887487 0.128107 0.001331 0.0
1.167195 0.194313 0.002755 0.0
0.657555 0.335463 0.001072 0.0
0.654249 0.201479 0.001422 0.0
2.096716 1.304560 -0.004899 0.0
0.860679 0.488622 0.003736 0.0
0.822360 0.816612 0.001285 0.0
0.672376 0.163344 0.000385 0.0
1.557545 0.418500 -0.000753 0.0
1.325669 1.772084 0.000008 0.0
2.184295 0.732915 0.000246 0.0
1.130829 0.936288 0.000084 0.0
2.732588 0.256030 -0.004097 0.0
4.180954 0.104446 0.000692 0.0
3.260399 1.120767 0.006098 0.0
1.759365 1.694597 -0.001519 0.0
2.067315 2.416491 0.000111 0.0
2.287565 2.122784 -0.004290 0.0
4.007757 1.074574 0.000575 0.0
1.485833 1.319892 0.005739 0.0
3.754304 2.393465 0.000956 0.0
2.881343 1.252146 -0.003081 0.0
2.376705 1.321729 -0.002135 0.0
3.877941 2.382261 -0.003257 0.0
1.614778 0.478235 -0.001051 0.0
0.900496 0.265942 -0.000227 0.0
0.711828 1.465823 -0.000214 0.0
3.696551 0.397085 -0.000132 0.0
0.752399 1.565925 -0.004086 0.0
1.145570 2.018959 0.001087 0.0
1.847529 0.532205 -0.000566 0.0
0.289809 0.193044 -0.003514 0.0
2.138210 2.208526 0.002446 0.0
2.778160 2.426498 -0.003072 0.0
2.813056 2.076645 0.004212 0.0
0.788496 1.785813 0.001090 0.0
2.848016 2.229495 0.001877 0.0
2.382205 0.183918 0.002997 0.0
4.011227 0.972850 0.003808 0.0
1.478388 0.835770 -0.003340 0.0
3.028267 1.164140 -0.000963 0.0
0.842766 0.333195 -0.001703 0.0
0.603372 1.665683 0.003915 0.0
0.810212 1.985487 0.000149 0.0
1.085543 1.207409 0.005637 0.0
1.366164 0.545200 -0.004641 0.0
3.364631 1.758244 -0.001027 0.0
0.114206 2.235583 -0.000768 0.0
1.927625 0.232333 -0.000036 0.0
0.255920 0.891189 0.001182 0.0
3.052016 0.377531 -0.003326 0.0
0.916354 1.375065 -0.003283 0.0
3.040025 1.107659 -0.001998 0.0
4.035598 2.426118 -0.004040 0.0
0.154769 1.349413 0.001801 0.0
2.748205 1.873627 -0.004740 0.0
3.216307 2.204251 0.000758 0.0
2.225405 0.494940 0.001965 0.0
3.845817 1.171390 0.001423 0.0
3.916349 1.506096 0.004099 0.0
2.437298 2.432536 -0.001789 0.0
0.425742 2.036221 -0.001846 0.0
1.352838 0.195823 0.002523 0.0
3.614768 1.979307 -0.001104 0.0
1.028785 0.184734 -0.001925 0.0
0.263452 2.398948 0.000203 0.0
3.952693 0.754709 -0.003446 0.0
3.041258 1.250699 -0.002154 0.0
4.357533 0.497076 -0.000284 0.0
3.104375 0.712222 -0.002432 0.0
2.425206 1.024978 0.000712 0.0
0.144618 1.712184 -0.002365 0.0
4.403650 1.969706 -0.000832 0.0
1.247348 1.892227 0.001043 0.0
1.892272 1.753311 0.000631 0.0
0.725546 2.042594 -0.002936 0.0
2.282732 2.233439 -0.002282 0.0
0.624773 0.559411 -0.008355 0.0
3.796371 0.629719 0.002835 0.0
2.321014 1.002436 0.001352 0.0
3.216214 0.700343 0.000887 0.0
3.109329 0.414835 -0.005466 0.0
1.225119 1.290962 -0.001713 0.0
3.020039 1.998033 -0.002723 0.0
1.214997 2.018026 -0.000350 0.0
4.246690 0.253898 -0.001859 0.0
2.874180 0.220221 -0.002772 0.0
4.247928 2.021671 -0.001958 0.0
1.065173 0.004176 0.003789 0.0
4.132021 0.822053 0.002393 0.0
3.707125 0.902534 -0.001048 0.0
4.013679 1.194824 0.001728 0.0
1.476446 1.039341 -0.000861 0.0
0.486220 1.905799 0.003896 0.0
0.054739 0.063337 0.001487 0.0
0.462251 1.786517 -0.000665 0.0
3.492282 2.104458 -0.001384 0.0
2.273535 1.034353 -0.001398 0.0
0.852981 1.976164 -0.001290 0.0
2.243472 1.463106 -0.003304 0.0
3.649364 1.426450 -0.001172 0.0
2.409194 0.672980 0.002843 0.0
1.662129 0.194645 -0.005056 0.0
2.653737 0.105132 -0.000679 0.0
2.313429 0.168207 0.002418 0.0
1.323440 0.068944 -0.003854 0.0
1.602226 2.175209 -0.000294 0.0
0.906081 2.050120 0.001345 0.0
3.248189 1.050792 -0.002097 0.0
2.601349 0.377547 0.000709 0.0
2.844288 0.788202 0.001205 0.0
0.163934 0.088354 0.000304 0.0
4.156901 1.063641 -0.003999 0.0
1.839208 1.000214 -0.000732 0.0
1.183252 2.142863 -0.000931 0.0
2.381323 2.046864 0.002021 0.0
1.616420 2.330030 0.004186 0.0
3.018671 0.915871 0.005804 0.0
3.504637 1.373692 -0.000687 0.0
1.654940 0.263091 0.003949 0.0
1.973681 2.209993 -0.001820 0.0
0.004090 0.369833 -0.001110 0.0
1.336637 2.004690 -0.001864 0.0
4.567961 1.729229 -0.002198 0.0
0.485596 1.669146 -0.000032 0.0
0.711371 0.614518 -0.001126 0.0
2.119984 0.072559 0.000094 0.0
2.444728 0.231909 -0.000302 0.0
2.312402 1.502222 0.003129 0.0
3.824951 2.140156 -0.003159 0.0
3.990284 1.231079 -0.002670 0.0
1.650204 0.727782 0.003997 0.0
4.399909 0.510118 0.003039 0.0
3.836021 0.668142 0.003286 0.0
2.285662 1.216058 -0.001995 0.0
3.507968 0.979478 0.007354 0.0
1.704612 1.354847 0.002692 0.0
3.133297 1.941869 0.001724 0.0
0.468605 1.037304 0.000928 0.0
1.488757 1.326499 0.000528 0.0
3.866147 2.190298 -0.002009 0.0
1.546705 1.751674 -0.000034 0.0
1.930559 1.638161 0.000889 0.0
2.926583 1.578963 0.001645 0.0
3.083155 2.373552 -0.003113 0.0
0.050509 0.168390 -0.003619 0.0
3.177096 0.457458 -0.000780 0.0
0.265890 2.099246 -0.002660 0.0
3.390718 0.224127 0.002495 0.0
0.681336 0.707625 -0.000237 0.0
0.812898 0.605411 -0.002182 0.0
4.158797 2.008566 -0.005337 0.0
0.151392 0.441610 -0.000381 0.0
2.948246 1.182777 0.001062 0.0
0.894231 0.335536 0.001748 0.0
3.949649 2.190745 -0.002608 0.0
0.715441 0.373051 -0.002220 0.0
3.188096 1.285071 0.001414 0.0
2.301740 1.589946 -0.001966 0.0
4.392635 1.902516 -0.000298 0.0
2.575018 0.637159 0.001957 0.0
2.188651 1.952142 0.000674 0.0
2.699927 1.470903 -0.000378 0.0
3.820361 1.429432 0.001525 0.0
0.315505 2.388009 0.001457 0.0
3.409237 2.068743 0.001358 0.0
0.717066 0.818227 0.000736 0.0
4.029990 0.977194 0.000757 0.0
0.754401 1.085974 0.001121 0.0
3.517688 0.412405 0.001132 0.0
1.761864 1.374865 0.002495 0.0
1.705681 2.033047 -0.001817 0.0
0.528509 2.386095 -0.002341 0.0
1.342911 1.007060 0.001640 0.0
1.772866 0.045648 -0.003809 0.0
0.911856 0.161836 0.001089 0.0
3.949370 0.800346 -0.001866 0.0
0.305253 1.465901 0.001446 0.0
0.045904 0.632322 0.002767 0.0
0.192261 1.046575 0.000748 0.0
1.709273 2.099073 0.001701 0.0
0.829090 1.686023 -0.007833 0.0
0.032830 1.419812 0.003295 0.0
1.731313 1.019993 -0.000644 0.0
1.064067 1.501334 -0.001738 0.0
2.460601 1.421460 0.000829 0.0
0.781993 2.364704 -0.001779 0.0
3.326535 2.240423 -0.003623 0.0
1.897506 0.444143 -0.000099 0.0
0.228722 0.405063 -0.000025 0.0
1.009532 0.841912 -0.002095 0.0
3.990214 0.552967 0.001776 0.0
2.667397 2.066424 0.000900 0.0
1.010849 0.687387 -0.001924 0.0
0.775689 1.935205 0.003566 0.0
0.765399 1.508940 -0.001319 0.0
1.820231 0.754001 -0.000050 0.0
0.174017 2.328217 0.001934 0.0
2.822961 2.407596 0.002680 0.0
3.879401 1.359245 0.000367 0.0
1.010351 0.179301 0.002524 0.0
1.542553 1.517889 -0.001851 0.0
2.129387 2.148218 0.002793 0.0
3.995866 0.295081 -0.001339 0.0
0.345007 0.777713 -0.001399 0.0
0.231366 0.966372 0.000730 0.0
3.383466 2.029442 0.000314 0.0
1.550665 1.198740 -0.004586 0.0
2.293971 0.919744 0.000958 0.0
3.750649 1.296490 0.001248 0.0
1.550902 0.493200 -0.000131 0.0
0.744111 0.388499 0.000783 0.0
0.256683 1.896086 -0.001045 0.0
0.872190 0.024073 -0.003420 0.0
3.471783 2.317090 -0.001691 0.0
2.359741 0.010941 0.002256 0.0
1.503644 0.213105 0.003690 0.0
0.766061 1.145989 0.000977 0.0
1.768375 0.366707 -0.000661 0.0
1.914427 1.787436 0.004236 0.0
4.570430 2.381478 -0.000115 0.0
0.561923 1.131801 -0.000502 0.0
1.767688 2.112007 -0.000448 0.0
2.730453 1.436675 -0.002465 0.0
4.289131 0.720202 -0.002626 0.0
1.686615 0.777801 0.001448 0.0
3.754586 1.491034 0.000659 0.0
2.802888 1.926484 -0.001010 0.0
0.150371 0.034373 0.002071 0.0
0.024398 0.673041 -0.005197 0.0
3.917134 0.281807 -0.000332 0.0
3.453818 1.588796 0.002403 0.0
1.467734 0.942141 -0.001584 0.0
4.505533 0.653960 -0.000212 0.0
3.192614 1.624785 0.001128 0.0
1.566944 0.834303 -0.003819 0.0
4.233617 2.288053 -0.000499 0.0
3.507432 0.950536 -0.002594 0.0
3.552309 1.230209 0.000797 0.0
1.771677 0.313139 -0.003158 0.0
3.235984 1.695741 -0.000154 0.0
2.028930 1.285489 0.007710 0.0
1.161557 0.684478 0.001325 0.0
2.617935 0.210959 -0.003218 0.0
4.008657 2.140073 -0.001512 0.0
2.622552 0.298266 -0.005389 0.0
1.510695 0.830217 0.000342 0.0
0.349240 0.769382 0.002367 0.0
1.285326 2.069285 -0.003886 0.0
1.472396 1.893601 0.000798 0.0
4.185875 0.657641 -0.002671 0.0
4.513885 0.587477 -0.002534 0.0
0.159746 0.463867 0.000425 0.0
0.508313 0.216110 0.003707 0.0
0.471849 0.261992 -0.003036 0.0
0.889006 1.236722 -0.002052 0.0
2.666237 1.618172 0.007575 0.0
0.314124 0.706061 0.002498 0.0
0.578828 0.799312 0.002173 0.0
0.897050 2.270199 0.000335 0.0
2.214149 1.523220 -0.002811 0.0
2.901426 0.635560 -0.001268 0.0
0.622862 0.047764 -0.002898 0.0
0.015107 2.037318 0.000622 0.0
4.450579 0.470451 -0.002388 0.0
1.798598 1.769630 -0.000148 0.0
3.899013 1.196389 0.000535 0.0
1.366838 1.804637 -0.000487 0.0
2.484765 1.549185 -0.000290 0.0
1.644514 1.726351 -0.000599 0.0
3.073292 1.547159 0.001413 0.0
3.790929 1.171786 -0.000123 0.0
3.357933 0.378924 -0.000722 0.0
0.011590 0.158556 0.000700 0.0
2.945430 2.418115 -0.002357 0.0
1.454973 2.168702 0.002368 0.0
2.413690 0.487324 -0.001976 0.0
4.182008 2.196976 -0.000175 0.0
3.038644 0.736632 -0.001862 0.0
1.898005 0.606450 -0.000969 0.0
0.971383 2.296540 0.001528 0.0
4.306923 0.111697 0.000273 0.0
2.321067 1.038101 -0.000453 0.0
1.670872 2.057589 0.001203 0.0
1.091609 0.092120 -0.002758 0.0
1.373373 0.449891 0.000533 0.0
2.323290 1.285810 -0.003275 0.0
3.204239 0.613451 0.003470 0.0
2.383245 0.111728 0.004193 0.0
2.422850 0.142197 -0.001670 0.0
0.303233 1.929368 -0.000511 0.0
4.489830 2.086822 0.001270 0.0
0.832121 0.418952 -0.000097 0.0
0.095125 0.673056 0.001014 0.0
4.053217 2.316699 -0.006661 0.0
0.237285 1.781689 -0.003147 0.0
2.733064 1.155858 -0.000048 0.0
0.118291 0.456771 -0.004258 0.0
2.071404 0.292125 0.001173 0.0
4.442289 2.361906 0.001675 0.0
1.040587 1.306295 -0.001997 0.0
1.754650 0.707235 -0.000303 0.0
1.119696 1.519134 -0.000690 0.0
0.440977 1.026717 -0.002019 0.0
0.961305 1.219982 0.000232 0.0
0.269893 0.511450 -0.002177 0.0
2.073613 0.776067 -0.004040 0.0
0.272908 0.558530 -0.000526 0.0
2.530422 0.079974 -0.000218 0.0
3.905882 0.123667 -0.000775 0.0
3.171167 0.047210 -0.001401 0.0
1.752586 0.540070 -0.003947 0.0
2.473475 0.190234 0.001819 0.0
2.106269 0.517279 0.004258 0.0
1.412160 1.733986 0.001230 0.0
2.562705 2.027475 -0.001543 0.0
1.658764 0.865651 0.003135 0.0
3.521317 1.480557 -0.000228 0.0
3.340427 0.060437 -0.003958 0.0
2.858811 1.710815 -0.000262 0.0
2.886441 2.386896 0.000631 0.0
1.929407 0.492213 0.003713 0.0
2.978819 1.495345 0.000614 0.0
0.734263 1.138968 0.002559 0.0
2.259704 0.797580 0.001474 0.0
2.301695 0.976322 -0.000974 0.0
4.148917 2.370398 -0.000181 0.0
0.104133 1.633814 -0.000759 0.0
1.553662 1.357865 -0.002566 0.0
2.920357 1.120197 0.001372 0.0
2.115118 1.996251 -0.001417 0.0
2.685485 0.816971 -0.000111 0.0
1.166428 0.176843 -0.000972 0.0
1.721068 0.187226 0.003851 0.0
0.670933 2.142258 0.004899 0.0
1.318206 2.162249 -0.001451 0.0
0.268552 1.207974 0.003630 0.0
2.903802 2.351009 -0.001105 0.0
1.799781 1.737400 0.001640 0.0
2.858557 0.023237 0.001320 0.0
0.998260 0.065487 -0.004898 0.0
1.410827 2.311039 0.000154 0.0
1.607182 1.484037 0.002258 0.0
2.471013 1.899524 0.002270 0.0
3.433962 0.449025 -0.001126 0.0
3.979360 2.396464 -0.001169 0.0
2.859364 2.345444 0.000887 0.0
3.843795 0.794228 -0.000668 0.0
3.048973 2.073941 0.000000 0.0
0.801153 2.228448 0.000287 0.0
2.899101 0.278393 -0.001479 0.0
0.627348 0.470362 -0.002339 0.0
0.504561 0.144300 -0.004190 0.0
0.816284 0.613733 0.003785 0.0
0.553751 1.880048 -0.001759 0.0
1.351232 1.480475 0.002210 0.0
1.659607 1.883719 -0.002297 0.0
0.463400 2.421501 0.001724 0.0
2.813147 0.018633 -0.001209 0.0
0.542784 0.356367 0.004256 0.0
1.883887 2.116056 -0.000935 0.0
1.943587 2.222312 -0.000952 0.0
1.512408 0.561032 -0.005597 0.0
0.577231 1.984953 0.005925 0.0
4.263751 0.068413 0.000971 0.0
2.756875 1.358155 0.000429 0.0
2.472626 2.055876 0.005288 0.0
4.323440 0.426461 -0.001586 0.0
0.129794 0.725420 -0.000255 0.0
0.088730 1.148288 0.000147 0.0
1.331142 0.132161 0.000862 0.0
3.093113 0.487202 -0.002872 0.0
3.406794 1.425265 0.000538 0.0
4.271749 0.648514 -0.001233 0.0
1.912068 1.899866 0.002049 0.0
3.116129 0.743354 0.001766 0.0
1.537765 1.072189 -0.000793 0.0
2.475523 2.389773 -0.003779 0.0
2.276382 1.606966 0.001503 0.0
1.404488 1.619585 -0.002747 0.0
1.815216 0.461955 0.001058 0.0
1.955729 0.782625 -0.000854 0.0
2.357520 0.811705 0.004550 0.0
0.054983 0.916867 0.005592 0.0
0.509616 0.296930 -0.001144 0.0
3.897510 1.142779 0.000369 0.0
0.894497 0.449461 -0.000137 0.0
1.716736 1.697126 -0.000129 0.0
0.953603 1.991356 0.002812 0.0
0.101394 1.188101 -0.004405 0.0
1.684910 1.124301 0.002140 0.0
1.919510 1.063044 -0.001776 0.0
4.294398 1.604889 0.000030 0.0
4.157783 1.984639 -0.002477 0.0
3.445013 2.284694 0.000037 0.0
0.080527 2.248267 0.002385 0.0
3.883940 0.515012 0.000402 0.0
3.829242 0.538598 0.004077 0.0
0.814914 0.993251 -0.001037 0.0
1.406707 1.584438 -0.004933 0.0
1.961235 0.252624 0.001800 0.0
0.735261 0.894539 0.002077 0.0
4.400575 1.373103 0.002073 0.0
3.781862 0.166941 0.001255 0.0
2.598395 1.542636 0.001260 0.0
2.460803 1.041972 -0.002941 0.0
1.929002 2.263938 0.000623 0.0
2.197839 1.835870 0.000001 0.0
0.696934 0.580732 0.002489 0.0
1.890327 0.830757 -0.000140 0.0
2.797156 1.233975 -0.002997 0.0
3.945616 0.225624 -0.003270 0.0
1.442733 0.345145 0.000918 0.0
2.805565 0.820296 0.002415 0.0
3.119332 1.832020 0.004156 0.0
2.248794 0.720841 0.002477 0.0
0.323852 0.779542 -0.001436 0.0
2.247912 0.677046 -0.000946 0.0
2.544126 0.802072 0.002254 0.0
0.903764 1.615437 0.002934 0.0
2.606213 2.409041 0.002989 0.0
3.186443 2.401870 -0.002180 0.0
0.891179 1.008768 -0.002349 0.0
4.368135 0.996844 -0.000403 0.0
3.430083 0.773847 0.004376 0.0
3.796349 0.201945 -0.002661 0.0
3.046396 1.380887 -0.001733 0.0
2.340861 0.560946 -0.004071 0.0
4.369489 1.137191 -0.002132 0.0
0.165529 0.677787 0.003746 0.0
0.711202 0.887905 0.001756 0.0
0.644985 2.147233 -0.002427 0.0
1.364774 1.411141 -0.000641 0.0
4.295973 2.023619 -0.002481 0.0
1.357717 0.635669 -0.003551 0.0
3.943025 0.616868 0.001959 0.0
1.025992 0.803520 -0.002080 0.0
0.546275 0.505912 0.000617 0.0
0.792907 1.477309 -0.001263 0.0
3.928464 1.798882 0.000196 0.0
1.029390 1.599075 -0.000341 0.0
2.365991 1.776582 -0.001395 0.0
3.797251 1.902790 -0.007712 0.0
2.051382 1.281716 -0.003172 0.0
4.405431 1.567897 0.002580 0.0
2.518786 0.831364 0.005917 0.0
3.075866 0.301794 0.002201 0.0
1.013706 1.246983 0.001221 0.0
2.968514 1.024434 -0.000733 0.0
1.974411 2.041426 0.000023 0.0
4.062659 1.206973 0.004478 0.0
4.055809 0.916708 0.007310 0.0
4.200000 2.013122 0.001656 0.0
0.312425 0.335362 -0.000382 0.0
2.013542 2.245805 0.000003 0.0
3.137183 1.729778 0.001024 0.0
4.504553 0.399339 0.000301 0.0
1.671383 1.650677 0.005094 0.0
1.669070 2.153762 -0.001064 0.0
3.422409 2.318657 -0.001261 0.0
0.372272 0.222523 -0.001428 0.0
2.267102 0.504720 0.000351 0.0
1.222877 2.349255 -0.004225 0.0
3.451662 0.808508 -0.003074 0.0
0.232136 2.212952 0.000370 0.0
0.576268 0.735423 -0.005284 0.0
1.417627 1.182637 -0.004162 0.0
1.600500 0.837261 -0.002792 0.0
0.722808 1.442738 -0.002345 0.0
1.548479 0.932163 -0.001537 0.0
0.155729 1.152485 -0.003177 0.0
2.722960 1.096231 -0.001350 0.0
2.638314 2.002375 0.002285 0.0
0.787862 1.648012 0.000057 0.0
4.157930 0.698716 -0.002030 0.0
1.199573 1.822263 -0.001005 0.0
1.204505 1.642317 0.002121 0.0
1.422642 0.227410 -0.000083 0.0
2.996247 0.591914 0.003101 0.0
1.672611 1.766819 0.001561 0.0
4.523862 2.017116 0.000310 0.0
2.292806 1.880067 -0.001824 0.0
1.952763 0.276644 -0.000492 0.0
2.397020 2.051770 -0.000227 0.0
0.642233 0.625448 0.002300 0.0
0.931090 0.163984 0.001523 0.0
4.338497 1.362808 0.001317 0.0
1.934782 0.938519 -0.002059 0.0
2.776107 0.240941 -0.001282 0.0
3.494707 0.148539 -0.000131 0.0
3.939563 2.125908 -0.000180 0.0
1.168731 0.569665 -0.003315 0.0
1.786491 1.942784 -0.002317 0.0
2.752170 0.922889 -0.000627 0.0
3.864334 1.034151 -0.001945 0.0
0.163658 2.134373 0.000078 0.0
1.946905 2.064937 0.001773 0.0
3.170064 1.012461 -0.006084 0.0
3.936291 2.258920 0.000761 0.0
2.692412 0.482453 0.000791 0.0
3.628135 0.985887 0.000192 0.0
1.103372 0.342150 -0.001596 0.0
2.593508 0.642716 -0.003127 0.0
1.622133 0.357352 -0.002419 0.0
0.824527 2.129817 -0.003333 0.0
0.108383 0.845351 0.000147 0.0
1.701165 1.320393 0.001520 0.0
3.899487 0.115989 -0.003497 0.0
2.637394 0.700016 -0.003087 0.0
2.369231 0.673952 -0.003682 0.0
2.204544 0.343296 -0.000886 0.0
1.453765 0.753386 -0.001381 0.0
1.153672 1.097416 -0.000764 0.0
2.284450 1.080850 -0.000783 0.0
0.458703 1.280401 -0.001544 0.0
0.146032 0.394367 0.002185 0.0
1.651817 1.567355 -0.004470 0.0
3.446712 1.282183 -0.002083 0.0
3.489537 1.745378 0.001842 0.0
1.449023 0.816643 0.000513 0.0
3.491066 1.570256 -0.004593 0.0
3.511155 1.060252 0.002345 0.0
3.059056 0.507062 0.003807 0.0
2.983994 0.088676 -0.001524 0.0
1.607380 0.494445 -0.000625 0.0
2.540871 0.253118 0.001581 0.0
0.280644 2.253447 0.000531 0.0
0.232225 1.739451 0.001430 0.0
1.079077 1.182144 -0.001114 0.0
2.355275 1.494539 0.006494 0.0
0.906931 1.585980 0.000343 0.0
4.393166 0.726104 0.002842 0.0
1.693097 1.964789 -0.000871 0.0
0.049832 0.392787 -0.000927 0.0
2.029619 2.367727 -0.001390 0.0
0.849896 2.063732 -0.001413 0.0
2.126669 1.956266 0.004975 0.0
3.601468 0.853962 -0.001132 0.0
0.282698 1.378267 0.001670 0.0
1.354595 0.725800 -0.001730 0.0
4.502786 1.127054 -0.000926 0.0
3.556984 1.320016 -0.003407 0.0
2.168278 2.080139 0.001787 0.0
2.812927 1.973027 -0.001817 0.0
3.102149 1.910098 0.004087 0.0
3.804272 1.985497 -0.001618 0.0
2.875448 1.477410 -0.006600 0.0
0.196826 2.223515 -0.001592 0.0
1.384571 1.750266 0.000824 0.0
3.687044 2.062384 -0.001309 0.0
1.864646 2.261357 -0.004247 0.0
1.894901 1.525077 -0.001742 0.0
2.024810 1.049573 -0.000523 0.0
2.577609 1.885978 -0.000854 0.0
1.299223 0.556759 0.002018 0.0
0.763917 2.249627 -0.001466 0.0
1.138187 2.305610 0.005831 0.0
4.370414 2.056111 -0.004022 0.0
0.820551 0.556679 -0.000205 0.0
3.317171 0.822400 0.000662 0.0
4.529307 0.440470 0.002819 0.0
4.109437 2.123184 0.001968 0.0
2.766198 0.910885 0.000903 0.0
0.263279 1.645528 -0.000116 0.0
1.478113 0.900273 -0.001937 0.0
1.847437 2.221710 0.000358 0.0
1.555434 1.910696 -0.002586 0.0
4.032474 1.109140 0.002221 0.0
2.884447 0.732982 -0.001339 0.0
3.955210 0.664152 -0.001391 0.0
2.403668 1.780920 -0.000187 0.0
3.890306 0.402015 -0.002357 0.0
3.432497 0.596853 -0.002459 0.0
3.054713 0.273901 -0.000114 0.0
0.070247 1.347176 -0.001379 0.0
3.644645 0.150917 0.001956 0.0
4.177120 1.653680 0.002355 0.0
0.443085 1.182839 0.001677 0.0
1.451857 1.049139 -0.000285 0.0
1.669800 1.843320 0.002800 0.0
2.088752 0.461606 0.001663 0.0
2.961931 1.252121 0.002063 0.0
0.783359 0.210467 0.001912 0.0
1.944051 0.350863 -0.002578 0.0
2.287472 1.518519 -0.005091 0.0
3.087536 0.637148 -0.002659 0.0
0.205694 1.343626 -0.000133 0.0
2.738458 2.159950 0.000888 0.0
3.491858 1.624528 0.004309 0.0
3.713830 1.107279 0.002916 0.0
0.693098 1.076674 -0.003573 0.0
1.288129 1.729714 0.001433 0.0
2.282332 0.535683 0.001425 0.0
4.168234 1.765748 0.003699 0.0
1.227665 0.011887 -0.004480 0.0
3.471726 0.869471 -0.000660 0.0
2.074830 0.890348 -0.001294 0.0
2.106111 0.655364 0.000868 0.0
0.031740 0.426390 -0.002022 0.0
0.671883 0.076887 -0.002119 0.0
3.407369 0.917829 0.000628 0.0
2.652796 0.135223 0.001274 0.0
1.185197 0.177183 0.000840 0.0
2.584890 0.791017 0.003959 0.0
3.981083 0.415952 -0.000190 0.0
2.251882 1.519122 0.004164 0.0
1.557368 0.536190 0.001360 0.0
0.729357 0.663259 -0.000079 0.0
3.048600 1.203020 -0.000249 0.0
1.526606 0.232125 0.002196 0.0
3.176031 1.634146 -0.000404 0.0
4.082638 1.159799 0.001085 0.0
3.952369 1.962504 -0.003685 0.0
4.211722 1.317966 -0.002567 0.0
4.494059 0.459006 0.000226 0.0
1.843451 0.080360 0.000783 0.0
2.419683 1.802640 0.001189 0.0
2.881050 1.572138 -0.004681 0.0
3.472037 2.065620 -0.001660 0.0
2.489064 1.553957 0.001135 0.0
0.140022 1.155125 0.003776 0.0
0.921837 0.516822 0.002105 0.0
0.500455 0.607745 -0.000438 0.0
3.414238 1.524726 0.003138 0.0
0.347062 2.260815 -0.002410 0.0
0.427189 2.310498 0.001379 0.0
2.034845 0.417893 0.000282 0.0
1.538617 2.249805 -0.004110 0.0
3.470197 2.084047 0.004057 0.0
4.163974 0.228427 0.000616 0.0
1.710832 0.247494 0.000901 0.0
0.859131 2.262726 0.002353 0.0
3.608869 1.230461 -0.000977 0.0
3.506636 0.437482 0.003553 0.0
0.027906 0.354943 0.002428 0.0
0.550552 0.652531 0.002589 0.0
3.314432 0.897658 -0.002087 0.0
2.416667 0.102698 -0.003775 0.0
3.276361 1.719814 -0.002521 0.0
3.585881 1.218305 -0.000439 0.0
3.167979 0.918219 0.002802 0.0
0.026087 0.862659 0.001313 0.0
4.386252 1.372139 -0.002854 0.0
2.000875 0.206250 -0.000832 0.0
4.177684 1.894932 0.001405 0.0
2.801008 0.206236 -0.000686 0.0
0.572045 0.466919 0.001350 0.0
2.873348 0.350769 0.001022 0.0
2.423645 1.251700 -0.003572 0.0
3.660498 1.200307 -0.004182 0.0
2.391629 1.325528 0.004529 0.0
0.629522 2.119488 -0.004885 0.0
4.529800 1.983657 -0.002026 0.0
3.915486 1.002016 -0.000129 0.0
3.970036 0.626536 0.003347 0.0
3.702114 2.267778 -0.000907 0.0
4.136588 1.395767 0.002632 0.0
2.737076 1.476630 0.002696 0.0
3.106640 0.225240 -0.003952 0.0
3.350047 1.427755 0.001162 0.0
1.556791 2.090166 0.003385 0.0
0.713588 1.196216 -0.000650 0.0
1.722797 0.978550 -0.000279 0.0
0.929077 0.662975 -0.001493 0.0
0.382406 0.063956 0.003818 0.0
1.958133 1.224904 0.001639 0.0
3.092817 0.293530 -0.001936 0.0
1.846275 1.601313 -0.001029 0.0
1.244536 0.254057 -0.002169 0.0
3.612477 2.096589 0.000354 0.0
3.450397 0.717375 -0.000653 0.0
1.223172 2.009574 0.001368 0.0
0.104299 1.266571 0.000943 0.0
3.454671 0.333422 -0.000112 0.0
3.377722 0.338956 -0.001834 0.0
0.433697 0.340000 0.002563 0.0
1.630842 2.233778 0.000856 0.0
2.098711 0.309069 -0.002374 0.0
1.430513 0.973947 -0.000116 0.0
3.518540 1.193115 0.001232 0.0
1.055906 0.734273 0.003778 0.0
1.098501 2.022236 0.002961 0.0
3.052150 0.635255 -0.002943 0.0
4.411638 2.330992 -0.001311 0.0
3.807960 0.852466 0.002413 0.0
4.338958 0.579684 -0.002646 0.0
0.462858 0.125541 0.000044 0.0
3.868765 1.711069 0.002862 0.0
0.786091 0.050230 -0.000454 0.0
0.303577 0.548341 -0.000261 0.0
1.670931 2.119903 -0.002022 0.0
1.056087 0.981663 0.003209 0.0
1.206480 2.034449 -0.001647 0.0
2.848331 1.693799 0.000049 0.0
3.863723 1.266781 -0.003233 0.0
2.682321 1.060582 -0.005094 0.0
3.674731 2.001151 0.000244 0.0
2.979480 0.124535 -0.000610 0.0
0.971881 0.642229 -0.003451 0.0
1.337826 0.575508 0.000584 0.0
1.609240 0.488245 0.002635 0.0
1.607934 0.648293 0.001490 0.0
2.717465 1.811266 0.002711 0.0
0.859699 2.364428 0.002888 0.0
1.392373 0.940376 0.004600 0.0
1.860427 0.908772 -0.003987 0.0
3.821162 0.380365 -0.003081 0.0
4.194213 2.118725 0.002594 0.0
3.805112 1.996184 -0.003225 0.0
0.778403 1.486788 -0.005837 0.0
1.018905 1.237536 -0.000620 0.0
2.587682 2.037859 0.003394 0.0
1.539449 2.072020 0.002656 0.0
0.119371 0.859936 -0.003259 0.0
3.323916 0.621716 -0.000587 0.0
0.714290 0.949048 0.001138 0.0
2.439411 0.364684 0.000314 0.0
2.251075 0.857649 0.000147 0.0
3.274518 0.307939 -0.003459 0.0
1.912236 1.553040 0.001606 0.0
4.317428 0.458567 -0.002453 0.0
0.742677 1.268274 0.000910 0.0
1.413537 0.460720 -0.001212 0.0
1.917626 1.313183 0.003554 0.0
0.323753 0.411657 -0.003646 0.0
0.376196 1.514845 -0.001427 0.0
1.941998 2.282450 0.002661 0.0
2.726405 0.597580 -0.003317 0.0
1.541032 0.142066 0.000207 0.0
0.835026 0.699963 -0.003747 0.0
0.882562 0.410567 -0.000754 0.0
1.784012 0.167171 -0.001327 0.0
3.489294 1.120399 0.004751 0.0
0.946113 0.501193 0.003366 0.0
2.032384 1.512487 0.000816 0.0
0.782216 0.717128 -0.000257 0.0
3.439454 0.673183 0.000318 0.0
1.578481 2.168674 0.000959 0.0
3.280397 1.078938 0.000600 0.0
2.828649 1.989155 -0.000480 0.0
1.062718 0.529121 0.005543 0.0
0.032298 0.434763 -0.000741 0.0
3.748897 1.946455 -0.002123 0.0
3.147028 1.000051 0.003437 0.0
3.999094 0.268777 -0.000127 0.0
3.311170 0.662553 0.000386 0.0
3.206247 1.364180 0.002904 0.0
0.685613 1.690340 0.001157 0.0
1.516041 1.607691 0.001396 0.0
0.848192 0.921478 0.000871 0.0
2.761434 0.157434 0.004254 0.0
4.207254 0.137368 -0.000971 0.0
1.331770 0.206687 0.000230 0.0
0.354300 2.008050 0.001648 0.0
4.401487 0.359785 0.002521 0.0
1.140147 1.095115 -0.001182 0.0
3.354901 0.390277 -0.000974 0.0
2.043908 0.059085 0.000653 0.0
3.340189 0.897679 0.000380 0.0
2.487223 2.144352 -0.000534 0.0
2.679913 2.392200 -0.004204 0.0
3.414993 2.025819 -0.003884 0.0
3.232607 2.260511 0.000962 0.0
1.423483 1.003436 0.001703 0.0
0.191866 1.099417 -0.002245 0.0
2.554705 1.104730 -0.001431 0.0
1.702804 1.630043 0.003012 0.0
3.663773 0.600972 0.002027 0.0
2.327133 1.867186 0.001623 0.0
0.773913 0.639869 0.003420 0.0
2.769512 0.745076 0.002198 0.0
1.756331 1.797832 -0.005692 0.0
0.017146 0.641551 -0.005648 0.0
1.330825 2.072971 -0.001537 0.0
2.080736 2.015910 -0.003192 0.0
1.814985 1.196719 0.003575 0.0
2.520907 1.762391 -0.000897 0.0
2.551154 0.297554 0.004657 0.0
2.599719 1.756002 -0.000145 0.0
4.021639 1.495525 0.000170 0.0
2.784880 0.313249 0.004191 0.0
0.893589 0.860202 0.003353 0.0
3.467517 1.367542 -0.000268 0.0
2.563262 0.936960 -0.000203 0.0
3.390238 0.239736 0.000068 0.0
2.125475 1.448969 0.000399 0.0
2.425664 2.391967 0.002903 0.0
0.679315 1.856197 0.000405 0.0
3.252112 2.229062 -0.000785 0.0
0.312562 1.701946 0.000043 0.0
4.538340 1.401038 -0.003815 0.0
2.890923 2.372988 -0.002627 0.0
0.368720 0.791534 -0.003467 0.0
3.847173 1.707940 -0.001864 0.0
2.003487 0.491350 -0.000746 0.0
0.545926 2.146385 0.002896 0.0
1.984810 2.186740 0.001555 0.0
1.843939 1.878594 0.003550 0.0
3.263997 0.103424 -0.006982 0.0
1.942238 0.201438 -0.002708 0.0
1.228579 1.320586 -0.000074 0.0
2.450369 1.090963 0.000901 0.0
1.814604 1.868797 0.002676 0.0
1.111673 0.123477 -0.001803 0.0
0.132154 0.641540 -0.001774 0.0
2.778410 0.456209 0.002847 0.0
3.949802 2.226751 -0.000452 0.0
4.430239 0.287734 0.001775 0.0
2.073561 0.161553 0.001039 0.0
2.903644 1.360720 -0.003501 0.0
3.248494 1.152548 0.000678 0.0
4.386429 1.937670 -0.004261 0.0
2.921506 1.491686 -0.000586 0.0
3.603508 1.986081 -0.000096 0.0
2.229965 1.980358 0.000108 0.0
2.320262 1.251432 -0.001850 0.0
3.342004 1.834659 0.003442 0.0
0.139000 0.870663 -0.000988 0.0
4.540482 2.072056 -0.002575 0.0
3.802584 0.341288 -0.000223 0.0
4.412753 1.743949 -0.003006 0.0
3.629410 0.518325 0.001819 0.0
1.934084 1.328266 0.001442 0.0
2.615740 2.335300 -0.000912 0.0
1.056897 1.217745 -0.000860 0.0
2.920115 2.115197 0.001865 0.0
1.164327 1.267909 0.000200 0.0
3.955620 2.175473 0.005537 0.0
3.956364 1.258908 0.000027 0.0
4.344306 2.334496 0.000756 0.0
3.843603 0.895765 -0.000552 0.0
1.658541 0.325630 -0.003996 0.0
2.869478 0.377742 -0.001832 0.0
3.557727 0.768571 -0.000909 0.0
2.356558 0.451245 -0.000450 0.0
2.779471 0.124144 -0.003817 0.0
0.882224 2.427998 0.002036 0.0
1.467545 1.596090 0.002879 0.0
1.510435 1.722509 -0.002786 0.0
0.688917 0.238758 -0.000744 0.0
2.634556 1.905887 0.001587 0.0
1.477506 1.798535 0.000540 0.0
1.280846 2.406064 -0.004106 0.0
0.257950 2.288602 0.000390 0.0
3.202557 0.150091 -0.003520 0.0
4.477447 0.667101 -0.001369 0.0
3.175186 2.297830 -0.000285 0.0
2.014855 0.369715 -0.000885 0.0
2.623915 0.777314 -0.004627 0.0
1.831055 1.388839 0.003189 0.0
0.612542 1.221048 -0.001994 0.0
2.334798 0.859952 -0.002438 0.0
0.968319 0.860959 -0.000136 0.0
4.239850 2.013446 -0.000835 0.0
2.159957 1.401048 0.001916 0.0
2.810262 1.557326 -0.001883 0.0
3.409519 1.777903 -0.003106 0.0
1.502795 0.171391 0.003317 0.0
4.511360 0.047379 -0.002386 0.0
3.068062 1.215763 -0.004451 0.0
0.301514 0.109316 -0.000737 0.0
2.169778 2.187336 0.000345 0.0
1.563982 1.092045 0.000444 0.0
0.004293 1.984044 -0.001035 0.0
0.874605 1.239958 0.000276 0.0
2.006561 1.354058 0.001523 0.0
0.628142 1.420312 -0.000608 0.0
3.789358 1.758825 -0.000478 0.0
3.351732 1.736127 0.005251 0.0
1.424595 1.019610 -0.001170 0.0
3.700058 2.047233 0.004044 0.0
2.000066 0.713273 -0.001078 0.0
0.776586 0.245674 -0.000804 0.0
0.843260 0.915284 0.000289 0.0
2.012150 1.313699 0.000196 0.0
2.556040 1.461179 0.002200 0.0
2.476931 0.596137 0.001004 0.0
1.859737 0.056234 -0.001860 0.0
3.524572 2.217494 0.000939 0.0
3.829020 2.120033 -0.000443 0.0
3.059765 1.471474 0.001163 0.0
2.034117 1.513629 0.000207 0.0
4.294627 1.249315 0.003576 0.0
1.504992 1.785064 -0.001020 0.0
2.180708 0.372171 -0.002094 0.0
1.683479 2.167294 -0.001580 0.0
0.589457 1.433774 -0.001495 0.0
2.062198 0.071038 -0.005103 0.0
1.643486 1.213166 0.002930 0.0
2.670530 1.488993 0.000473 0.0
1.540086 2.284719 0.003531 0.0
3.058499 2.265166 0.000452 0.0
0.445518 1.363091 -0.000452 0.0
4.290645 0.989818 -0.002777 0.0
3.062604 0.657384 -0.005753 0.0
4.347304 0.135614 0.003549 0.0
0.216632 2.010050 -0.000854 0.0
2.945405 0.731490 0.000300 0.0
2.099980 0.214441 0.000672 0.0
2.920429 1.144724 0.002749 0.0
2.754488 2.110573 0.000597 0.0
4.112444 0.256507 -0.003050 0.0
1.250058 1.131642 0.001260 0.0
1.152115 1.410868 -0.001303 0.0
4.520704 0.609417 0.003024 0.0
3.361157 2.208573 -0.000218 0.0
4.463028 2.064629 0.000521 0.0
2.614356 1.978193 0.001916 0.0
2.694950 0.031470 -0.001729 0.0
0.018971 1.458853 0.001201 0.0
4.402089 2.214534 -0.001143 0.0
1.245953 0.337790 0.001934 0.0
4.382930 0.105002 -0.000288 0.0
4.471696 2.003971 0.000135 0.0
1.185901 2.358176 0.004693 0.0
0.854645 0.501864 0.002969 0.0
0.256492 0.355881 -0.002136 0.0
1.841514 2.095469 -0.001208 0.0
0.382816 2.272264 -0.003530 0.0
4.046825 2.152449 -0.000501 0.0
0.189710 2.006476 -0.001106 0.0
4.191203 2.217049 -0.000316 0.0
3.610280 0.790664 0.003248 0.0
3.986752 1.444536 -0.003725 0.0
1.268072 1.164819 0.000906 0.0
2.624961 2.150578 0.007030 0.0
1.665505 1.172742 0.000707 0.0
3.376692 1.596158 -0.000989 0.0
1.080582 0.526370 -0.002655 0.0
2.613498 1.031084 -0.000509 0.0
2.237979 0.277074 0.000111 0.0
0.495589 2.287421 -0.001051 0.0
2.477118 0.213580 -0.000085 0.0
2.297445 2.153539 0.003960 0.0
3.362660 0.877010 0.002530 0.0
1.093808 1.416949 -0.004322 0.0
2.180901 0.351156 0.000260 0.0
2.484933 0.190918 -0.000352 0.0
1.117201 2.262261 0.003761 0.0
0.667297 0.705036 -0.002100 0.0
2.322633 0.194843 0.000261 0.0
3.799695 1.768260 -0.004696 0.0
3.849125 1.873550 0.000925 0.0
4.199783 0.434548 0.001336 0.0
4.337749 0.664297 -0.003342 0.0
4.261170 0.498177 0.003601 0.0
2.917288 0.051340 0.000575 0.0
1.894619 0.336042 0.000787 0.0
2.611209 1.165231 0.000920 0.0
1.156075 0.795630 -0.001667 0.0
3.842524 1.739952 -0.001057 0.0
0.743699 0.471634 -0.002165 0.0
2.288991 1.937560 0.005968 0.0
0.538299 1.144614 -0.000994 0.0
3.289944 0.911671 0.001574 0.0
3.538946 2.233243 0.000887 0.0
0.852370 1.637592 -0.000452 0.0
2.042549 1.786102 -0.001941 0.0
0.027886 1.813455 0.003353 0.0
3.557651 0.582113 0.002418 0.0
2.136999 0.058600 0.005043 0.0
3.608987 1.322404 0.000157 0.0
2.334097 2.006877 -0.000406 0.0
1.738276 1.161879 0.000664 0.0
2.695520 0.761603 0.003154 0.0
3.166856 0.950873 0.005048 0.0
1.757887 1.787456 0.001629 0.0
3.757502 2.389545 0.000454 0.0
0.077286 1.181127 -0.004170 0.0
1.309934 1.081477 -0.000905 0.0
2.677167 0.680476 0.002381 0.0
3.421918 1.462588 0.000775 0.0
3.419227 1.041597 -0.000794 0.0
3.696770 1.693565 0.002595 0.0
4.324491 2.161895 0.000827 0.0
0.018308 2.417473 -0.000928 0.0
3.561249 0.141483 -0.000294 0.0
3.760114 2.010660 -0.002670 0.0
0.646793 1.898139 0.000694 0.0
0.133385 2.409178 0.000237 0.0
3.237392 1.632580 -0.000597 0.0
2.506856 1.558976 -0.000111 0.0
3.039601 0.996289 -0.002381 0.0
3.439699 2.345157 0.003709 0.0
0.502067 1.543308 -0.000384 0.0
3.521027 1.974848 -0.002070 0.0
3.232587 0.535097 -0.000011 0.0
4.178462 1.872980 -0.003435 0.0
2.554331 2.207941 -0.001355 0.0
1.305215 1.072758 -0.004223 0.0
3.512096 1.562120 0.002059 0.0
0.056592 2.169971 -0.001486 0.0
3.247449 2.429677 -0.001215 0.0
1.517483 0.167889 -0.003011 0.0
2.486041 1.413487 -0.000317 0.0
4.383239 1.274031 0.002226 0.0
2.290033 1.016042 -0.001512 0.0
1.166799 1.844669 0.003332 0.0
1.098127 0.701293 0.004026 0.0
3.095926 0.812712 0.001147 0.0
1.497342 1.362665 -0.000299 0.0
1.346086 0.611991 0.003960 0.0
2.937636 0.452446 0.003385 0.0
1.052347 2.098320 0.000013 0.0
0.760699 0.627822 0.001375 0.0
0.798295 0.125361 -0.001207 0.0
1.844302 1.034338 0.001017 0.0
4.404491 0.993871 0.003578 0.0
3.276923 0.419809 -0.000047 0.0
0.038315 0.303167 -0.003909 0.0
4.493642 2.294373 0.002210 0.0
0.713089 2.374881 -0.000534 0.0
0.165123 0.282462 -0.005876 0.0
4.553310 0.292127 0.000807 0.0
2.966268 0.078996 -0.004184 0.0
1.653811 1.279337 -0.001976 0.0
1.673377 2.396678 -0.002240 0.0
1.770908 1.327520 -0.003049 0.0
1.955082 1.045165 -0.001071 0.0
2.396813 2.245765 0.001501 0.0
0.617049 1.270513 0.000878 0.0
3.026471 1.444347 -0.000081 0.0
2.596237 1.878773 0.002122 0.0
1.397823 0.892156 0.000648 0.0
1.893568 0.039175 -0.001355 0.0
0.685293 0.274896 0.001551 0.0
1.757191 1.103948 0.000258 0.0
4.021325 0.523361 -0.001485 0.0
1.718114 1.069818 0.003342 0.0
0.487368 0.458746 0.001739 0.0
0.389330 0.023638 0.001210 0.0
2.847140 1.166630 0.003823 0.0
1.542069 1.233665 0.005399 0.0
3.156468 1.573229 -0.001756 0.0
4.425906 1.346663 0.005110 0.0
2.440550 2.378269 0.004172 0.0
3.529932 1.682549 0.003001 0.0
2.931545 1.251456 -0.000645 0.0
1.705271 1.036544 0.000253 0.0
3.635088 2.043321 0.000899 0.0
1.583352 2.380714 -0.001491 0.0
0.817611 2.298332 0.002021 0.0
0.206619 2.155490 -0.001868 0.0
0.850858 2.152728 0.001129 0.0
0.328032 0.537791 -0.000849 0.0
1.251614 2.047056 0.005382 0.0
2.499238 2.146059 0.001133 0.0
2.808222 1.874368 0.001794 0.0
4.354577 1.956829 0.002822 0.0
2.558481 1.036973 0.000555 0.0
2.931049 0.275228 0.002769 0.0
2.191532 1.834067 -0.001330 0.0
1.780114 0.442808 -0.002329 0.0
1.533949 0.941585 0.001643 0.0
0.716726 0.214375 0.003994 0.0
2.668458 0.841315 -0.000124 0.0
0.434054 0.130754 -0.005823 0.0
2.647347 0.172455 -0.000770 0.0
3.918161 1.142070 0.002289 0.0
4.331285 1.384848 -0.001936 0.0
1.552265 0.841511 -0.003231 0.0
0.516904 1.108512 -0.002333 0.0
4.374158 0.886651 0.001358 0.0
3.061306 0.994278 0.004526 0.0
1.257232 0.425405 -0.001551 0.0
1.409509 1.124150 -0.000847 0.0
3.925088 0.153247 -0.000650 0.0
1.089976 1.009076 0.001084 0.0
3.007530 1.535465 0.001525 0.0
0.214663 0.908441 0.000519 0.0
3.527535 1.717760 0.000388 0.0
0.431700 0.692535 0.004633 0.0
0.615778 1.189215 0.003826 0.0
3.658684 2.247493 -0.001766 0.0
2.798499 2.253479 0.003315 0.0
3.235102 2.343946 0.000545 0.0
0.049105 0.414539 0.002174 0.0
4.289780 0.687162 0.003242 0.0
1.618538 0.416366 -0.001670 0.0
0.732368 2.114352 -0.000168 0.0
2.650568 1.986574 -0.005200 0.0
2.319914 0.156375 0.002838 0.0
0.299933 0.288114 -0.004324 0.0
0.054234 1.762951 -0.002603 0.0
3.337832 0.829686 -0.000953 0.0
1.080298 1.770332 0.003414 0.0
0.855518 2.342461 -0.001402 0.0
1.727605 0.330026 -0.002670 0.0
2.766334 0.276139 -0.002050 0.0
1.489766 0.411696 -0.005562 0.0
3.213632 1.993285 -0.000509 0.0
4.090140 0.549607 0.002261 0.0
3.575604 2.373843 0.004414 0.0
4.311182 0.650633 0.000279 0.0
0.601552 0.958942 -0.003948 0.0
1.051633 1.214818 0.003441 0.0
0.766122 1.266350 0.005128 0.0
0.179799 1.852911 0.000970 0.0
1.856598 0.088681 -0.004390 0.0
0.404751 1.095904 -0.004689 0.0
1.039965 1.667058 0.002619 0.0
3.665625 1.699245 -0.002556 0.0
2.323008 0.086026 -0.002350 0.0
2.771804 1.279926 0.001089 0.0
3.716237 1.887091 0.003586 0.0
3.596663 0.508343 0.001293 0.0
0.808354 0.217387 0.006316 0.0
2.685019 0.491998 -0.000982 0.0
0.785623 0.735077 0.000508 0.0
1.869804 0.319166 -0.004837 0.0
4.326053 1.060672 -0.002753 0.0
4.281650 1.261162 -0.000859 0.0
0.155250 0.400267 0.002866 0.0
3.765340 1.601032 -0.001505 0.0
1.456435 1.862738 -0.004223 0.0
4.374620 0.228313 -0.000536 0.0
1.854144 0.870367 0.005022 0.0
1.607817 1.004748 -0.000590 0.0
1.220935 0.001544 -0.001086 0.0
4.164352 1.817910 0.000184 0.0
2.658302 0.386818 -0.000399 0.0
0.026724 0.742645 0.001167 0.0
2.315255 1.005774 0.000357 0.0
4.120097 0.781743 -0.002046 0.0
4.038184 0.878488 -0.003088 0.0
0.361444 1.254769 0.000956 0.0
3.539312 0.189300 -0.004316 0.0
2.804590 0.920017 -0.001571 0.0
1.926141 0.604034 -0.000333 0.0
3.182439 1.070201 -0.002520 0.0
2.648099 1.688755 -0.000800 0.0
3.528109 0.870210 -0.003834 0.0
3.497156 2.048005 0.000869 0.0
4.496010 0.247954 -0.001720 0.0
2.608306 0.487357 -0.001245 0.0
0.610200 0.500224 -0.003554 0.0
1.052726 1.543584 -0.002710 0.0
4.035386 1.845907 -0.000441 0.0
4.367534 0.083234 -0.001077 0.0
0.264199 0.143556 -0.001505 0.0
2.263775 2.068346 0.001866 0.0
2.439041 2.027719 -0.000739 0.0
3.689074 1.243293 0.005048 0.0
3.533168 1.684661 0.000457 0.0
1.495613 1.347983 0.001102 0.0
1.660698 1.917685 -0.002252 0.0
3.059402 2.015650 0.000410 0.0
2.658797 1.122674 -0.001188 0.0
1.775016 0.270049 -0.000044 0.0
3.921651 1.091109 -0.000170 0.0
1.454579 2.240492 -0.000324 0.0
0.489913 1.669257 0.002710 0.0
2.227130 2.133856 -0.001554 0.0
2.238618 0.950043 0.001492 0.0
1.514011 0.402132 0.000866 0.0
3.630993 1.531415 -0.000881 0.0
3.343210 1.980047 0.001633 0.0
1.288636 1.686029 0.000682 0.0
1.976258 1.757341 0.002806 0.0
3.867567 1.770759 -0.002795 0.0
2.113407 0.451877 -0.004573 0.0
2.928551 1.630287 0.004871 0.0
0.046607 0.306028 0.001727 0.0
1.511568 1.075887 -0.000005 0.0
3.107929 2.263894 0.002843 0.0
3.187459 0.511687 0.000583 0.0
3.531567 1.504364 0.002592 0.0
0.494703 1.500534 -0.000730 0.0
0.678271 0.964865 0.002796 0.0
2.191522 0.053951 0.000263 0.0
2.671777 2.084919 0.001382 0.0
2.248341 2.428049 0.002456 0.0
1.175225 1.977865 -0.000165 0.0
3.314667 1.427191 0.001224 0.0
1.006145 0.694847 -0.001640 0.0
3.466841 1.964599 -0.000200 0.0
0.633732 0.238856 -0.002365 0.0
2.212943 1.115205 0.000036 0.0
3.362675 0.010872 0.001008 0.0
1.601422 1.184306 0.005318 0.0
1.748253 1.339449 -0.001087 0.0
0.560158 2.093462 0.001600 0.0
2.094041 0.853942 -0.000450 0.0
3.122906 0.406144 0.001787 0.0
4.140306 1.676304 -0.000596 0.0
4.022503 0.313275 -0.001598 0.0
0.633177 0.845916 -0.003622 0.0
0.999292 0.471854 -0.003721 0.0
3.767339 0.073396 -0.003409 0.0
1.756585 0.622844 0.004092 0.0
2.113108 0.272042 0.001543 0.0
0.654744 1.816513 0.001366 0.0
2.750051 0.109148 0.001704 0.0
2.373386 1.931330 -0.005661 0.0
0.351148 0.884674 -0.003229 0.0
1.308070 2.226903 -0.001233 0.0
2.160798 0.342359 0.002995 0.0
1.831538 0.866878 0.005327 0.0
1.406566 1.538866 0.002600 0.0
3.118926 1.392118 -0.004824 0.0
2.631228 0.981892 -0.001122 0.0
0.480686 0.300398 0.003538 0.0
4.567129 1.919812 0.001662 0.0
2.620873 1.149080 -0.000386 0.0
3.146433 2.352250 0.002069 0.0
2.697346 1.219369 -0.001174 0.0
1.703903 1.045371 0.000267 0.0
1.673494 1.467918 0.000764 0.0
1.152336 0.442713 0.000491 0.0
0.900550 2.180930 -0.000330 0.0
4.572992 0.272822 -0.002160 0.0
3.384338 1.479739 -0.003592 0.0
3.688669 0.670033 -0.001753 0.0
3.895326 2.053558 -0.002102 0.0
0.792077 0.284336 0.002203 0.0
3.968127 1.764354 0.003650 0.0
2.104968 2.017853 0.000137 0.0
3.975250 0.629606 0.000721 0.0
3.390400 1.561838 -0.000560 0.0
4.166582 2.323114 -0.001165 0.0
3.331923 1.878433 -0.003803 0.0
3.203853 0.946214 0.000924 0.0
2.459443 1.521629 0.002963 0.0
3.669115 1.114121 -0.000821 0.0
2.018477 1.486699 -0.002866 0.0
4.502609 1.590434 -0.003832 0.0
1.879233 1.258809 0.000189 0.0
2.051621 0.277026 0.001846 0.0
3.854002 1.766831 0.003128 0.0
2.847866 1.992860 -0.002796 0.0
0.689803 1.411909 -0.001395 0.0
4.511861 0.093129 -0.001360 0.0
4.528624 0.086295 -0.000469 0.0
2.359114 1.605871 0.004302 0.0
0.596228 2.011346 0.004178 0.0
0.375337 2.239687 0.006388 0.0
2.500256 2.040652 -0.002560 0.0
2.976950 1.648193 0.000319 0.0
2.675498 0.906941 -0.001495 0.0
1.973052 0.665548 -0.003501 0.0
0.804539 1.430505 -0.001064 0.0
2.821404 2.102161 -0.002791 0.0
3.322583 1.865756 0.004912 0.0
0.774765 0.471748 0.000986 0.0
3.391468 0.698974 0.000410 0.0
0.309020 1.198150 0.001586 0.0
1.008567 0.658117 -0.002407 0.0
2.744798 1.012347 0.002131 0.0
1.342518 1.795007 -0.001120 0.0
4.575760 1.258287 -0.003084 0.0
1.828533 2.324841 0.002089 0.0
2.674917 1.320092 -0.004337 0.0
2.835195 2.352858 0.003921 0.0
1.786095 0.319527 0.002478 0.0
1.043025 0.439073 0.001370 0.0
3.520284 1.571356 -0.003375 0.0
3.454114 0.665734 0.001974 0.0
4.404621 0.897293 -0.000464 0.0
3.320979 2.181337 0.001836 0.0
2.530410 1.600007 -0.000453 0.0
1.713077 0.433637 -0.001339 0.0
2.654632 1.290369 -0.002633 0.0
3.625044 1.747426 -0.003545 0.0
1.502437 2.282781 -0.000924 0.0
0.593130 1.214553 0.001858 0.0
2.741635 1.247046 -0.001846 0.0
2.261912 0.523153 -0.000056 0.0
3.723769 1.549094 -0.000008 0.0
3.951200 1.220633 -0.001574 0.0
2.274462 2.078925 -0.000055 0.0
3.699166 1.829433 0.002813 0.0
0.488349 2.259613 -0.000038 0.0
4.480537 2.302260 -0.001613 0.0
0.290944 1.218650 0.000353 0.0
0.623725 1.839738 -0.000005 0.0
1.683587 0.114018 -0.000431 0.0
3.576671 2.345139 -0.002469 0.0
3.684287 2.032810 -0.001101 0.0
4.241743 0.800765 0.003109 0.0
4.005403 2.395176 -0.001439 0.0
3.524057 0.971240 0.001939 0.0
0.899650 0.282507 0.007546 0.0
2.738704 2.327368 -0.002045 0.0
0.612530 1.377809 0.003162 0.0
2.814564 0.330393 -0.002222 0.0
3.586393 1.929947 0.004906 0.0
1.579072 0.143929 -0.000825 0.0
2.309971 2.124376 0.001101 0.0
1.182615 1.854600 0.001053 0.0
4.032226 0.293475 -0.002819 0.0
4.182935 0.239955 0.000283 0.0
1.398964 1.837053 -0.001343 0.0
4.283055 2.179575 0.003055 0.0
2.224604 1.238693 -0.000839 0.0
3.294899 0.224124 0.000301 0.0
3.979846 0.372453 -0.001864 0.0
3.598054 2.221311 -0.001313 0.0
3.898931 0.291721 0.001409 0.0
1.867571 0.315253 -0.000001 0.0
2.238447 1.055536 0.000584 0.0
3.114426 2.242050 -0.001095 0.0
2.955319 1.195147 0.000950 0.0
3.820674 0.868893 -0.003486 0.0
4.539920 0.015528 -0.000085 0.0
2.397796 1.141952 0.001564 0.0
2.818419 0.901675 0.000254 0.0
1.478271 0.189396 -0.001707 0.0
3.305540 0.160211 -0.003066 0.0
2.547624 0.664423 0.000943 0.0
3.576731 1.335163 0.002666 0.0
4.092807 0.591114 -0.000194 0.0
2.195502 2.127917 -0.000590 0.0
1.972765 0.935679 0.002355 0.0
1.699070 0.978206 0.003801 0.0
0.124216 1.882698 -0.003877 0.0
4.205426 0.134734 -0.002783 0.0
4.125527 1.163630 -0.004097 0.0
2.842696 0.074606 0.001194 0.0
2.619630 1.646470 0.000434 0.0
2.056314 1.222604 0.005151 0.0
3.068214 0.008301 -0.003273 0.0
0.834153 1.537859 -0.002297 0.0
0.004654 1.849073 0.000310 0.0
2.092886 1.140290 0.000380 0.0
3.243050 1.000462 -0.002341 0.0
4.383558 1.700512 -0.001020 0.0
3.878254 1.108820 -0.000476 0.0
3.497559 1.810756 -0.004007 0.0
3.459454 0.153964 0.002843 0.0
1.816808 1.194393 0.001054 0.0
3.887847 1.212889 0.001469 0.0
1.638329 2.253015 0.003893 0.0
2.595707 1.762387 0.000283 0.0
1.996842 1.623655 -0.002707 0.0
1.625028 0.600855 0.002378 0.0
1.025402 0.980167 0.000885 0.0
3.225606 1.147091 -0.004358 0.0
4.336467 0.806279 0.000464 0.0
0.603069 1.560876 0.002613 0.0
3.850485 1.187442 -0.003488 0.0
3.436952 0.795481 -0.002473 0.0
0.596823 0.194480 0.002216 0.0
4.028961 1.433652 -0.004816 0.0
0.170844 1.056824 0.001701 0.0
3.334989 0.442037 0.003555 0.0
2.321701 0.909962 0.000680 0.0
0.959812 1.124489 0.003017 0.0
3.701882 0.617216 -0.001951 0.0
0.515622 2.295233 -0.003150 0.0
0.990238 1.771775 -0.000599 0.0
2.183704 0.726035 -0.002925 0.0
1.963936 0.056189 -0.002329 0.0
0.620398 0.935831 -0.004106 0.0
3.512119 1.029035 0.002406 0.0
0.541391 1.222955 -0.001603 0.0
4.108255 1.048844 0.000171 0.0
0.934999 1.156014 0.003957 0.0
2.617114 0.185266 -0.004267 0.0
2.209982 2.189340 0.001073 0.0
2.038938 1.622632 0.003060 0.0
0.569511 0.946515 -0.001098 0.0
3.018957 0.894282 -0.001762 0.0
2.512162 0.138280 -0.001670 0.0
4.405020 1.158321 0.001979 0.0
2.310606 1.027823 -0.002141 0.0
3.104486 1.370644 0.000176 0.0
1.180807 0.438387 -0.002167 0.0
0.354711 0.581673 0.000509 0.0
4.282872 2.368416 0.001293 0.0
0.771259 0.632797 -0.005394 0.0
3.890885 0.222089 0.002609 0.0
1.316507 2.321294 -0.001998 0.0
0.423170 0.767997 -0.000093 0.0
0.735073 2.365568 -0.001379 0.0
0.565274 0.473672 -0.001958 0.0
0.869534 1.653554 0.002282 0.0
0.547890 0.521484 0.000518 0.0
1.262624 1.555544 -0.000962 0.0
2.161912 1.226206 0.002764 0.0
3.299908 0.453253 -0.000720 0.0
3.881704 0.782786 -0.001009 0.0
3.491119 2.311338 -0.002096 0.0
2.123687 1.366622 -0.003304 0.0
3.910933 1.882135 0.000647 0.0
2.040422 0.545983 0.001248 0.0
1.980448 0.364860 -0.000472 0.0
2.330224 0.864441 0.002470 0.0
1.786259 1.983016 -0.001018 0.0
2.261714 0.059522 0.000477 0.0
1.713552 2.128048 -0.002255 0.0
0.384759 1.553983 0.000112 0.0
4.398270 1.956159 -0.001282 0.0
1.242658 1.062994 0.000920 0.0
1.840000 0.485927 0.000469 0.0
3.633081 1.736620 0.001141 0.0
3.589523 0.103503 -0.000727 0.0
3.998050 2.202384 -0.000740 0.0
0.069419 1.806400 0.002760 0.0
4.420336 2.385286 0.003772 0.0
4.223250 1.344813 0.000372 0.0
0.991893 0.415423 -0.001432 0.0
0.636943 1.307835 -0.006489 0.0
4.158532 2.280673 0.000471 0.0
4.319364 1.674329 0.003141 0.0
0.615067 1.169645 -0.000840 0.0
4.547856 1.598571 0.000042 0.0
3.084733 0.848508 -0.003034 0.0
4.532119 0.524101 0.004104 0.0
4.339831 1.583476 0.000303 0.0
2.452358 1.006652 0.004152 0.0
1.294893 0.064453 0.003464 0.0
4.272267 1.880211 -0.000762 0.0
4.057997 1.297884 0.001074 0.0
3.311069 1.367758 0.002009 0.0
4.513332 1.547573 0.001632 0.0
3.511592 1.949911 0.003755 0.0
3.351617 1.298637 -0.000188 0.0
2.575119 2.260641 0.006419 0.0
2.998281 0.792968 -0.001743 0.0
3.376631 0.367424 -0.000979 0.0
2.975842 0.043951 0.001346 0.0
4.122343 2.376586 0.000585 0.0
3.423328 0.667643 0.001691 0.0
0.133602 1.636587 -0.003842 0.0
0.275864 1.631117 0.000018 0.0
0.509976 0.420719 -0.000607 0.0
4.487987 0.359132 -0.006592 0.0
1.383475 0.188828 -0.001745 0.0
3.031274 0.456395 0.001620 0.0
2.469472 1.299036 -0.002567 0.0
3.516534 0.326200 0.001601 0.0
3.214971 0.628300 -0.002188 0.0
4.296771 0.715051 0.001513 0.0
0.391874 2.381417 -0.002703 0.0
2.617665 1.079476 0.004487 0.0
0.950060 1.289638 0.000446 0.0
3.075773 2.014320 0.002256 0.0
0.700342 2.222942 -0.005479 0.0
2.234749 1.263674 0.000293 0.0
1.069421 1.846031 -0.003083 0.0
3.409311 2.330383 0.000852 0.0
3.401313 0.100008 0.002251 0.0
0.747994 1.722960 -0.001962 0.0
1.510598 0.781838 0.002875 0.0
2.455034 1.358881 0.003215 0.0
2.672098 1.375547 0.001493 0.0
4.086037 0.661111 0.002739 0.0
1.649230 2.161893 0.000580 0.0
0.609621 0.364165 -0.002008 0.0
0.609080 0.271710 0.002504 0.0
0.020418 2.429970 0.001361 0.0
0.358828 1.549072 -0.000443 0.0
1.222499 2.348162 0.001689 0.0
4.094173 2.201522 0.000487 0.0
1.747860 0.308481 0.001354 0.0
1.051439 2.350335 -0.001438 0.0
3.740489 1.223347 0.001527 0.0
3.196791 0.418604 0.001372 0.0
2.690784 1.152037 -0.000817 0.0
1.771698 1.154891 0.001041 0.0
0.087172 0.193368 0.001860 0.0
0.744633 0.246547 0.000911 0.0
1.675110 0.332169 -0.001725 0.0
1.009480 0.771850 0.001787 0.0
2.052101 0.098644 0.000617 0.0
1.444030 2.122357 0.001315 0.0
1.473250 0.259787 -0.000040 0.0
1.627906 2.281949 0.001531 0.0
4.424027 0.702699 -0.000205 0.0
0.026561 2.274276 -0.000981 0.0
3.637600 0.591024 -0.004439 0.0
1.936255 0.625305 -0.002425 0.0
2.039629 0.361218 0.000709 0.0
1.184738 0.632363 -0.002166 0.0
4.110022 1.689259 0.002626 0.0
1.445605 0.757940 0.001909 0.0
3.553008 1.063372 0.002092 0.0
2.617662 0.582929 0.003999 0.0
2.750102 0.791488 -0.001531 0.0
2.195283 0.272799 -0.000269 0.0
2.339456 0.058561 -0.000604 0.0
1.891719 0.022606 0.000526 0.0
2.271987 1.200419 -0.001002 0.0
0.191040 1.841222 -0.003513 0.0
1.314198 1.867505 -0.000407 0.0
2.838915 1.876199 0.002701 0.0
0.957169 1.813611 0.000489 0.0
0.544123 2.380240 0.002896 0.0
1.834165 0.077561 0.003376 0.0
1.258422 2.097594 -0.000961 0.0
