1.577234 0.271089 -0.004357 0.0
4.236932 0.746408 0.000355 0.0
2.788841 0.349132 -0.001543 0.0
0.779710 0.005712 -0.001937 0.0
1.433387 0.841819 0.001020 0.0
2.111232 1.082935 0.000137 0.0
2.175141 0.512874 -0.002272 0.0
2.968995 0.092845 -0.004484 0.0
3.945699 1.597816 -0.001493 0.0
0.395366 0.948403 -0.003896 0.0
0.873855 0.980037 -0.000767 0.0
0.934135 1.716468 -0.002381 0.0
0.544122 1.421513 0.000792 0.0
3.653172 1.441583 -0.001891 0.0
0.584522 1.698051 -0.001057 0.0
2.367458 0.595763 -0.000536 0.0
1.194580 0.511795 -0.000269 0.0
1.514543 1.248574 -0.000959 0.0
2.254440 0.173270 -0.003748 0.0
3.928575 1.177788 -0.001840 0.0
1.512291 0.975344 0.000182 0.0
3.431066 1.005892 0.000527 0.0
4.027181 1.717631 0.000463 0.0
0.768988 0.215687 0.002226 0.0
0.072649 0.919121 -0.000324 0.0
0.589757 1.244523 -0.002401 0.0
1.891967 0.988286 -0.000524 0.0
3.067623 1.645267 0.000939 0.0
2.144259 0.443063 -0.002711 0.0
1.772500 1.489824 -0.001355 0.0
1.366883 0.055481 -0.000047 0.0
3.900118 1.223937 -0.000747 0.0
0.030772 0.913659 -0.002038 0.0
3.420476 0.029115 0.000172 0.0
1.972003 0.229514 0.000481 0.0
0.172916 0.526797 0.003400 0.0
2.232469 1.037804 0.000024 0.0
1.274833 1.400168 0.002491 0.0
4.347417 0.981722 -0.000900 0.0
2.015251 1.657285 -0.000726 0.0
1.155670 1.295967 -0.000348 0.0
2.937151 0.032878 -0.000355 0.0
3.363285 0.703197 -0.001583 0.0
3.431928 1.668950 -0.000477 0.0
3.146129 1.203674 -0.001061 0.0
3.474782 0.021951 -0.004236 0.0
1.562137 0.489107 0.000176 0.0
0.133096 0.680244 -0.000190 0.0
4.237105 1.518399 0.000520 0.0
0.892556 1.503511 0.001188 0.0
3.361692 1.801038 -0.002120 0.0
2.195957 1.675886 -0.004553 0.0
2.556113 1.772416 0.002724 0.0
0.712832 1.497508 0.001121 0.0
1.532219 1.356309 -0.000934 0.0
0.974313 1.350133 0.002799 0.0
3.863758 1.343544 0.000920 0.0
4.240376 0.152757 -0.002830 0.0
0.084796 1.121680 -0.001983 0.0
0.398967 1.061628 -0.000564 0.0
3.558785 1.204871 -0.002655 0.0
3.936422 1.247754 0.000193 0.0
3.637619 1.409943 0.005174 0.0
3.120169 0.208234 -0.001824 0.0
3.404833 0.341726 -0.002441 0.0
0.568532 0.848360 -0.002119 0.0
1.926379 1.669962 0.001241 0.0
0.122993 0.315223 0.000413 0.0
0.701224 0.522520 0.003439 0.0
3.887933 0.665084 0.002088 0.0
1.654979 1.309146 -0.000250 0.0
3.378593 0.889275 -0.002375 0.0
3.988026 1.726312 -0.003835 0.0
4.325166 1.431960 -0.002987 0.0
1.876716 0.274217 0.000705 0.0
3.104874 0.658784 -0.001901 0.0
1.282727 1.199571 0.000487 0.0
0.633674 0.149095 0.000369 0.0
0.447488 1.580721 -0.001078 0.0
1.007564 0.971808 -0.000339 0.0
1.101715 0.955406 -0.000680 0.0
4.059478 0.786944 0.004328 0.0
1.816136 1.488393 0.002328 0.0
1.728233 1.526014 -0.000811 0.0
4.322271 0.671934 0.002403 0.0
1.274093 1.312304 -0.000452 0.0
0.740010 0.119215 0.006018 0.0
1.501683 0.213672 -0.000821 0.0
1.828779 1.082978 -0.000812 0.0
1.727388 0.863228 -0.000806 0.0
0.712035 0.427235 0.000852 0.0
1.052105 1.352955 -0.001139 0.0
3.030127 1.014412 0.001574 0.0
2.037496 0.300212 0.000706 0.0
2.104496 1.358624 0.001319 0.0
3.879299 0.754989 -0.000997 0.0
1.155061 1.836619 0.000094 0.0
3.518375 0.442775 0.000770 0.0
4.243300 1.578336 -0.004454 0.0
0.462727 0.770622 0.000428 0.0
3.284705 1.511814 -0.000897 0.0
3.687613 1.473190 0.000072 0.0
1.530944 0.307147 -0.000824 0.0
4.236846 0.204376 -0.001141 0.0
4.036941 0.083582 -0.001332 0.0
3.397184 0.908147 0.003782 0.0
1.693403 1.406403 -0.000320 0.0
2.838530 0.766293 0.000873 0.0
1.771682 0.126906 -0.000444 0.0
0.485364 0.105684 -0.000745 0.0
0.824185 0.382422 0.004037 0.0
3.447708 0.678993 -0.000872 0.0
0.192036 0.724830 -0.004787 0.0
0.370180 1.263237 -0.000827 0.0
3.866945 0.101498 0.001512 0.0
1.692644 1.799555 0.001938 0.0
4.370037 1.703756 -0.000018 0.0
1.994766 0.964656 0.001285 0.0
2.581052 1.616582 0.003909 0.0
4.203483 0.312075 0.002511 0.0
1.743641 1.060149 0.003141 0.0
1.801885 1.334629 0.000076 0.0
1.378250 0.761255 -0.002279 0.0
0.311547 1.431306 0.000664 0.0
0.244916 1.235569 0.006926 0.0
4.401643 1.604433 0.000148 0.0
0.130151 1.013130 -0.001165 0.0
1.880529 0.483485 0.002815 0.0
3.584467 0.458337 -0.000286 0.0
0.168735 1.515773 -0.006732 0.0
0.498005 0.291993 0.002341 0.0
1.923373 0.630706 -0.001055 0.0
2.060037 0.903796 -0.001673 0.0
2.771327 0.547132 -0.000775 0.0
2.470595 1.506053 0.000550 0.0
0.777266 1.140618 -0.000379 0.0
1.182233 0.209986 0.003193 0.0
0.523617 1.202970 0.004044 0.0
1.768692 0.476388 0.002816 0.0
3.929867 1.729312 0.000832 0.0
3.209251 0.695625 -0.002382 0.0
0.442148 0.905500 -0.000683 0.0
1.857049 1.340830 0.002288 0.0
1.804278 1.053145 0.005288 0.0
2.327111 1.347484 0.000307 0.0
1.532300 0.150959 0.000739 0.0
3.594989 1.820504 -0.000169 0.0
3.376914 1.021716 -0.003997 0.0
3.091390 0.544046 -0.002630 0.0
2.991751 1.143429 -0.000079 0.0
2.482628 0.582998 -0.001625 0.0
1.724230 1.066123 -0.000418 0.0
0.675586 0.023655 0.004459 0.0
4.056635 0.925999 0.000289 0.0
0.771971 0.662550 -0.001059 0.0
0.400229 1.048009 0.000224 0.0
0.712982 0.730950 0.000351 0.0
4.038434 1.496050 -0.002889 0.0
2.788129 0.260323 0.000947 0.0
3.120175 0.279962 -0.001568 0.0
3.855922 0.659792 -0.000551 0.0
2.525855 1.652279 0.000380 0.0
1.544294 0.796589 0.000876 0.0
1.873678 1.555622 0.002069 0.0
0.943899 0.092810 -0.002470 0.0
1.381218 0.293364 -0.004182 0.0
3.854184 1.016267 -0.003130 0.0
3.219580 0.623211 0.002204 0.0
3.047144 1.357674 -0.002082 0.0
0.819200 0.218927 0.002981 0.0
1.179218 0.916023 -0.000852 0.0
4.078205 0.112597 -0.000191 0.0
0.642191 0.997062 0.002158 0.0
0.090622 1.448570 -0.002992 0.0
2.797057 0.735340 0.000069 0.0
4.033993 1.349617 -0.002371 0.0
1.281106 0.897349 0.002952 0.0
2.748026 1.223600 0.000765 0.0
1.272526 0.359047 0.001897 0.0
3.350509 1.611259 -0.004118 0.0
0.365423 0.723784 0.003297 0.0
1.671152 0.496736 0.000693 0.0
2.401753 1.664933 -0.001901 0.0
0.458881 1.218533 -0.001272 0.0
0.183963 0.248955 0.004916 0.0
3.874878 0.277783 -0.001062 0.0
3.125978 0.224471 0.000043 0.0
1.763875 1.245545 -0.003862 0.0
2.921035 1.347923 -0.000355 0.0
4.269050 0.375427 0.001515 0.0
1.549530 0.470777 0.001025 0.0
0.546597 0.842898 0.002244 0.0
0.052650 0.877220 -0.000190 0.0
0.042934 1.556782 -0.001876 0.0
3.237521 1.257843 0.000190 0.0
2.682457 1.739291 0.000258 0.0
2.868135 1.693232 -0.003285 0.0
1.775141 0.453756 0.004477 0.0
3.734840 1.507188 0.000166 0.0
2.451488 1.409945 -0.002844 0.0
2.730604 0.656111 -0.001343 0.0
2.889874 0.079752 0.003485 0.0
4.437064 0.904212 0.000037 0.0
2.878000 0.298717 0.001390 0.0
1.415655 1.633810 -0.000217 0.0
2.539095 1.586475 0.002831 0.0
1.130097 1.067900 0.001793 0.0
0.921347 1.707564 0.001588 0.0
3.637835 0.228418 0.003706 0.0
2.891373 0.028652 -0.004615 0.0
3.286471 0.278981 -0.004091 0.0
1.056535 0.457067 -0.000480 0.0
1.093384 0.710947 0.001175 0.0
2.000769 0.928924 0.001548 0.0
1.110737 1.627028 -0.003617 0.0
0.702674 1.797688 -0.000307 0.0
3.465673 1.488427 0.002881 0.0
1.483192 0.538578 0.003152 0.0
1.089853 1.383741 0.001548 0.0
1.289213 1.450531 -0.001970 0.0
0.795779 0.897106 -0.002602 0.0
2.727968 1.608389 -0.004332 0.0
2.877988 0.956181 -0.000230 0.0
3.162921 1.437681 -0.001747 0.0
1.161493 1.161981 0.000707 0.0
2.542573 1.302481 -0.001115 0.0
0.805389 0.619035 -0.002437 0.0
0.732084 0.927449 0.004267 0.0
2.002619 0.679628 0.002163 0.0
0.985694 0.784204 -0.001910 0.0
3.348746 1.801835 -0.001864 0.0
2.051360 0.199296 0.005264 0.0
2.103347 1.399348 0.001663 0.0
0.966044 0.498366 -0.000115 0.0
0.312933 0.269971 -0.001534 0.0
1.051467 0.921643 0.002715 0.0
3.820406 1.803267 -0.002878 0.0
1.548768 1.809577 -0.003030 0.0
4.059450 0.673439 -0.002870 0.0
3.425850 0.453333 -0.000396 0.0
4.321153 1.596598 0.003218 0.0
2.888852 0.961866 -0.001229 0.0
3.213110 0.518696 -0.001576 0.0
3.603257 0.946884 -0.003008 0.0
1.692271 0.436257 -0.004311 0.0
3.130577 1.543007 -0.000558 0.0
1.446431 0.953552 -0.004961 0.0
3.440050 0.606278 -0.003133 0.0
0.760075 1.287097 0.002619 0.0
1.782634 0.519203 0.002933 0.0
4.374173 1.528116 0.002127 0.0
2.323529 0.109708 0.000185 0.0
1.069223 0.531774 0.001219 0.0
0.495579 1.738534 0.003822 0.0
1.305691 0.005992 0.002094 0.0
0.133456 1.001735 -0.002624 0.0
3.539162 0.811734 0.002294 0.0
3.954186 0.684466 -0.002992 0.0
3.545172 0.704871 -0.003691 0.0
3.342204 1.036676 -0.002222 0.0
1.816468 1.304642 -0.000879 0.0
0.713234 0.350664 0.003487 0.0
0.114969 1.092191 0.001961 0.0
3.161009 1.178849 -0.003113 0.0
3.828591 1.307881 0.002828 0.0
3.983234 1.750053 0.002522 0.0
1.142061 0.220024 -0.000305 0.0
0.014497 1.659964 -0.003249 0.0
3.628429 1.001972 0.000356 0.0
0.119103 1.015476 -0.001525 0.0
1.210408 1.343200 0.000018 0.0
0.351700 1.519041 -0.002381 0.0
0.164778 1.089804 -0.002567 0.0
0.278459 1.744937 -0.000561 0.0
3.191424 1.653667 -0.001223 0.0
3.507179 1.425223 -0.000154 0.0
1.563143 1.649130 0.002835 0.0
0.011185 0.481822 0.000144 0.0
2.792477 1.203859 0.000344 0.0
0.699447 1.067730 0.001369 0.0
2.322067 0.855795 -0.002549 0.0
0.786747 0.194841 0.000139 0.0
3.189953 0.754739 0.002708 0.0
3.988317 1.792268 0.000093 0.0
1.280071 0.701314 -0.000845 0.0
3.987351 1.735548 0.001279 0.0
2.403344 0.977255 -0.005437 0.0
1.530207 0.594337 -0.001197 0.0
2.625754 1.485173 0.003746 0.0
2.408782 1.192119 0.003751 0.0
0.307818 0.838763 0.000579 0.0
1.578736 0.106015 -0.000248 0.0
0.105519 1.600455 0.001558 0.0
0.200135 1.314423 -0.001064 0.0
0.905082 1.509895 -0.004395 0.0
0.879702 0.996157 0.003024 0.0
3.715943 0.710632 -0.002568 0.0
1.458674 0.955920 0.000101 0.0
1.690994 0.602711 0.000723 0.0
1.102364 1.069071 0.000220 0.0
3.689096 1.114691 0.004604 0.0
2.850193 0.946148 0.001908 0.0
2.946622 1.052845 0.003951 0.0
3.989468 0.673937 -0.004758 0.0
3.750837 0.697254 -0.000547 0.0
0.769884 0.569550 0.000723 0.0
0.923008 0.185753 -0.002141 0.0
1.474842 0.740761 0.004127 0.0
1.278396 0.338079 0.000033 0.0
1.608573 1.650660 0.003459 0.0
0.165852 0.460794 -0.000079 0.0
3.285048 1.084176 0.000192 0.0
2.427523 1.816245 0.000178 0.0
2.493941 0.413722 -0.004015 0.0
1.947056 1.374423 -0.003512 0.0
1.142357 1.283718 -0.006810 0.0
4.315379 1.388204 0.004204 0.0
0.794403 0.613373 0.000487 0.0
1.185195 1.516032 0.001551 0.0
0.793465 0.509968 -0.003311 0.0
3.277454 1.308063 -0.005244 0.0
3.228102 1.610701 0.000355 0.0
3.731722 0.025476 0.004503 0.0
2.725837 1.311632 0.003350 0.0
4.247942 1.601662 0.001695 0.0
0.086567 1.287623 0.002686 0.0
0.092263 1.534059 -0.001663 0.0
3.673321 1.129498 0.001502 0.0
3.812424 1.240776 -0.000146 0.0
2.384679 0.777012 0.003373 0.0
0.234201 0.020747 -0.001336 0.0
3.542666 1.651064 0.001736 0.0
0.248308 0.128251 -0.000800 0.0
2.328154 1.754741 0.001780 0.0
2.241836 0.894675 0.000301 0.0
4.028909 0.287591 -0.002168 0.0
0.429772 1.715003 0.001941 0.0
1.297488 0.658351 0.000954 0.0
4.319443 1.242190 0.002521 0.0
1.673508 0.292599 -0.000509 0.0
1.092719 0.154546 0.000151 0.0
0.661217 0.500274 0.000124 0.0
3.370794 1.239923 -0.001355 0.0
3.252892 0.162764 -0.002488 0.0
2.444352 1.205779 0.003056 0.0
1.241878 0.350862 0.000914 0.0
2.812538 0.147818 0.002698 0.0
3.861773 0.914738 -0.000647 0.0
3.551688 0.356910 0.000199 0.0
2.115570 0.446667 -0.003136 0.0
1.090254 0.629528 -0.001493 0.0
1.805433 0.441622 0.003520 0.0
4.102911 0.070653 -0.001429 0.0
3.755316 0.635620 0.000797 0.0
0.281903 1.515670 -0.000637 0.0
0.261263 1.453195 0.000131 0.0
2.853136 1.690722 -0.000474 0.0
2.886054 1.555984 -0.001300 0.0
3.422981 0.806999 -0.000559 0.0
3.720385 1.664647 0.005390 0.0
3.511855 0.191945 -0.001726 0.0
1.301376 1.775498 0.006415 0.0
1.211375 1.483074 -0.000089 0.0
4.185176 0.599555 0.001591 0.0
2.248001 1.034157 -0.001470 0.0
2.029045 1.205730 -0.002981 0.0
1.506060 1.389313 0.002284 0.0
1.509767 1.283922 -0.000149 0.0
4.109251 0.420561 -0.001361 0.0
1.230209 1.008994 0.000381 0.0
2.295364 0.766337 0.001439 0.0
1.118821 1.436782 0.001264 0.0
1.412318 1.157484 -0.000786 0.0
2.821193 1.745915 -0.001434 0.0
3.974405 1.678757 0.000784 0.0
2.682255 0.224361 -0.000857 0.0
0.385011 0.717316 0.003374 0.0
2.837486 1.012043 -0.004081 0.0
3.984853 0.026168 0.001093 0.0
1.945867 1.307254 0.000004 0.0
0.332702 1.563136 -0.000580 0.0
4.098166 0.177663 -0.002327 0.0
0.559460 0.527758 0.001318 0.0
1.762744 1.643403 0.002619 0.0
3.029436 0.955202 -0.000785 0.0
3.423442 1.812292 -0.000272 0.0
1.776240 0.396447 -0.005817 0.0
0.014926 0.660936 -0.000211 0.0
3.929489 1.183002 -0.001211 0.0
4.319474 0.246930 -0.000939 0.0
4.395907 0.264444 0.007017 0.0
4.030263 0.906462 -0.001323 0.0
2.105826 1.129910 0.002272 0.0
3.060350 0.455718 -0.001603 0.0
1.513315 0.737118 0.002200 0.0
4.324344 1.405564 -0.000795 0.0
2.007570 0.176968 -0.000067 0.0
2.980053 1.034916 -0.002293 0.0
0.974027 0.723395 0.004318 0.0
2.422936 0.585744 0.005610 0.0
1.541950 0.318642 0.004325 0.0
0.821935 0.451565 -0.000542 0.0
4.219271 1.125639 0.000635 0.0
0.724324 0.242426 -0.000006 0.0
0.953913 1.162263 -0.000448 0.0
0.626288 0.638979 -0.000772 0.0
0.614089 1.681225 -0.003696 0.0
0.536373 1.143894 0.000420 0.0
0.091071 0.911103 -0.002798 0.0
3.940744 1.131552 -0.003040 0.0
1.137866 0.810366 0.003825 0.0
4.055128 1.616040 0.001554 0.0
1.547119 0.810903 0.006031 0.0
2.049348 0.364733 -0.002600 0.0
2.214996 0.120854 -0.002902 0.0
4.401293 0.727507 -0.003320 0.0
4.320263 0.231698 0.001553 0.0
2.906492 1.123823 0.002131 0.0
4.024563 0.667665 -0.000974 0.0
3.296258 1.409266 -0.003136 0.0
3.699619 0.923173 0.000264 0.0
1.005602 0.305323 0.000383 0.0
4.165294 0.265671 -0.001976 0.0
3.713439 1.679983 0.004870 0.0
0.548280 0.124320 -0.001385 0.0
1.791178 0.781713 -0.001689 0.0
2.871088 0.729548 0.003437 0.0
1.379092 1.463811 0.001551 0.0
2.471875 1.009542 0.003277 0.0
0.898954 0.743105 -0.005086 0.0
3.222177 0.719861 0.000518 0.0
0.238363 0.770205 -0.001585 0.0
4.098758 1.226771 -0.001583 0.0
0.511243 0.437915 -0.002624 0.0
2.782284 1.619394 0.002148 0.0
3.025770 0.461098 -0.000084 0.0
1.181930 1.611337 0.001404 0.0
4.065678 0.131383 0.002572 0.0
0.802419 1.421209 -0.000989 0.0
3.057204 0.608409 -0.003265 0.0
4.392584 1.007525 -0.002406 0.0
0.877022 0.399327 -0.000453 0.0
2.852331 0.210902 -0.002705 0.0
3.624168 0.991010 0.002368 0.0
2.008392 0.264418 -0.001998 0.0
3.270874 0.101562 0.001147 0.0
0.558308 1.081045 -0.003033 0.0
0.919574 0.029714 -0.003952 0.0
1.613146 1.248992 0.001538 0.0
4.306526 1.700618 0.002149 0.0
0.178935 1.337372 0.000589 0.0
3.034498 1.793974 0.000880 0.0
1.270545 1.388775 0.001340 0.0
3.361752 1.388553 -0.005975 0.0
3.438094 1.180586 -0.000317 0.0
2.437341 0.865311 0.005011 0.0
1.681598 1.193486 -0.001087 0.0
4.282406 1.092366 -0.001898 0.0
2.247513 1.343782 -0.002037 0.0
1.605739 1.172530 -0.000274 0.0
1.370719 1.793542 -0.003358 0.0
2.982092 0.701689 -0.000994 0.0
1.922796 1.103682 -0.002148 0.0
0.095466 0.663004 -0.001936 0.0
4.346974 0.518327 0.002456 0.0
2.348697 1.542409 -0.001291 0.0
0.976639 0.041576 0.001165 0.0
3.487514 1.290299 0.004749 0.0
2.543828 1.135585 -0.001958 0.0
4.143901 1.555527 0.002727 0.0
1.733205 1.407944 0.004878 0.0
0.057572 0.097794 -0.001002 0.0
3.826530 0.523211 0.004079 0.0
0.258349 0.304513 -0.001906 0.0
1.225937 0.566342 0.000621 0.0
0.074590 0.835956 -0.000309 0.0
1.381388 0.270140 -0.004997 0.0
3.329674 0.548839 0.001523 0.0
2.413049 1.329769 -0.001058 0.0
1.910539 1.004337 -0.000944 0.0
4.417766 0.989495 0.007490 0.0
2.783564 0.002812 0.003886 0.0
4.177422 1.101996 0.000708 0.0
1.341023 0.093707 0.001536 0.0
0.574604 1.710458 0.001788 0.0
2.759814 1.162297 0.000737 0.0
3.587797 1.441497 -0.002543 0.0
1.155399 1.309231 0.001796 0.0
4.350483 0.968794 -0.002946 0.0
0.995679 0.999179 0.003181 0.0
0.879792 0.104162 -0.001343 0.0
0.838069 0.380930 -0.004325 0.0
1.396667 0.973196 0.000355 0.0
2.615993 1.331973 0.003233 0.0
1.043162 0.633524 -0.004120 0.0
0.690290 1.611619 0.002019 0.0
3.125976 1.610678 0.003026 0.0
1.726976 0.457775 0.000282 0.0
3.838310 0.953867 -0.001732 0.0
2.614483 1.529936 0.002072 0.0
2.415863 0.216258 0.003788 0.0
3.608003 1.758053 0.001319 0.0
2.930481 1.626298 0.004121 0.0
1.369346 0.354458 0.005649 0.0
1.376946 0.120732 0.001054 0.0
1.606647 0.690091 -0.004061 0.0
1.082561 0.687446 -0.000653 0.0
1.374932 1.543914 0.000213 0.0
2.455571 1.551500 -0.000339 0.0
1.876618 1.580088 0.000997 0.0
0.442094 1.134283 -0.000014 0.0
2.865653 0.347105 -0.001886 0.0
2.841428 1.191564 0.000649 0.0
2.971416 1.133008 0.002365 0.0
2.900888 0.180116 0.002572 0.0
2.303043 0.359179 -0.000608 0.0
2.256280 1.107340 -0.000317 0.0
3.277452 0.737455 0.000664 0.0
3.843436 0.771608 -0.004600 0.0
0.528000 0.673824 0.003141 0.0
1.795817 0.683170 -0.001437 0.0
1.587396 1.283394 0.001521 0.0
0.478150 1.025373 0.002531 0.0
1.824032 1.103610 0.001460 0.0
2.804990 0.512661 -0.004955 0.0
0.617777 0.937624 0.003909 0.0
1.501145 0.258800 0.002912 0.0
2.069374 1.510600 -0.002273 0.0
4.109758 0.849442 -0.000841 0.0
2.909621 1.023106 0.000682 0.0
4.430937 1.344405 -0.001332 0.0
3.556968 1.663469 0.002375 0.0
0.244845 1.538009 0.003661 0.0
2.647088 1.118835 -0.004911 0.0
1.792744 1.710659 -0.002471 0.0
0.458591 1.328675 -0.000445 0.0
0.724429 0.502141 0.001123 0.0
2.783227 0.623859 -0.001066 0.0
3.383958 0.419554 -0.002287 0.0
3.019934 0.422418 -0.001741 0.0
4.086645 1.539629 -0.002827 0.0
2.795424 0.619888 0.000065 0.0
3.219244 0.633738 0.004910 0.0
2.026255 1.171599 0.002430 0.0
0.505477 0.083520 0.000017 0.0
3.746816 1.462041 0.001905 0.0
0.636548 0.196186 -0.002342 0.0
2.354872 0.025535 -0.001806 0.0
0.975243 1.079118 -0.000189 0.0
1.828933 0.447857 0.000248 0.0
0.385750 1.649509 -0.000991 0.0
3.039110 1.177831 0.001524 0.0
2.088062 1.141172 -0.001030 0.0
1.384962 0.464434 -0.002016 0.0
3.902730 0.357246 -0.000822 0.0
0.379321 0.678377 -0.001256 0.0
2.999717 1.548953 0.001117 0.0
3.453175 0.047966 -0.004520 0.0
3.765044 1.465687 0.001449 0.0
1.230250 1.147515 0.002561 0.0
0.820470 0.969753 0.000384 0.0
1.390870 1.600439 0.003566 0.0
3.232463 0.323231 -0.001715 0.0
0.794248 0.662140 0.001783 0.0
4.355178 0.301461 0.002199 0.0
0.998834 1.032724 0.000115 0.0
1.133368 1.123500 0.003221 0.0
2.344487 -0.001864 0.001400 0.0
2.081613 0.887126 0.003806 0.0
3.652886 1.656239 0.000461 0.0
0.818250 0.930931 -0.001287 0.0
3.769203 0.055370 0.001051 0.0
0.129867 1.307225 -0.001364 0.0
0.349788 0.500205 -0.001153 0.0
1.074797 0.881864 0.001282 0.0
1.857124 1.686617 0.000231 0.0
1.476429 1.482133 0.002179 0.0
3.315584 1.631488 -0.002053 0.0
1.099092 0.543329 -0.001354 0.0
3.947286 1.290824 -0.000913 0.0
2.416013 1.391773 0.002118 0.0
0.505622 0.597513 0.001375 0.0
3.627570 0.317742 0.000820 0.0
3.427502 0.007321 -0.003041 0.0
4.132795 1.729054 -0.001204 0.0
2.864086 1.597333 0.000041 0.0
3.735516 1.229321 0.001508 0.0
3.993869 0.974458 0.004070 0.0
1.765539 0.941042 -0.002872 0.0
0.346204 1.828446 -0.004810 0.0
2.634434 0.978915 -0.004484 0.0
0.725487 0.406667 0.002485 0.0
2.380922 0.898789 0.002440 0.0
2.944742 0.571156 -0.000580 0.0
3.925180 1.812887 -0.001617 0.0
2.980527 1.463121 0.004161 0.0
2.882627 1.702907 -0.000900 0.0
1.007910 0.607487 0.003298 0.0
2.649339 1.003764 -0.002611 0.0
0.737025 0.673488 0.000457 0.0
3.216950 1.327115 -0.000615 0.0
1.838870 0.047081 0.001731 0.0
2.794288 1.214809 0.002781 0.0
4.340140 1.087833 -0.000720 0.0
0.536607 1.502277 0.003888 0.0
2.776884 0.890347 -0.002617 0.0
1.705851 0.606423 0.000457 0.0
1.046972 1.606642 0.000095 0.0
2.901887 1.480649 0.002779 0.0
1.568824 1.764476 0.002084 0.0
2.562939 0.824759 -0.000479 0.0
0.499493 1.399590 0.001224 0.0
1.692506 0.563309 -0.000566 0.0
2.292778 0.047145 0.004330 0.0
0.378322 0.258116 0.005463 0.0
0.415486 1.606635 0.001051 0.0
1.741901 1.171312 -0.001002 0.0
1.335090 0.725322 0.000439 0.0
2.577461 1.553529 -0.001033 0.0
3.717555 1.491067 -0.000395 0.0
3.617101 0.442713 -0.002087 0.0
2.337066 1.655545 -0.001385 0.0
2.726438 0.402036 -0.001149 0.0
3.615104 0.900943 0.001034 0.0
3.588406 1.760134 0.002948 0.0
0.665246 0.092879 0.003620 0.0
3.693220 0.822811 -0.004258 0.0
3.120020 1.063134 0.003014 0.0
4.061074 0.776016 -0.004859 0.0
3.344748 1.451823 0.004261 0.0
2.747879 0.269093 -0.003111 0.0
3.137421 1.058735 -0.000807 0.0
3.686602 0.386122 0.000724 0.0
0.222438 1.712442 0.001374 0.0
4.035870 1.091057 0.002464 0.0
0.928424 0.619641 0.003871 0.0
1.051809 0.770228 0.001771 0.0
3.638068 0.246052 0.000038 0.0
4.221201 1.026042 0.002619 0.0
0.125057 0.146917 -0.002306 0.0
3.552918 1.733385 -0.004238 0.0
3.431978 1.324718 0.003931 0.0
2.998887 0.263714 -0.002324 0.0
4.080640 1.275276 0.002707 0.0
0.296294 1.149970 0.000103 0.0
2.492264 1.662333 0.000145 0.0
3.327052 0.155279 -0.000767 0.0
1.753946 1.357136 -0.005059 0.0
0.189987 0.298522 -0.000723 0.0
3.714896 1.321400 -0.002625 0.0
2.593724 1.367776 -0.002594 0.0
1.730646 1.677673 -0.006035 0.0
1.973148 0.556186 0.000328 0.0
1.336474 1.100421 -0.008214 0.0
2.131982 1.012476 0.002091 0.0
0.975250 0.866688 -0.002914 0.0
1.661012 0.960781 0.001020 0.0
1.087465 0.638817 0.001834 0.0
4.151846 0.377393 0.000279 0.0
0.400611 0.546589 0.000666 0.0
1.249144 0.045483 0.002092 0.0
1.418627 1.754302 -0.007384 0.0
2.634636 0.563730 -0.000748 0.0
3.407744 0.455482 -0.000256 0.0
2.071244 0.238552 0.003855 0.0
3.024324 0.996200 0.002249 0.0
2.656587 1.460362 0.005628 0.0
3.605351 0.679175 -0.003376 0.0
3.664628 1.094442 -0.000785 0.0
0.480246 1.410005 -0.002538 0.0
1.451483 1.501300 -0.000940 0.0
1.111114 0.737658 -0.003003 0.0
1.762445 0.812128 -0.000671 0.0
1.375722 1.680042 0.000524 0.0
2.819014 1.620986 -0.001891 0.0
0.763786 1.734518 0.002286 0.0
1.953601 1.677190 0.000138 0.0
3.786251 1.296436 0.000907 0.0
3.626771 1.295775 -0.000243 0.0
1.719230 1.320391 -0.000175 0.0
0.293009 0.247292 0.002978 0.0
3.837783 1.760399 0.002518 0.0
1.325786 0.225268 -0.001865 0.0
1.629057 1.054703 0.003663 0.0
3.121441 1.649329 0.001912 0.0
1.352150 0.922151 -0.002570 0.0
3.067628 1.743558 -0.002223 0.0
4.337349 0.024478 -0.002604 0.0
4.135672 1.457620 0.001205 0.0
2.858541 1.737647 -0.003230 0.0
1.862407 1.490763 0.000358 0.0
4.098562 0.748235 -0.000490 0.0
1.418192 1.750082 0.002929 0.0
0.273731 0.563921 0.003210 0.0
1.751633 0.728824 0.001230 0.0
2.336250 0.655829 0.002028 0.0
3.758847 0.461863 0.001449 0.0
4.284601 0.695359 0.002495 0.0
1.086206 0.928917 0.002408 0.0
3.903255 0.841441 0.001450 0.0
0.830879 0.323718 0.002504 0.0
1.180511 1.657199 0.001942 0.0
2.725149 1.100285 0.002720 0.0
1.377549 0.019087 -0.001323 0.0
3.770039 1.109567 0.004167 0.0
1.287125 0.777328 -0.002468 0.0
4.238367 0.388622 -0.000108 0.0
2.216298 0.278515 0.001737 0.0
1.484733 0.450024 -0.002534 0.0
0.190289 0.461989 -0.004684 0.0
1.683923 1.004524 -0.001796 0.0
3.788012 0.072244 0.001753 0.0
3.104321 0.537714 0.001165 0.0
0.388322 0.171592 0.001985 0.0
3.857353 1.425351 -0.002272 0.0
3.562705 0.159122 -0.002674 0.0
2.047999 0.882097 -0.001323 0.0
2.036162 0.003226 -0.001830 0.0
2.837592 0.180159 -0.002487 0.0
3.330240 1.465547 -0.004678 0.0
0.943195 0.195647 -0.002228 0.0
2.651854 1.601340 -0.002181 0.0
1.331754 1.286344 -0.005439 0.0
3.937955 1.468064 0.000752 0.0
0.305180 0.474063 0.002405 0.0
4.394107 1.790298 0.001628 0.0
0.341528 1.030043 0.000474 0.0
2.707850 0.679317 0.001565 0.0
3.145331 0.432213 -0.002617 0.0
1.927994 1.799660 -0.001567 0.0
0.440803 0.006915 -0.003127 0.0
3.999191 0.824559 -0.002723 0.0
2.323639 1.103486 -0.001072 0.0
0.020332 0.044072 0.000031 0.0
2.923272 1.214687 -0.000272 0.0
3.492148 0.658322 0.001177 0.0
0.974597 0.421128 -0.001714 0.0
2.214927 0.377411 0.000448 0.0
2.381542 1.729639 0.000810 0.0
1.043091 0.326326 0.000671 0.0
0.748222 1.654437 -0.002934 0.0
4.244022 0.513793 -0.003605 0.0
3.864180 0.115640 -0.001998 0.0
1.225244 0.478441 -0.001450 0.0
2.360257 0.869680 -0.001631 0.0
2.638747 1.535306 0.001631 0.0
1.061288 0.488625 0.000598 0.0
1.143407 1.381200 -0.004227 0.0
0.762161 0.198675 -0.002077 0.0
1.341978 0.104686 -0.001340 0.0
3.654482 0.479482 -0.001318 0.0
0.474457 1.186101 -0.000734 0.0
2.084684 0.096720 -0.004885 0.0
0.846263 0.971970 0.003044 0.0
3.696321 0.454200 0.001832 0.0
1.565967 1.392539 -0.004581 0.0
3.855747 1.361092 -0.001401 0.0
2.564825 0.160400 -0.001267 0.0
1.254777 0.322150 0.000300 0.0
1.785186 1.706770 0.001757 0.0
3.806382 0.259822 0.000228 0.0
1.837800 1.386520 -0.000209 0.0
2.749790 1.519414 -0.002049 0.0
3.458850 0.397168 0.001292 0.0
2.176498 1.183880 -0.001482 0.0
3.246729 1.652512 0.004153 0.0
4.192174 0.393381 -0.002305 0.0
0.466858 1.605938 0.001719 0.0
3.621625 0.156257 0.000193 0.0
1.346934 1.502590 0.003399 0.0
3.091084 0.534664 -0.004964 0.0
0.411205 1.027731 -0.001254 0.0
3.731581 0.377928 0.001573 0.0
0.001800 1.643136 0.001850 0.0
1.506984 0.507354 -0.001245 0.0
4.007371 1.353098 -0.000175 0.0
0.248270 0.838518 -0.001383 0.0
1.140747 1.526717 0.002519 0.0
1.973517 1.012948 -0.000820 0.0
4.429963 1.643041 0.003071 0.0
3.281916 0.603238 -0.001077 0.0
3.938650 0.699122 -0.003948 0.0
0.185018 1.816339 0.003269 0.0
1.801498 1.783799 -0.001707 0.0
0.924676 0.855066 -0.002926 0.0
1.074856 1.320763 -0.002326 0.0
2.597601 0.039284 -0.000600 0.0
2.720199 0.778487 -0.001203 0.0
3.705907 1.604675 -0.000154 0.0
2.282829 0.792822 -0.000225 0.0
4.049142 0.702118 -0.002024 0.0
4.231391 0.949384 0.001733 0.0
4.100073 0.778734 0.000079 0.0
2.572737 1.491863 -0.003753 0.0
1.477982 0.442455 0.001667 0.0
2.500862 1.350346 -0.000367 0.0
3.767763 0.313022 0.000623 0.0
1.093922 1.239814 0.003117 0.0
2.192865 0.186319 0.003164 0.0
4.344022 0.739874 -0.007490 0.0
3.575915 0.420863 0.000675 0.0
0.996402 0.981773 -0.000559 0.0
2.221711 1.019802 -0.000933 0.0
3.544513 1.219160 -0.000784 0.0
0.360628 1.475783 -0.003284 0.0
3.589028 0.131018 0.001789 0.0
3.050975 0.060390 0.001707 0.0
2.445044 1.073655 0.003474 0.0
1.385342 1.494920 0.002368 0.0
4.069484 0.074937 0.000140 0.0
4.061096 1.094754 0.004548 0.0
0.838611 0.684703 -0.001063 0.0
0.919647 1.816848 -0.002567 0.0
4.232913 1.296670 -0.001329 0.0
3.960716 1.062855 -0.000733 0.0
4.412338 0.523155 -0.000500 0.0
3.907447 0.137447 0.003084 0.0
3.647202 0.503248 -0.000293 0.0
1.611272 0.201984 0.000323 0.0
2.497969 0.425430 -0.001508 0.0
0.846049 0.511332 -0.000634 0.0
2.193474 1.613931 0.004607 0.0
4.048885 1.225409 -0.005607 0.0
1.896403 0.714570 0.000646 0.0
3.242460 0.270333 -0.000087 0.0
2.419788 1.524059 -0.003848 0.0
2.062909 0.192212 -0.002971 0.0
4.401054 0.875259 -0.001076 0.0
3.933898 1.559264 -0.002645 0.0
0.678437 1.671385 0.000556 0.0
1.637386 0.497231 -0.000144 0.0
2.675134 0.094576 -0.000839 0.0
1.671063 0.331037 0.001883 0.0
3.575889 1.553685 -0.002446 0.0
3.812200 1.423949 0.001507 0.0
4.040701 1.464231 -0.001428 0.0
2.861732 0.981301 -0.002954 0.0
2.465742 1.172371 -0.001772 0.0
1.001228 1.694522 -0.001107 0.0
3.928940 0.016164 -0.005501 0.0
0.574802 0.385782 -0.002003 0.0
2.318300 0.966654 -0.002019 0.0
3.147730 1.618116 0.002319 0.0
0.617773 0.376143 0.001404 0.0
2.944812 1.700918 -0.001228 0.0
0.307418 1.190373 -0.000665 0.0
3.890015 1.673721 -0.002834 0.0
4.422169 1.377291 -0.000080 0.0
3.980468 1.728751 -0.000507 0.0
1.100488 0.294427 0.001709 0.0
0.423483 0.217754 -0.003881 0.0
3.532689 0.254058 0.000693 0.0
3.283342 1.468172 -0.001725 0.0
1.747496 0.583111 -0.002329 0.0
2.226759 0.303468 0.005463 0.0
0.899739 1.121490 -0.003316 0.0
0.440107 0.508078 -0.000404 0.0
0.727781 0.171297 -0.001617 0.0
2.800398 0.628642 -0.000019 0.0
2.689835 0.568403 -0.003855 0.0
3.289831 0.334716 0.006989 0.0
0.146937 1.312993 -0.001537 0.0
3.597647 0.973515 -0.002938 0.0
4.118642 0.667598 -0.001823 0.0
0.699241 1.002542 -0.000304 0.0
3.348417 0.637140 0.002187 0.0
2.590481 1.597149 -0.000516 0.0
0.409464 1.064447 -0.000511 0.0
1.128951 0.497547 0.003423 0.0
3.833828 1.337732 -0.002805 0.0
4.218731 0.512048 0.001764 0.0
3.575857 0.227150 -0.002266 0.0
2.388253 0.420998 0.000100 0.0
2.242155 1.476390 0.003071 0.0
0.974980 0.290966 -0.004174 0.0
2.967699 1.251846 -0.001102 0.0
3.630428 1.755918 -0.000573 0.0
1.013182 0.418098 -0.000457 0.0
1.151875 0.321124 -0.003373 0.0
4.119016 1.633365 -0.002468 0.0
3.215345 1.463113 -0.002678 0.0
2.375323 1.133444 0.003020 0.0
2.739925 0.022348 0.002269 0.0
1.982864 0.940986 -0.001249 0.0
3.064589 0.859699 0.000725 0.0
0.804141 1.689924 -0.001025 0.0
2.323692 0.087255 0.000681 0.0
3.596979 0.264583 0.002827 0.0
0.293594 1.572814 -0.000934 0.0
0.790856 1.178426 -0.000640 0.0
0.227276 0.526891 0.000731 0.0
2.553606 0.316659 0.000862 0.0
3.646661 1.200152 0.003906 0.0
2.831669 0.882976 0.002784 0.0
2.637482 1.183416 -0.003615 0.0
1.387282 1.728892 -0.003907 0.0
0.401086 1.525066 -0.000639 0.0
4.129754 0.773996 -0.001371 0.0
2.344483 1.629939 -0.002074 0.0
0.956257 1.341202 0.002045 0.0
1.085573 1.559194 0.000445 0.0
4.331158 1.775183 0.000885 0.0
2.520002 0.553728 -0.001123 0.0
2.831536 1.051842 0.000678 0.0
1.305891 0.838773 0.002633 0.0
1.872551 1.339252 0.001630 0.0
2.005945 1.611543 0.002413 0.0
2.298920 0.822887 -0.000170 0.0
1.169015 0.231594 0.002850 0.0
2.155304 0.941752 0.000461 0.0
3.593719 1.597222 0.003695 0.0
0.924467 0.644713 0.001922 0.0
1.114361 0.484740 0.001275 0.0
4.409543 1.822181 0.003513 0.0
2.881382 1.811522 0.000669 0.0
2.734986 1.308755 0.002703 0.0
2.145060 1.760735 -0.001806 0.0
1.730899 1.757559 -0.000600 0.0
3.884468 0.765061 -0.003512 0.0
3.787208 1.735089 -0.000219 0.0
3.878847 0.716974 0.001429 0.0
1.766578 0.568117 0.000148 0.0
2.526418 0.223149 -0.001798 0.0
0.358497 0.210250 0.002191 0.0
2.002533 1.357681 -0.001273 0.0
0.723948 0.793706 0.004610 0.0
4.217490 0.905057 -0.001850 0.0
0.693594 0.474239 0.001937 0.0
1.203477 0.798692 0.000461 0.0
1.413238 1.169596 0.003011 0.0
3.568484 0.163162 0.001208 0.0
0.792537 0.534986 0.002250 0.0
3.223479 1.258745 0.000606 0.0
3.782165 1.424444 0.000637 0.0
2.564871 1.405472 -0.003327 0.0
4.228146 1.030051 -0.000093 0.0
2.596714 0.539039 -0.001482 0.0
3.267471 0.009458 -0.003801 0.0
0.547767 0.350743 -0.004114 0.0
3.306102 1.232453 0.001041 0.0
3.852805 1.318979 -0.002083 0.0
0.252560 1.629738 0.000077 0.0
2.326851 1.045210 -0.002130 0.0
0.405543 0.722309 0.000747 0.0
0.411066 1.283873 -0.003317 0.0
2.100952 0.013371 0.001689 0.0
4.437844 1.126307 0.001221 0.0
1.235123 0.499828 -0.001433 0.0
2.815060 1.514190 0.000202 0.0
0.143995 0.558875 0.001044 0.0
1.896788 0.300299 0.001310 0.0
2.125542 0.264014 -0.001019 0.0
4.124535 1.554202 0.000534 0.0
3.916948 0.252174 0.000874 0.0
0.065874 0.752732 -0.001503 0.0
0.443088 1.705032 -0.002925 0.0
4.244026 0.323633 0.000215 0.0
1.396085 0.641525 -0.000306 0.0
1.197265 0.416217 0.003412 0.0
1.209421 1.102405 -0.001204 0.0
2.254031 0.728328 0.000501 0.0
2.192130 1.502702 0.000825 0.0
4.291017 0.699123 -0.002146 0.0
0.519367 1.357240 -0.001632 0.0
4.042897 0.131164 -0.001535 0.0
4.416491 1.278688 0.003454 0.0
0.723026 0.821836 0.002297 0.0
0.049563 1.049472 -0.005050 0.0
0.873560 0.136687 0.000242 0.0
1.723304 1.604726 0.003087 0.0
0.219926 0.262441 -0.006640 0.0
2.131713 0.710833 0.001396 0.0
2.229007 1.470223 0.000755 0.0
4.244408 0.161482 -0.001583 0.0
1.837297 1.239127 -0.002181 0.0
2.386993 0.163870 0.005402 0.0
0.195218 1.744008 0.001320 0.0
1.807675 0.444888 -0.002137 0.0
2.517019 1.770165 0.000563 0.0
2.562777 1.165806 -0.002267 0.0
3.819574 0.724815 -0.000343 0.0
0.184225 1.625188 0.001130 0.0
1.682180 0.313957 -0.002648 0.0
2.270226 0.516777 -0.003678 0.0
3.796725 1.751475 -0.004653 0.0
0.653245 0.991083 0.004047 0.0
3.821841 0.517740 0.000510 0.0
3.758359 1.699373 -0.003642 0.0
1.655495 1.182331 -0.001180 0.0
2.899553 0.686781 -0.001298 0.0
2.377988 1.653198 0.004768 0.0
3.550009 0.563184 -0.000847 0.0
2.283916 0.506423 -0.005070 0.0
3.337708 1.357008 0.000676 0.0
0.267310 0.208974 0.001441 0.0
3.205271 0.504425 0.003412 0.0
1.019288 1.344797 0.005420 0.0
0.620626 0.217082 -0.005655 0.0
2.582400 1.542812 0.002107 0.0
1.206818 0.938326 -0.005501 0.0
1.609569 1.047506 0.000240 0.0
1.354342 0.279131 -0.000522 0.0
0.123612 1.541388 0.002868 0.0
4.268152 0.798952 -0.000997 0.0
2.962203 1.315298 -0.005109 0.0
2.265942 0.107976 0.002256 0.0
3.410356 0.950398 -0.002556 0.0
4.200563 1.616646 -0.003167 0.0
2.620539 1.487805 -0.001411 0.0
0.025947 0.589434 -0.005114 0.0
2.448657 1.741034 0.003335 0.0
3.698077 0.350222 -0.003566 0.0
4.361333 0.561583 -0.001377 0.0
1.180574 0.176068 -0.000244 0.0
2.829822 1.479601 -0.002249 0.0
1.500415 1.757726 -0.004886 0.0
2.930184 1.364699 0.000157 0.0
3.370942 1.790442 -0.001180 0.0
1.243465 0.497539 0.000904 0.0
3.325891 0.322835 0.003498 0.0
3.677450 0.687090 -0.000055 0.0
2.044997 0.365078 -0.002391 0.0
0.497856 0.425922 0.002098 0.0
0.211625 1.149186 -0.002772 0.0
0.578719 0.978779 -0.000169 0.0
1.874503 0.872986 -0.007046 0.0
0.943975 1.194894 0.005036 0.0
1.290652 0.487680 -0.001439 0.0
1.500482 1.092885 -0.000405 0.0
2.089246 1.798254 -0.000059 0.0
2.939795 1.421863 -0.004644 0.0
1.028655 0.952156 -0.004284 0.0
2.065962 1.336466 0.005878 0.0
3.788667 0.470843 0.000535 0.0
3.596995 1.001527 0.000522 0.0
0.994248 1.340926 0.000650 0.0
4.145587 0.607815 0.004650 0.0
0.570687 0.467865 -0.000915 0.0
2.177400 0.266135 0.000658 0.0
0.387933 0.159148 0.001041 0.0
0.773595 1.089076 0.006047 0.0
1.413190 1.284679 -0.000079 0.0
0.811888 0.465611 0.003323 0.0
2.683099 0.564032 0.004502 0.0
4.413626 0.834691 0.000094 0.0
1.458259 0.416273 0.000550 0.0
4.409387 0.234560 0.002729 0.0
0.137587 0.204186 -0.003038 0.0
0.988721 0.533871 0.001467 0.0
0.233981 0.469998 -0.002525 0.0
4.294678 1.605387 -0.001018 0.0
0.600326 1.153976 0.001184 0.0
0.880910 1.075541 -0.004944 0.0
2.755818 0.426856 -0.001001 0.0
4.001800 0.168794 -0.001956 0.0
2.970124 0.693472 -0.003941 0.0
1.589638 0.505857 0.000915 0.0
3.428056 1.508457 -0.000320 0.0
1.721828 1.724870 0.002414 0.0
0.400908 0.047434 0.002014 0.0
3.777417 0.460753 0.000350 0.0
3.000111 0.658200 -0.004114 0.0
1.939740 1.308532 -0.002032 0.0
3.534335 1.558652 -0.001152 0.0
2.677956 1.617059 0.001150 0.0
0.875950 1.236669 0.001779 0.0
0.519148 0.294251 -0.001059 0.0
0.014227 0.893772 0.001621 0.0
3.701865 1.597437 -0.002379 0.0
3.177359 0.931865 0.003163 0.0
1.293502 1.148413 0.002324 0.0
0.825484 1.169955 0.001481 0.0
0.646591 1.831768 -0.006895 0.0
3.964223 1.410163 0.000468 0.0
2.824157 0.273589 0.001075 0.0
1.243277 0.805727 -0.002853 0.0
1.192637 1.000187 0.002274 0.0
2.584160 0.255141 -0.002373 0.0
2.116142 0.039016 0.000587 0.0
4.219250 0.627573 0.003171 0.0
4.212002 1.327843 0.000422 0.0
4.176319 0.527123 0.004466 0.0
0.383462 0.894962 -0.004459 0.0
3.861749 1.709990 0.004570 0.0
0.078305 0.932419 -0.005041 0.0
0.271267 0.293181 0.004343 0.0
1.920109 0.148461 0.000691 0.0
4.433867 0.661506 0.004116 0.0
0.545365 0.798649 0.004695 0.0
2.866878 0.500107 0.001031 0.0
4.052829 0.725646 0.000281 0.0
3.685187 0.239465 0.001087 0.0
1.682286 0.809380 0.005352 0.0
0.235427 1.789524 0.002807 0.0
3.055232 1.627248 0.002066 0.0
2.850205 1.320446 -0.000596 0.0
2.813369 0.863813 0.002922 0.0
0.515409 0.401476 -0.002320 0.0
0.824554 1.366544 -0.005688 0.0
2.255190 0.406337 0.001682 0.0
2.210146 0.431991 -0.000025 0.0
0.622081 1.302449 -0.001442 0.0
2.293157 0.793490 0.003856 0.0
0.179335 0.181235 0.000170 0.0
3.069009 1.032667 0.001707 0.0
4.016003 1.799599 -0.004872 0.0
3.598416 0.861344 -0.004430 0.0
2.643751 1.534698 -0.000098 0.0
2.511417 0.618742 0.003773 0.0
2.546853 1.373643 -0.003095 0.0
2.927351 0.430997 -0.001047 0.0
2.652862 0.178958 -0.001277 0.0
4.271264 0.583128 -0.003970 0.0
2.692700 1.243753 0.003837 0.0
4.086098 1.030944 0.002248 0.0
0.344647 0.239517 0.000451 0.0
1.191830 0.409314 -0.001436 0.0
4.252064 0.896684 -0.002811 0.0
3.558336 0.993879 -0.002023 0.0
0.981254 1.394726 -0.000778 0.0
3.018967 0.263984 -0.004594 0.0
3.221987 0.316611 0.000395 0.0
1.503433 0.925458 0.001821 0.0
4.045605 0.427648 -0.000158 0.0
3.306269 1.291078 -0.001898 0.0
3.230332 0.277547 0.002904 0.0
0.501221 0.137136 -0.001857 0.0
0.312430 0.124309 0.002863 0.0
2.048470 0.684662 -0.000601 0.0
1.965003 0.490122 0.002988 0.0
2.702484 1.238299 0.000934 0.0
3.725958 1.065168 -0.002432 0.0
0.388340 1.271616 0.002803 0.0
2.406669 1.387812 -0.001651 0.0
3.771403 1.213565 -0.001495 0.0
0.463476 0.156715 0.000952 0.0
3.254400 1.149304 0.003023 0.0
0.551836 0.250410 0.002130 0.0
1.260185 1.542885 0.003966 0.0
3.747454 0.563781 -0.001266 0.0
0.596998 1.701137 -0.001072 0.0
3.874032 1.830620 -0.001159 0.0
2.182430 1.582947 0.003634 0.0
2.852520 1.180652 0.001000 0.0
1.803968 1.060704 0.001111 0.0
1.121225 0.148399 0.003131 0.0
2.107134 1.002025 0.000957 0.0
1.134933 1.215709 0.002375 0.0
3.285206 1.465868 -0.001450 0.0
2.746973 0.700237 0.003119 0.0
1.974533 1.515325 -0.001986 0.0
3.486271 0.654251 -0.003310 0.0
3.214610 0.237597 -0.003776 0.0
1.974975 0.310532 0.000037 0.0
0.277506 0.217902 -0.000578 0.0
1.657879 0.214120 -0.000194 0.0
2.153553 1.529465 0.003445 0.0
1.724460 0.155712 -0.001967 0.0
2.331761 1.484749 -0.000645 0.0
1.347389 0.320443 -0.000178 0.0
4.016752 0.941941 -0.000029 0.0
4.411215 1.180007 0.000767 0.0
1.526293 1.424334 0.003527 0.0
0.456596 0.727518 0.000448 0.0
2.781845 1.223910 -0.000962 0.0
0.763991 0.728828 0.003717 0.0
2.166287 0.581660 -0.000981 0.0
2.125329 0.659071 0.000246 0.0
2.293495 1.260813 -0.001564 0.0
3.908652 0.503569 -0.002839 0.0
3.635269 0.231189 -0.001755 0.0
4.269722 0.410330 0.000148 0.0
2.469522 1.408827 0.000941 0.0
3.587238 1.191756 0.002222 0.0
1.893043 1.621573 0.003406 0.0
3.316554 1.055619 -0.002161 0.0
2.319131 0.755975 0.001246 0.0
0.088615 0.766615 -0.003560 0.0
0.420323 0.677578 -0.002032 0.0
3.379295 1.791315 0.000706 0.0
3.799360 1.823268 0.000875 0.0
1.475798 0.555658 -0.002346 0.0
4.130173 1.393519 -0.004883 0.0
3.676649 1.050990 0.002080 0.0
4.060637 0.669622 -0.003158 0.0
2.635921 0.330882 0.000877 0.0
1.632067 0.672189 -0.003562 0.0
3.200173 0.648849 0.000914 0.0
4.244769 1.465450 0.001926 0.0
3.794729 0.312636 -0.001703 0.0
3.806521 0.993342 0.006151 0.0
3.875346 0.961146 0.001587 0.0
1.621172 1.176361 -0.000564 0.0
1.013265 0.567832 -0.001654 0.0
1.084461 0.383025 0.000046 0.0
2.861682 1.369244 0.004233 0.0
0.057663 0.004821 -0.000146 0.0
3.325955 0.798345 0.001593 0.0
0.309573 0.266226 0.005025 0.0
2.786417 0.803748 -0.000349 0.0
4.216426 1.321408 -0.003651 0.0
2.421118 1.056062 -0.000923 0.0
2.523553 1.229683 -0.002224 0.0
1.668954 0.954799 -0.001502 0.0
2.631800 1.065118 0.005297 0.0
4.277392 0.335405 0.002353 0.0
2.258873 1.652968 -0.001519 0.0
0.846435 0.625377 -0.002887 0.0
0.946297 0.994415 -0.004416 0.0
2.647593 0.865146 0.001870 0.0
1.406793 0.459102 0.000655 0.0
3.274291 1.549381 -0.001276 0.0
3.049710 1.078650 0.003477 0.0
0.395988 1.491646 -0.000912 0.0
3.360130 1.196312 -0.000411 0.0
0.094494 1.096531 0.000399 0.0
1.217957 0.259566 0.003974 0.0
0.895347 1.521356 0.001526 0.0
0.128764 0.664254 -0.001367 0.0
2.183733 0.625725 0.004370 0.0
2.779552 0.677003 -0.002267 0.0
3.889241 0.339091 -0.001201 0.0
3.064364 0.835721 -0.002698 0.0
1.471571 1.547393 -0.001328 0.0
3.586903 0.838126 0.001516 0.0
1.978762 1.539970 0.001987 0.0
3.843442 0.371648 -0.005742 0.0
1.672559 0.502441 -0.003988 0.0
1.142424 1.394987 -0.002338 0.0
0.890007 0.453696 -0.000627 0.0
3.612905 0.733994 0.002616 0.0
1.735298 1.461638 -0.001255 0.0
0.512761 0.926000 -0.004057 0.0
2.603099 1.154703 -0.001676 0.0
3.805532 1.752893 0.000733 0.0
0.548764 0.519371 0.001196 0.0
2.771858 1.563608 0.000074 0.0
3.387568 0.650529 -0.000880 0.0
1.089168 0.193813 -0.002186 0.0
3.388223 0.365631 -0.001724 0.0
1.514538 0.032479 -0.003464 0.0
2.911588 1.624661 0.000378 0.0
2.678471 0.388583 -0.002270 0.0
2.900892 1.449324 -0.001306 0.0
2.102282 0.309715 -0.003958 0.0
4.041584 1.580209 0.002638 0.0
3.223245 0.866383 0.004906 0.0
4.169599 0.259996 0.001920 0.0
2.897582 1.392774 -0.001749 0.0
1.972887 1.453226 -0.002974 0.0
4.383611 0.575676 -0.003539 0.0
2.870467 1.262246 0.004454 0.0
0.345955 1.772430 -0.005814 0.0
4.126338 0.015081 -0.001906 0.0
3.370884 0.851583 -0.003195 0.0
3.224066 0.551823 0.000884 0.0
1.013020 0.566404 0.001653 0.0
3.031260 0.266655 -0.001953 0.0
1.934569 0.801092 0.003033 0.0
1.255104 0.857450 -0.001034 0.0
0.675962 0.827944 0.001858 0.0
3.023892 0.530483 0.000189 0.0
1.849305 1.568446 0.002435 0.0
3.158010 0.563616 0.001202 0.0
3.510798 0.626767 -0.000403 0.0
2.885543 0.106122 -0.002444 0.0
1.335088 1.006162 -0.007053 0.0
0.858575 0.481650 0.002211 0.0
4.042040 1.807135 -0.000336 0.0
1.730701 1.575296 -0.002289 0.0
4.137799 0.518276 0.004455 0.0
0.636752 0.007618 0.001757 0.0
0.626333 0.742710 -0.002028 0.0
2.959255 1.026843 0.003966 0.0
3.185929 0.455119 0.000929 0.0
3.066879 0.285202 0.000933 0.0
0.168755 0.572742 -0.003472 0.0
0.228259 0.948559 0.000328 0.0
0.872125 0.414897 -0.002357 0.0
1.281690 0.793363 0.000754 0.0
0.741219 1.797977 -0.002014 0.0
3.065077 0.389261 0.003175 0.0
1.386565 0.377519 0.003241 0.0
0.682438 1.573828 0.001086 0.0
4.242047 0.840608 0.000397 0.0
0.176709 0.139455 0.001178 0.0
0.112609 0.345935 0.002616 0.0
4.230449 1.209802 0.000026 0.0
2.215375 1.449983 0.000024 0.0
3.817357 1.826372 -0.002233 0.0
3.103275 0.376711 0.000150 0.0
4.291027 1.773355 0.003794 0.0
4.183228 1.620317 -0.007285 0.0
1.002890 0.085854 0.002480 0.0
4.193445 1.315673 0.000900 0.0
2.637762 0.289480 -0.001469 0.0
1.053414 0.480758 0.000184 0.0
3.036529 0.646800 0.007232 0.0
0.849646 1.266404 -0.001270 0.0
1.045837 1.068470 0.000332 0.0
1.808948 1.555847 -0.001883 0.0
2.809814 1.512074 0.002984 0.0
4.135941 1.268872 -0.000551 0.0
1.197503 0.999269 -0.000620 0.0
2.901465 0.726619 0.000319 0.0
4.276379 0.265269 0.004433 0.0
2.224510 1.319654 -0.000911 0.0
4.317449 0.313210 -0.001206 0.0
0.921753 0.084689 -0.005605 0.0
1.037018 1.175278 0.000903 0.0
0.903935 1.709506 0.004568 0.0
3.870210 0.278016 0.002700 0.0
4.387016 1.755742 0.000593 0.0
0.705933 0.746438 0.000813 0.0
2.922962 0.636379 0.000471 0.0
4.426266 1.448518 -0.000053 0.0
3.922303 1.493108 0.000688 0.0
3.140102 1.575511 -0.001135 0.0
3.911938 0.011941 0.000192 0.0
4.158224 1.406615 -0.000156 0.0
0.629060 0.485632 0.002422 0.0
3.410945 0.743936 0.000978 0.0
4.123667 0.511060 -0.000111 0.0
4.206883 0.616604 -0.004278 0.0
1.003366 0.425045 0.000594 0.0
1.839435 1.074728 0.001274 0.0
4.008227 1.254524 0.003053 0.0
2.190235 1.645182 0.003104 0.0
3.741872 1.263349 -0.001012 0.0
3.961379 1.372555 -0.001207 0.0
4.186600 1.531196 -0.002449 0.0
2.073023 1.515272 -0.000535 0.0
2.865969 1.636817 0.002248 0.0
1.618658 0.174339 0.000205 0.0
0.392615 1.627991 -0.001061 0.0
3.471245 0.401379 -0.000346 0.0
1.449119 1.412739 0.000136 0.0
3.728601 0.417073 0.002565 0.0
2.827237 1.201039 -0.000621 0.0
2.632636 0.055332 -0.005124 0.0
3.898361 1.796875 0.000899 0.0
2.467648 1.381264 -0.000096 0.0
3.272451 1.643029 -0.000606 0.0
0.044949 0.648749 -0.000340 0.0
0.784026 1.007957 -0.004249 0.0
0.414240 1.537247 -0.004304 0.0
0.751356 0.818032 0.000922 0.0
1.985484 0.576458 -0.002624 0.0
2.098930 0.034440 0.000493 0.0
2.848676 1.548602 -0.000186 0.0
4.297348 1.722053 0.001346 0.0
3.058970 1.486341 0.001665 0.0
0.234626 1.696487 0.003349 0.0
0.956072 0.907288 -0.000180 0.0
2.225608 0.130834 0.006344 0.0
0.555007 0.478728 0.001005 0.0
2.798217 1.467068 -0.001787 0.0
2.939986 1.585715 0.001288 0.0
3.259153 0.696259 -0.001290 0.0
2.054382 0.561198 0.004090 0.0
0.262114 1.070319 0.001447 0.0
1.952570 1.134050 -0.001236 0.0
4.373501 1.174098 -0.000976 0.0
0.217933 1.233423 0.001438 0.0
3.724058 0.835320 0.001390 0.0
2.256762 0.589532 -0.000377 0.0
0.305091 1.033787 0.004053 0.0
1.383335 0.295942 0.001427 0.0
2.174693 0.330918 -0.001026 0.0
1.337838 0.608645 0.000996 0.0
0.114503 0.874735 0.000586 0.0
2.029565 1.524060 -0.000740 0.0
0.914428 0.360173 0.001016 0.0
2.094275 0.736074 -0.000113 0.0
2.269005 1.511260 0.000965 0.0
2.337924 1.250005 0.003567 0.0
3.114365 1.459181 0.003639 0.0
4.020014 0.624037 -0.002527 0.0
4.200157 1.771730 -0.002375 0.0
3.545570 0.269911 0.000260 0.0
1.297376 1.678107 -0.000007 0.0
1.132449 1.150736 0.001618 0.0
1.466073 1.474483 0.001079 0.0
2.003433 1.007417 0.002088 0.0
3.630248 1.426724 -0.003978 0.0
2.256452 0.693121 0.001304 0.0
0.412949 0.034412 -0.001736 0.0
2.005599 0.661899 0.000958 0.0
2.633897 1.417413 -0.005365 0.0
4.225051 0.254343 0.001853 0.0
2.145560 1.205821 0.005011 0.0
0.637173 0.398714 -0.001314 0.0
1.983303 0.745655 -0.000128 0.0
1.897389 0.565966 -0.003380 0.0
1.756537 1.430512 0.000529 0.0
4.199724 1.207405 0.008160 0.0
0.216380 1.221822 0.001605 0.0
1.390951 0.626646 -0.000453 0.0
2.240947 0.346753 0.001306 0.0
3.477165 1.067253 -0.000937 0.0
3.110558 1.621778 -0.000099 0.0
0.491962 0.631054 -0.000474 0.0
2.861917 1.126233 -0.002151 0.0
2.577634 1.079781 -0.001777 0.0
0.479405 0.375075 -0.002335 0.0
0.781449 0.780773 -0.001453 0.0
3.746376 1.426705 -0.001277 0.0
0.905897 0.893783 -0.000053 0.0
1.024594 0.383968 -0.000759 0.0
1.011535 1.530037 0.000652 0.0
2.201647 1.204495 -0.001056 0.0
1.189804 1.797667 0.000601 0.0
1.912508 0.570114 0.000050 0.0
3.133152 1.696056 -0.001133 0.0
2.557139 1.141697 0.002643 0.0
2.212019 1.693735 -0.001451 0.0
2.377244 0.933719 0.002606 0.0
3.514072 1.294969 -0.001014 0.0
1.141808 0.753019 0.004049 0.0
1.692182 0.476499 0.002276 0.0
1.126720 0.760526 -0.003276 0.0
2.102537 1.542733 0.001076 0.0
1.165369 0.278716 0.002666 0.0
3.291107 1.064593 0.004760 0.0
1.359336 0.728253 0.002643 0.0
1.965470 1.664801 0.001616 0.0
0.771813 1.207359 -0.000825 0.0
3.740524 1.500335 -0.003077 0.0
3.579079 1.386284 0.004485 0.0
0.932944 1.612473 -0.000452 0.0
3.014222 0.625955 0.000374 0.0
0.656570 0.761381 0.000146 0.0
3.047737 0.691814 -0.001547 0.0
2.876821 1.572744 0.000786 0.0
2.454097 1.494850 0.001078 0.0
1.132267 1.117560 0.001971 0.0
0.930765 1.092093 -0.001540 0.0
3.887214 0.881863 -0.001773 0.0
1.418974 1.256169 -0.000547 0.0
1.195844 0.728453 0.002146 0.0
2.635787 0.409966 0.000936 0.0
1.639404 0.427939 0.001084 0.0
3.451115 1.126933 -0.001226 0.0
0.493735 1.099933 -0.002680 0.0
0.227270 1.027255 0.000688 0.0
0.952195 0.355879 -0.000566 0.0
0.329123 0.847168 -0.000687 0.0
0.064049 0.498047 0.000765 0.0
4.388036 0.505615 -0.000838 0.0
1.503804 1.769551 0.001361 0.0
0.991881 1.391238 0.000309 0.0
0.934985 1.328518 -0.000826 0.0
3.283142 1.528576 -0.000754 0.0
1.251665 0.915608 -0.003913 0.0
0.500659 0.090670 -0.004554 0.0
0.934268 0.268184 0.000679 0.0
0.116244 0.360656 -0.000172 0.0
2.924359 1.803653 0.001700 0.0
3.867399 1.326008 -0.001116 0.0
1.118993 1.192118 -0.000699 0.0
3.138955 1.748889 -0.000549 0.0
2.606001 0.090247 -0.001334 0.0
1.261684 1.110446 0.002053 0.0
2.116233 0.684092 0.001807 0.0
2.629494 1.274282 -0.000342 0.0
1.156420 0.217507 -0.001466 0.0
1.341291 0.548564 -0.004753 0.0
0.899383 0.841936 -0.001418 0.0
1.562109 0.044126 -0.001806 0.0
0.593534 1.005777 -0.000665 0.0
4.191273 1.675639 -0.002837 0.0
0.739625 0.519862 0.001647 0.0
0.357170 0.985019 0.001559 0.0
1.891371 0.692310 -0.003098 0.0
3.330382 1.003852 0.000910 0.0
3.590578 0.924111 -0.001110 0.0
2.892939 1.622663 0.004009 0.0
1.564607 0.009766 -0.002409 0.0
2.876508 1.649366 0.001636 0.0
3.778768 1.786452 0.001286 0.0
3.894752 0.434383 -0.000742 0.0
3.784034 1.058431 -0.000046 0.0
0.987607 1.426832 0.002478 0.0
2.446339 1.723057 0.001702 0.0
0.803392 1.413804 -0.001579 0.0
3.409065 1.177072 0.000993 0.0
1.781460 1.670864 -0.003238 0.0
1.646762 1.727977 -0.004573 0.0
2.625580 0.671715 0.003765 0.0
3.549674 0.044552 0.002897 0.0
0.400861 0.158508 -0.001864 0.0
0.046286 1.003777 -0.000100 0.0
0.010380 1.604852 0.000462 0.0
0.043228 1.492026 -0.002070 0.0
3.758544 1.618053 -0.003994 0.0
1.483392 0.257951 0.004505 0.0
0.004924 1.087078 -0.001453 0.0
3.389313 1.651678 0.000317 0.0
3.686209 1.240191 0.001962 0.0
0.751992 1.027961 -0.000847 0.0
2.186680 1.782168 -0.000071 0.0
1.131119 0.549934 0.002086 0.0
0.504261 1.032704 -0.003905 0.0
1.100785 1.328821 -0.001322 0.0
3.811704 0.226215 0.001052 0.0
2.174522 1.085030 0.005023 0.0
1.362612 0.576769 -0.001501 0.0
0.806740 0.592171 0.002350 0.0
0.372327 1.418606 0.003623 0.0
4.141753 0.807138 0.001152 0.0
4.250913 1.546346 -0.001578 0.0
1.955771 1.309191 0.002240 0.0
2.175845 0.545377 -0.002226 0.0
0.478543 1.820408 0.000870 0.0
1.996279 0.244514 -0.005491 0.0
3.391403 1.770620 0.003340 0.0
2.148082 0.948584 -0.000130 0.0
4.158459 0.897430 0.001411 0.0
1.716079 0.822262 -0.000912 0.0
1.429173 1.183524 0.001076 0.0
3.347775 1.426736 -0.005968 0.0
0.334436 1.835883 -0.001837 0.0
2.038492 0.069910 -0.001699 0.0
