3.74066080 1.78315933 0.00075015 0.00000000
2.49077131 0.35091932 0.00419426 0.00000000
0.73320016 1.38373006 -0.00202880 0.00000000
3.71984853 2.00858918 -0.00126963 0.00000000
2.62983078 0.42031710 0.00288188 0.00000000
3.50750044 1.40368109 0.00198748 0.00000000
2.56533624 1.27233762 0.00189418 0.00000000
3.69465709 0.72175234 -0.00130466 0.00000000
2.67115332 1.82141069 -0.00072040 0.00000000
2.71113812 1.65784338 0.00015185 0.00000000
0.57205979 0.19038096 0.00381865 0.00000000
1.01509182 0.75436875 0.00256698 0.00000000
3.56726367 0.29236160 0.00245127 0.00000000
1.79197101 1.50689677 0.00385065 0.00000000
0.72510414 0.78279064 0.00198469 0.00000000
3.89426594 1.29160391 0.00151178 0.00000000
3.22258938 0.50655067 -0.00061808 0.00000000
0.55360637 0.56782549 0.00354444 0.00000000
2.32726974 1.23292293 0.00373738 0.00000000
3.37708810 1.50029458 0.00180606 0.00000000
0.60573791 1.65333489 0.00456741 0.00000000
0.59250288 0.70445656 -0.00194679 0.00000000
3.27418984 1.15786066 -0.00228832 0.00000000
1.78210820 0.04688754 -0.00347822 0.00000000
1.77072444 0.10738638 -0.00058438 0.00000000
3.63901076 1.85103332 0.00157523 0.00000000
2.59983779 0.42414535 0.00252458 0.00000000
2.54679280 1.70752584 -0.00298581 0.00000000
3.81262940 1.64536956 0.00308478 0.00000000
1.53449356 1.67545964 -0.00364589 0.00000000
3.59567536 0.55246744 -0.00046447 0.00000000
3.46413292 2.06920026 0.00248160 0.00000000
0.90135618 1.60173484 0.00104848 0.00000000
3.48153571 0.22378719 0.00231383 0.00000000
0.01955567 0.87765140 0.00150931 0.00000000
1.73846623 1.30819115 0.00007829 0.00000000
4.20289505 0.15120292 -0.00114842 0.00000000
2.07800138 0.93098318 -0.00315937 0.00000000
2.20839693 0.67424842 -0.00131680 0.00000000
4.25131334 1.60614522 -0.00229241 0.00000000
3.35114761 0.50662843 -0.00147787 0.00000000
3.55454849 0.54705026 0.00044300 0.00000000
1.45366334 1.12273862 0.00145930 0.00000000
3.24490585 0.47900197 -0.00022951 0.00000000
3.65799959 0.56430095 -0.00476081 0.00000000
1.73988199 0.03451484 -0.00540927 0.00000000
1.60462419 1.47235774 0.00051136 0.00000000
0.75586887 1.98317560 0.00119562 0.00000000
0.37885490 0.71133218 0.00017933 0.00000000
0.25753196 0.08542764 -0.00013155 0.00000000
4.23886019 1.99391376 0.00129847 0.00000000
3.75645256 1.07349373 0.00078897 0.00000000
2.72319416 1.74608460 0.00040231 0.00000000
1.62636322 1.22064816 0.00064899 0.00000000
2.13609637 1.60330554 0.00205961 0.00000000
3.69415402 0.55493617 0.00130100 0.00000000
0.40628799 1.16170154 0.00510463 0.00000000
2.19547460 0.69438953 -0.00402755 0.00000000
3.98318971 0.41854255 -0.00316007 0.00000000
4.14635870 1.42147013 -0.00248692 0.00000000
1.50755125 1.72350627 0.00145448 0.00000000
3.51272910 1.71117827 -0.00168848 0.00000000
1.90033914 1.68877652 -0.00338366 0.00000000
1.15526118 1.75750249 -0.00067538 0.00000000
3.88296718 0.53240532 -0.00272257 0.00000000
1.55840401 2.06691251 -0.00059052 0.00000000
1.37082892 1.63156876 0.00167428 0.00000000
1.11989925 1.17534707 0.00163350 0.00000000
2.53278636 1.41978360 -0.00230656 0.00000000
3.54752328 0.67179627 0.00274991 0.00000000
1.70730642 1.17860920 -0.00040987 0.00000000
3.43628112 2.16286245 -0.00387802 0.00000000
1.73429821 1.11630885 -0.00134331 0.00000000
1.11263082 0.83273330 -0.00095865 0.00000000
1.85300670 0.92356794 -0.00212797 0.00000000
4.10866954 0.83814153 0.00167483 0.00000000
0.94426898 1.71344091 -0.00270761 0.00000000
2.02502908 1.28775318 0.00090649 0.00000000
2.13875816 0.77989278 0.00039039 0.00000000
1.42265563 0.72431021 0.00363481 0.00000000
0.06183136 0.18792292 -0.00346590 0.00000000
0.72899085 0.51559401 0.00378016 0.00000000
3.99495224 1.80954838 -0.00026249 0.00000000
1.72803231 0.23032621 0.00153404 0.00000000
2.75649462 0.61606186 0.00181156 0.00000000
2.53339609 0.83439359 -0.00071779 0.00000000
0.47006240 0.63205771 0.00071438 0.00000000
1.09476608 0.83631298 0.00163529 0.00000000
0.06255234 1.79635186 -0.00348176 0.00000000
3.00443766 1.82027028 -0.00049319 0.00000000
4.04668869 1.07836855 -0.00118667 0.00000000
2.69997095 1.02564162 -0.00086975 0.00000000
2.20470255 1.72630338 -0.00343051 0.00000000
0.55826521 0.29401659 0.00116439 0.00000000
1.05159147 0.81711334 -0.00142307 0.00000000
3.59844653 1.00624400 -0.00195119 0.00000000
4.21415357 1.11425577 0.00122145 0.00000000
0.55399002 2.10150765 -0.00267994 0.00000000
4.27193126 2.07596896 -0.00076972 0.00000000
1.09046460 1.98206177 -0.00162940 0.00000000
2.52824108 0.00880344 -0.00077380 0.00000000
2.06044981 1.14971820 -0.00078964 0.00000000
4.19111223 1.76635792 -0.00362227 0.00000000
1.59986564 0.44967833 0.00022358 0.00000000
3.57729294 0.00560922 0.00387499 0.00000000
4.03405314 0.86205771 -0.00097756 0.00000000
2.79730313 1.51524634 -0.00366577 0.00000000
4.23393467 0.22390066 -0.00044542 0.00000000
0.40230873 1.91981745 -0.00358248 0.00000000
0.32331249 1.59745536 0.00137945 0.00000000
1.11035738 0.18468503 -0.00569136 0.00000000
0.60709089 1.15427886 -0.00201615 0.00000000
3.38622192 1.41491431 0.00226231 0.00000000
3.67704210 0.37334571 -0.00118140 0.00000000
1.55598039 1.72014187 -0.00068482 0.00000000
3.71356678 0.03904203 0.00114239 0.00000000
2.83995628 1.00472623 -0.00066169 0.00000000
1.43524212 1.04943290 0.00116617 0.00000000
1.89396970 1.37449626 0.00536620 0.00000000
0.87509235 0.77685743 -0.00211348 0.00000000
0.32440282 0.41250941 0.00066089 0.00000000
0.45206227 1.00900849 0.00218304 0.00000000
1.37602943 2.05674408 0.00222560 0.00000000
0.72599045 0.56326380 -0.00388770 0.00000000
2.03934077 1.04181344 0.00227073 0.00000000
0.55940878 1.13234596 0.00202498 0.00000000
0.26053302 0.98660822 -0.00443843 0.00000000
0.67712928 0.36479269 -0.00387712 0.00000000
2.04960092 0.45752058 -0.00211783 0.00000000
1.44641489 0.14909102 -0.00507625 0.00000000
2.90942405 1.79569319 0.00027991 0.00000000
0.90890255 2.05466812 0.00174453 0.00000000
0.21688869 0.65538882 -0.00176445 0.00000000
3.04603833 2.22538093 -0.00404873 0.00000000
2.62054959 1.78051484 0.00091054 0.00000000
0.17516500 0.29467041 -0.00056179 0.00000000
0.27813294 0.18152524 -0.00052054 0.00000000
2.03697952 0.39315682 0.00026123 0.00000000
2.77173016 1.67692045 -0.00007806 0.00000000
0.93952438 1.78289764 0.00001809 0.00000000
4.23486220 0.99668959 -0.00121942 0.00000000
1.27106221 1.21840261 0.00603943 0.00000000
1.12481275 0.03869766 -0.00312926 0.00000000
1.20519460 1.48302807 -0.00025434 0.00000000
1.40206673 0.02613742 -0.00099214 0.00000000
3.15923572 0.26668516 -0.00196646 0.00000000
2.35044116 0.19694827 -0.00207750 0.00000000
3.71116578 0.38564679 0.00004221 0.00000000
3.38831638 2.12495748 0.00431761 0.00000000
1.09554356 0.42181718 -0.00155903 0.00000000
2.55286250 0.80255509 -0.00402261 0.00000000
0.45526604 0.58496794 0.00109284 0.00000000
0.22438174 0.51895204 0.00572373 0.00000000
1.89732584 1.27628673 -0.00085129 0.00000000
1.09342771 0.62992810 -0.00166387 0.00000000
0.25704229 1.25260509 -0.00124044 0.00000000
1.07841186 1.05014878 0.00084373 0.00000000
1.23024408 2.04256576 0.00016109 0.00000000
2.05207688 2.02696003 -0.00067599 0.00000000
4.37634194 0.30335069 0.00219400 0.00000000
3.69771671 1.15460886 0.00261225 0.00000000
1.16674473 0.30859658 -0.00274715 0.00000000
0.50448634 0.79007988 0.00130754 0.00000000
4.33396153 1.97751716 0.00029191 0.00000000
3.62902913 1.90241905 -0.00009719 0.00000000
1.16867580 1.32196903 0.00405526 0.00000000
1.33649274 1.85587533 -0.00134888 0.00000000
3.17828561 0.50036941 0.00049071 0.00000000
3.69137722 1.00205461 0.00011456 0.00000000
0.65483724 0.07381316 -0.00435443 0.00000000
0.05904486 0.13796853 0.00398034 0.00000000
3.22183734 0.05951259 0.00000861 0.00000000
0.40199317 0.91408235 0.00297251 0.00000000
2.39997978 1.69634031 0.00310363 0.00000000
2.30986132 0.53011537 -0.00285181 0.00000000
1.47356420 1.30567961 -0.00070166 0.00000000
3.70940455 2.14393827 0.00302611 0.00000000
1.42519909 0.91762545 0.00014522 0.00000000
1.32348443 0.53021344 0.00120131 0.00000000
2.94838715 1.87448836 -0.00220442 0.00000000
0.28839422 0.46424546 0.00082516 0.00000000
0.28776234 0.96119848 -0.00058636 0.00000000
3.05027120 1.79554147 0.00121310 0.00000000
1.47551051 0.95642848 -0.00505790 0.00000000
2.90617612 1.81455091 0.00171683 0.00000000
0.30401959 1.72459047 0.00090082 0.00000000
1.47925540 1.53384035 -0.00079928 0.00000000
1.80149919 0.17439820 0.00523795 0.00000000
2.99711316 1.74264634 0.00296022 0.00000000
1.99759550 0.02288683 -0.00438376 0.00000000
1.51916360 1.93799290 -0.00330831 0.00000000
1.12331801 0.78229450 -0.00038367 0.00000000
2.47027753 1.35586356 -0.00479702 0.00000000
2.85775868 1.66934368 -0.00106991 0.00000000
0.71050345 2.10208708 0.00150543 0.00000000
2.92375918 2.01274578 -0.00116195 0.00000000
1.56783963 1.80709958 -0.00176179 0.00000000
3.29413063 0.05242203 -0.00380966 0.00000000
0.80313059 1.37827665 -0.00457930 0.00000000
0.97729674 0.10111411 0.00147222 0.00000000
4.27204596 2.17365291 -0.00112889 0.00000000
2.86046294 0.95678369 -0.00021397 0.00000000
1.53691317 1.47951444 -0.00446573 0.00000000
1.46162388 0.99156828 -0.00355512 0.00000000
1.02934909 0.83606691 -0.00641576 0.00000000
2.73559919 1.67765121 -0.00120799 0.00000000
3.62849847 1.21146940 -0.00373750 0.00000000
0.30442513 0.42828943 -0.00092765 0.00000000
1.90163635 0.40909342 -0.00062028 0.00000000
0.08047549 0.37236261 0.00137674 0.00000000
1.35112983 0.79789945 -0.00108201 0.00000000
3.49940568 2.16171657 0.00244906 0.00000000
3.70544290 1.49449275 -0.00069027 0.00000000
0.42913780 0.37934140 -0.00243018 0.00000000
3.57462986 1.69886542 -0.00117549 0.00000000
3.19007673 0.89017093 -0.00096865 0.00000000
2.10535275 1.67025534 0.00120565 0.00000000
0.66155747 1.05834427 0.00433329 0.00000000
3.60931312 1.65766024 -0.00152842 0.00000000
0.37429114 1.95658517 0.00053921 0.00000000
2.70508134 0.55352357 0.00043242 0.00000000
0.19659521 0.10322804 -0.00512211 0.00000000
1.17855952 1.27137815 -0.00175903 0.00000000
0.67389960 2.11520185 -0.00259339 0.00000000
1.21313650 1.35381791 -0.00025729 0.00000000
4.32930930 0.83653519 0.00396288 0.00000000
1.82845922 0.13977075 -0.00099466 0.00000000
2.61550765 2.24583478 0.00126461 0.00000000
2.11831015 0.50197777 -0.00441842 0.00000000
4.18909826 1.18050419 0.00048214 0.00000000
3.93829129 0.84594771 -0.00332141 0.00000000
4.12153547 0.28238701 -0.00023202 0.00000000
3.51130900 1.67417468 -0.00111556 0.00000000
3.15315627 0.29154537 0.00036000 0.00000000
3.14474418 0.29835682 -0.00235418 0.00000000
4.15376455 2.19450977 -0.00433572 0.00000000
4.10496956 0.35035276 -0.00027914 0.00000000
2.17980945 1.11713171 -0.00211848 0.00000000
2.21574223 1.80741144 0.00133280 0.00000000
0.16484012 1.98254096 0.00047771 0.00000000
4.00986242 1.07235667 0.00181222 0.00000000
1.51202279 1.14597634 -0.00060842 0.00000000
1.09092363 0.28983035 -0.00000499 0.00000000
2.05832425 1.53640526 -0.00003542 0.00000000
2.84293417 0.36726393 -0.00100409 0.00000000
0.41199100 1.37866699 0.00057584 0.00000000
0.40977571 1.78772942 -0.00198817 0.00000000
3.01283804 1.75446202 -0.00503425 0.00000000
0.98356654 0.34139825 0.00075061 0.00000000
4.17597498 2.04938695 0.00254965 0.00000000
3.44166268 1.67791014 0.00178114 0.00000000
1.37841575 1.64478824 0.00400089 0.00000000
1.74985016 0.04716667 0.00098182 0.00000000
3.66500954 2.21624305 0.00151015 0.00000000
0.17123817 0.65527086 -0.00239301 0.00000000
0.59429182 2.08718439 0.00196651 0.00000000
1.48802845 0.61634305 0.00168442 0.00000000
1.48328895 1.98006516 0.00462380 0.00000000
2.30456797 0.82396418 0.00134943 0.00000000
2.71564669 1.17524741 -0.00227243 0.00000000
1.44691349 0.55725061 -0.00251697 0.00000000
0.18558576 0.56336356 -0.00085335 0.00000000
1.75688325 0.04823701 0.00052000 0.00000000
3.19413587 0.09414602 -0.00037951 0.00000000
4.26901225 0.85745901 -0.00031725 0.00000000
2.97430309 2.11620132 0.00115794 0.00000000
3.50518139 1.15916848 -0.00096218 0.00000000
4.41327297 0.08723795 -0.00155201 0.00000000
0.78657989 0.85617648 -0.00337190 0.00000000
3.22474257 1.50247239 0.00175165 0.00000000
2.37454421 1.97447760 -0.00006601 0.00000000
2.23055871 1.28932331 -0.00039102 0.00000000
2.37660300 0.62874427 0.00121145 0.00000000
3.77800287 0.25927342 -0.00016354 0.00000000
0.07077029 2.20990812 0.00157224 0.00000000
1.14527823 1.86319594 0.00048550 0.00000000
3.72249662 1.05286365 0.00066938 0.00000000
2.58315534 2.05140193 0.00143827 0.00000000
0.51327735 1.31422205 0.00134096 0.00000000
4.12485084 1.47230650 -0.00000996 0.00000000
1.57424287 0.07650853 0.00103033 0.00000000
1.44395342 0.78375040 -0.00188133 0.00000000
3.55915551 0.77184964 -0.00171317 0.00000000
4.26668178 1.31213028 -0.00156463 0.00000000
3.88819149 0.63307817 0.00134474 0.00000000
2.52907204 0.43306906 -0.00104348 0.00000000
2.50443527 0.48429804 -0.00332896 0.00000000
0.28883772 1.19177925 -0.00417732 0.00000000
4.05993005 1.81253181 0.00115847 0.00000000
3.34081845 1.63936560 0.00025327 0.00000000
0.94203280 1.10163936 -0.00029812 0.00000000
4.01163212 1.96299474 0.00210167 0.00000000
4.01743758 1.12072578 0.00198723 0.00000000
2.81808580 1.20845266 0.00203827 0.00000000
2.13621250 0.33840755 -0.00144834 0.00000000
0.23967674 0.42793790 0.00501173 0.00000000
0.62918437 2.06493631 -0.00707887 0.00000000
3.66050679 1.08611059 0.00343274 0.00000000
2.79840549 1.93134854 -0.00037123 0.00000000
4.37876231 0.99891694 -0.00136049 0.00000000
4.28898181 1.41488544 0.00216960 0.00000000
0.65965474 1.82171147 -0.00330932 0.00000000
2.30981406 0.97848676 -0.00084652 0.00000000
0.93631788 1.85364985 0.00058771 0.00000000
1.05083141 0.23364541 0.00192086 0.00000000
0.90272581 0.11507411 0.00193683 0.00000000
0.49531072 0.54060821 0.00008333 0.00000000
0.90292435 1.77527304 0.00506870 0.00000000
2.40734765 0.00176650 -0.00022806 0.00000000
3.63827089 1.58329055 0.00023402 0.00000000
0.69241619 0.60774670 -0.00058760 0.00000000
1.27811204 2.14877573 0.00320151 0.00000000
1.32302814 0.83876136 0.00293657 0.00000000
4.21976512 1.06723975 -0.00409903 0.00000000
4.39745672 1.18906737 0.00272831 0.00000000
1.90114533 0.38784017 0.00318660 0.00000000
2.06837738 1.65384580 0.00307383 0.00000000
2.11526035 0.56154110 0.00037027 0.00000000
2.13223299 1.88795907 -0.00056562 0.00000000
3.03142648 1.81890405 0.00005943 0.00000000
2.29223723 0.36506637 0.00381298 0.00000000
3.50816627 0.38494052 -0.00210705 0.00000000
3.31506143 0.58824929 -0.00099052 0.00000000
0.57305827 0.73762565 -0.00217062 0.00000000
1.49932770 0.39042559 0.00301382 0.00000000
3.68102982 0.60777279 -0.00247898 0.00000000
2.15254969 1.98874739 0.00125833 0.00000000
0.10023653 1.72914926 -0.00005480 0.00000000
4.26649954 1.17279106 -0.00123750 0.00000000
4.06315582 2.02508840 0.00229746 0.00000000
1.69959204 0.26204554 0.00032725 0.00000000
4.28067534 2.16228680 -0.00010816 0.00000000
0.40322698 0.86958180 0.00114233 0.00000000
0.74215775 0.49948423 0.00020178 0.00000000
3.50140892 1.48187326 -0.00009830 0.00000000
0.70418362 1.55775389 -0.00010739 0.00000000
2.56424830 1.85670422 0.00411219 0.00000000
4.33859757 1.81706570 0.00353662 0.00000000
1.44397167 0.92392032 0.00475353 0.00000000
2.56453528 0.23503572 -0.00022818 0.00000000
2.51573849 0.24010551 0.00259947 0.00000000
0.90083780 1.67245919 -0.00241160 0.00000000
2.50258135 0.08290561 -0.00108437 0.00000000
0.44052311 2.04444328 -0.00071819 0.00000000
0.95176337 1.86299053 0.00154822 0.00000000
0.05159995 1.55472404 -0.00062724 0.00000000
4.08062201 0.19812819 0.00229481 0.00000000
3.70848736 0.29572901 -0.00211094 0.00000000
1.98650704 0.97558577 0.00609994 0.00000000
0.36921788 2.03167526 -0.00149956 0.00000000
4.19139746 0.22362487 0.00040754 0.00000000
2.22384873 1.36726119 0.00187829 0.00000000
3.37327042 0.69013884 0.00302520 0.00000000
1.17968728 1.81245015 -0.00148918 0.00000000
0.63979708 2.17418333 0.00005123 0.00000000
1.66981387 0.39797401 0.00279404 0.00000000
3.50449180 2.11924772 -0.00162943 0.00000000
4.24532466 1.84149339 -0.00077989 0.00000000
2.40184207 0.95553268 -0.00279320 0.00000000
1.81812609 1.30188187 0.00154142 0.00000000
3.80790600 0.58219655 0.00052784 0.00000000
4.24008440 0.07049909 -0.00204236 0.00000000
3.87010906 1.58645922 0.00232376 0.00000000
1.05837294 0.34694866 0.00026125 0.00000000
2.01577171 0.91156133 -0.00102640 0.00000000
0.28121986 0.17828457 -0.00421757 0.00000000
2.29018914 0.38341721 0.00320614 0.00000000
2.88303165 1.11335797 0.00355084 0.00000000
4.32078496 1.86957120 0.00069871 0.00000000
2.82920843 1.94341807 0.00180102 0.00000000
3.83900338 0.14603236 -0.00144145 0.00000000
1.34883658 0.59476120 0.00473449 0.00000000
4.39651706 0.07196915 -0.00075116 0.00000000
2.42512728 0.98604638 -0.00111929 0.00000000
0.02813936 1.79633351 0.00284214 0.00000000
1.28593375 1.17885427 0.00069640 0.00000000
3.80860561 2.19782092 -0.00431184 0.00000000
3.18335022 1.91766002 0.00123745 0.00000000
0.67961871 0.71745048 0.00042999 0.00000000
3.36303151 1.03347231 -0.00301294 0.00000000
4.13003516 0.42765577 0.00161552 0.00000000
3.20065362 1.77648918 0.00029534 0.00000000
4.39996795 2.15092307 -0.00025177 0.00000000
3.41009642 1.33053865 -0.00154566 0.00000000
2.42697906 0.81041625 0.00188804 0.00000000
0.99502044 0.11428894 -0.00050934 0.00000000
3.77973335 1.69001516 0.00196558 0.00000000
0.26107405 1.34629796 -0.00098481 0.00000000
2.45161235 2.23908692 -0.00067175 0.00000000
0.43085363 0.24703433 0.00309100 0.00000000
2.06084702 0.92341804 -0.00194147 0.00000000
3.31839041 0.70995713 -0.00056713 0.00000000
3.06219868 0.73509965 0.00172755 0.00000000
0.32069991 0.86026392 0.00412967 0.00000000
0.99279745 0.89377255 -0.00120069 0.00000000
2.95510535 0.26950411 0.00247293 0.00000000
2.35862038 1.98053849 -0.00222127 0.00000000
1.65263599 2.12532582 -0.00115072 0.00000000
2.23722883 0.23861174 0.00102789 0.00000000
1.97795245 2.12784499 0.00363374 0.00000000
2.12719380 0.29102890 -0.00114086 0.00000000
0.89297094 2.09467833 -0.00085963 0.00000000
3.28848251 1.06164240 -0.00184277 0.00000000
1.99049001 0.51769835 -0.00462462 0.00000000
0.12629663 2.24064036 -0.00423066 0.00000000
3.84647752 2.14966845 0.00485304 0.00000000
3.52186408 0.54668832 0.00352072 0.00000000
3.01748830 1.68125031 0.00501848 0.00000000
4.36237580 1.01583537 -0.00055356 0.00000000
1.44494351 2.11947687 0.00194623 0.00000000
1.05841998 0.44934252 0.00022373 0.00000000
0.26173271 2.00351946 0.00072175 0.00000000
4.01355548 0.18200820 0.00009042 0.00000000
2.57106717 1.48075944 0.00405230 0.00000000
0.41884595 1.32634637 0.00267611 0.00000000
3.00945354 1.01595439 -0.00305211 0.00000000
4.03511415 1.28840987 -0.00085391 0.00000000
0.00799410 0.24972310 -0.00296099 0.00000000
4.23961586 0.77543745 -0.00018572 0.00000000
0.38929292 0.44274859 -0.00111343 0.00000000
2.72722592 1.95141913 0.00094883 0.00000000
0.42615317 1.92631332 0.00173026 0.00000000
4.16086948 0.11074113 0.00013028 0.00000000
2.10753887 0.28250212 0.00459606 0.00000000
3.19521491 1.59692587 -0.00041870 0.00000000
0.26768820 1.70643998 0.00176793 0.00000000
0.01015009 0.66233785 0.00078117 0.00000000
3.41220895 0.09017054 -0.00036965 0.00000000
0.56850291 0.62914698 0.00048278 0.00000000
1.56468246 1.43241699 0.00340486 0.00000000
0.06388297 0.65903074 0.00037961 0.00000000
2.49528989 0.09898028 -0.00128665 0.00000000
0.13430616 0.36841704 -0.00174634 0.00000000
0.91966279 0.91008762 0.00415677 0.00000000
0.11793618 1.98135825 0.00506408 0.00000000
2.46335099 1.05741003 0.00357429 0.00000000
2.61180099 2.07835674 -0.00223646 0.00000000
1.66328490 0.62955017 0.00427147 0.00000000
3.15675376 -0.00201850 -0.00493484 1.00000000
1.34502612 0.00136827 -0.00524570 1.00000000
2.86002733 0.00019532 -0.00231382 1.00000000
3.25476432 -0.00672463 0.00001415 1.00000000
4.37945624 -0.00284617 -0.00405288 1.00000000
3.65897253 0.00501172 -0.00394232 1.00000000
1.29938497 -0.00442699 0.00103094 1.00000000
1.92672448 -0.00014962 0.00152145 1.00000000
2.36232607 -0.00152818 -0.00107393 1.00000000
1.03573269 -0.00199250 -0.00083527 1.00000000
0.11801366 0.00436967 -0.00366428 1.00000000
2.40086432 0.00337317 -0.00110384 1.00000000
1.86575806 -0.00228970 -0.00745006 1.00000000
2.95416045 0.00361129 0.00082444 1.00000000
3.41692125 0.00185069 0.00024413 1.00000000
3.90477080 0.00284492 -0.00023415 1.00000000
0.64491432 0.00098236 0.00071533 1.00000000
2.20663084 -0.00177177 -0.00281485 1.00000000
3.76723702 0.00235732 -0.00291673 1.00000000
3.82429660 -0.00047309 -0.00238763 1.00000000
4.26785524 0.00222915 0.00100228 1.00000000
1.29103632 -0.00149123 -0.00171793 1.00000000
1.96429809 -0.00341437 -0.00150087 1.00000000
2.84408869 0.00093159 -0.00248428 1.00000000
3.66006152 -0.00082617 -0.00036993 1.00000000
1.52358807 0.00466677 -0.00021802 1.00000000
2.03173857 0.00080694 -0.00068785 1.00000000
3.18085784 0.00042943 0.00215481 1.00000000
1.57505321 0.00235405 -0.00138363 1.00000000
3.12166293 0.00212612 -0.00465739 1.00000000
2.24131389 -0.00451143 0.00192997 1.00000000
1.21728702 0.00328202 -0.00132414 1.00000000
1.04387245 0.00504792 -0.00218784 1.00000000
0.32928248 -0.00429327 -0.00211680 1.00000000
1.04728198 0.00166653 -0.00137211 1.00000000
1.61255082 0.00125742 -0.00048120 1.00000000
4.37608557 0.00257589 0.00086438 1.00000000
1.70476883 -0.00047021 -0.00082207 1.00000000
1.52059087 -0.00014276 -0.00215826 1.00000000
4.36825474 -0.00457629 0.00265740 1.00000000
3.68021051 -0.00013719 -0.00076725 1.00000000
1.58783226 0.00005582 0.00340984 1.00000000
3.52203469 0.00167189 -0.00250801 1.00000000
2.18809468 -0.00254920 0.00125439 1.00000000
2.99876919 -0.00147417 -0.00169374 1.00000000
4.10397965 0.00270826 0.00207931 1.00000000
3.27028809 0.00131835 0.00030369 1.00000000
3.09905994 0.00050799 -0.00151898 1.00000000
3.79637413 0.00154737 0.00058933 1.00000000
2.86378906 -0.00436976 -0.00036497 1.00000000
3.19219710 0.00559374 -0.00380794 1.00000000
3.30693530 0.00166768 -0.00196050 1.00000000
1.00595327 -0.00186776 0.00225142 1.00000000
3.02879628 -0.00263884 -0.00019839 1.00000000
2.99069433 -0.00203749 0.00569295 1.00000000
1.87029149 -0.00522060 -0.00139445 1.00000000
1.58739863 -0.00150133 -0.00181764 1.00000000
2.11355055 0.00064978 0.00130116 1.00000000
0.58868391 0.00804523 0.00090741 1.00000000
2.11538811 0.00287037 0.00701029 1.00000000
2.69039206 -0.00158673 0.00114460 1.00000000
1.02526978 0.00411691 0.00288510 1.00000000
2.93509149 0.00272254 -0.00098991 1.00000000
1.97420677 -0.00067429 -0.00111975 1.00000000
2.07765205 0.00089793 -0.00139865 1.00000000
0.84790484 0.00423475 0.00059649 1.00000000
3.28998178 0.00297128 0.00304599 1.00000000
3.57990507 -0.00273538 0.00176180 1.00000000
4.11469258 0.00027364 -0.00046771 1.00000000
0.92971458 -0.00137074 0.00107828 1.00000000
2.45771954 -0.00143846 -0.00407493 1.00000000
1.14606479 -0.00088376 0.00087951 1.00000000
0.72862764 -0.00328809 -0.00052624 1.00000000
2.03490984 -0.00332267 0.00119586 1.00000000
2.21244857 0.00316422 0.00358545 1.00000000
0.58035810 0.00074706 0.00354745 1.00000000
1.70908806 -0.00057133 0.00114122 1.00000000
3.15907659 -0.00089357 -0.00238986 1.00000000
2.28412448 0.00098607 -0.00124189 1.00000000
1.72136880 0.00254226 -0.00182150 1.00000000
2.89368565 0.00041588 0.00224473 1.00000000
1.25498567 -0.00232044 0.00126732 1.00000000
3.03872502 0.00499082 0.00082105 1.00000000
2.96910849 -0.00483735 0.00263461 1.00000000
4.23470125 -0.00402668 -0.00013728 1.00000000
1.18224649 0.00103028 0.00143154 1.00000000
2.93956231 -0.00239201 -0.00268708 1.00000000
2.06599060 0.00383668 -0.00021664 1.00000000
3.88690728 0.00021628 0.00001929 1.00000000
2.15341931 0.00040507 -0.00466936 1.00000000
1.41262495 0.00171006 0.00162607 1.00000000
0.99414557 0.00416111 0.00042511 1.00000000
1.79542343 -0.00045964 0.00028232 1.00000000
4.39345782 0.00397751 0.00069116 1.00000000
3.62538306 0.00079200 -0.00137785 1.00000000
3.69455188 0.00548635 -0.00119268 1.00000000
2.21500978 -0.00142473 -0.00229574 1.00000000
3.69844706 -0.00234171 -0.00107504 1.00000000
3.52998272 0.00055028 0.00370420 1.00000000
3.24800499 0.00152366 -0.00537345 1.00000000
1.77973863 -0.00091110 0.00012473 1.00000000
3.29335152 -0.00309998 -0.00252757 1.00000000
4.22837982 -0.00494310 -0.00246838 1.00000000
3.10406817 -0.00020536 -0.00243649 1.00000000
0.73050670 -0.00240378 0.00069537 1.00000000
0.36748961 -0.00272263 -0.00258101 1.00000000
1.37991034 -0.00064583 -0.00191865 1.00000000
3.48134228 0.00257090 0.00135010 1.00000000
2.45648589 0.00215152 0.00451186 1.00000000
3.90848496 0.00441407 0.00138746 1.00000000
3.36067860 -0.00603365 -0.00112417 1.00000000
3.05839520 -0.00381936 0.00086972 1.00000000
2.64899987 -0.00103819 0.00093295 1.00000000
2.76001145 -0.00173688 -0.00301202 1.00000000
0.96744730 -0.00168280 0.00148843 1.00000000
2.85400014 0.00388122 0.00056483 1.00000000
1.86129324 0.00086762 -0.00064080 1.00000000
0.67803549 -0.00577596 0.00230859 1.00000000
1.19890632 -0.00084773 -0.00157492 1.00000000
2.83914372 0.00308669 0.00522317 1.00000000
1.75634535 0.00188386 -0.00168727 1.00000000
3.55210419 0.00349806 0.00070200 1.00000000
4.07085655 0.00093395 0.00290485 1.00000000
4.12271448 0.00023930 0.00435819 1.00000000
1.90840051 -0.00368183 0.00354037 1.00000000
3.06168698 -0.00096314 -0.00020402 1.00000000
3.55379212 0.00181493 0.00193422 1.00000000
1.60287473 -0.00046792 -0.00112254 1.00000000
2.51928582 -0.00133491 -0.00091477 1.00000000
1.32625534 -0.00229167 -0.00244458 1.00000000
0.83071783 0.00538683 -0.00000648 1.00000000
3.08848638 0.00083430 -0.00211460 1.00000000
0.62098174 -0.00083990 -0.00176391 1.00000000
3.92375638 0.00110430 0.00309617 1.00000000
3.21271801 0.00468373 0.00119889 1.00000000
2.23394914 0.00252775 0.00240545 1.00000000
1.69901714 -0.00361856 0.00140718 1.00000000
0.86567301 0.00464196 0.00045879 1.00000000
3.47653589 -0.00083884 0.00657744 1.00000000
0.56256973 0.00059461 -0.00238944 1.00000000
0.20987604 0.00244876 -0.00147519 1.00000000
4.11310950 -0.00246619 0.00003377 1.00000000
4.39052526 -0.00146804 -0.00352200 1.00000000
4.35985608 0.00366947 0.00324643 1.00000000
1.41433941 0.00278217 -0.00077428 1.00000000
1.82038780 0.00292288 0.00271607 1.00000000
0.01708374 0.00237946 -0.00283277 1.00000000
4.39659459 -0.00196508 -0.00508387 1.00000000
1.01857903 -0.00344049 -0.00002822 1.00000000
3.85486635 0.00185707 -0.00169530 1.00000000
0.56621626 -0.00089423 -0.00049456 1.00000000
1.96600393 -0.00247336 0.00222272 1.00000000
0.91993903 0.00277841 -0.00283638 1.00000000
3.12945753 -0.00400462 -0.00125574 1.00000000
0.72026359 -0.00059279 0.00112918 1.00000000
0.52697572 0.00109476 -0.00103656 1.00000000
0.95476409 -0.00184285 0.00185546 1.00000000
2.65293610 -0.00075990 0.00244539 1.00000000
4.36074849 0.00056071 -0.00057338 1.00000000
3.54142898 0.00020841 -0.00124118 1.00000000
1.91195789 -0.00115183 0.00146346 1.00000000
0.29851915 -0.00433073 0.00257873 1.00000000
2.11366584 -0.00165808 -0.00048367 1.00000000
3.00407794 0.00196636 0.00156504 1.00000000
0.85939600 -0.00291643 0.00139137 1.00000000
1.14766350 0.00053986 0.00452562 1.00000000
0.15133304 0.00264081 0.00222971 1.00000000
1.05183685 -0.00065904 -0.00253541 1.00000000
2.09986805 -0.00415684 0.00662292 1.00000000
2.11054130 -0.00033453 0.00110398 1.00000000
2.37933889 0.00273273 -0.00315585 1.00000000
2.61661019 0.00143360 -0.00206583 1.00000000
0.74749538 -0.00409001 -0.00050728 1.00000000
2.01112424 -0.00312396 0.00033245 1.00000000
0.81236584 -0.00376212 -0.00078854 1.00000000
0.78665587 -0.00279991 -0.00270175 1.00000000
0.97497576 0.00008063 -0.00191072 1.00000000
1.95340220 0.00468154 0.00154182 1.00000000
1.10585662 -0.00470645 0.00269133 1.00000000
2.98617949 0.00105305 -0.00200386 1.00000000
4.17042183 0.00256919 -0.00272192 1.00000000
2.34795373 0.00339772 0.00423335 1.00000000
2.30328467 0.00258167 -0.00325017 1.00000000
2.51813381 -0.00289317 0.00183279 1.00000000
1.43843903 0.00025213 -0.00323031 1.00000000
0.65650036 0.00020987 0.00063462 1.00000000
3.88842881 0.00054930 0.00319987 1.00000000
3.58179260 0.00254960 0.00149198 1.00000000
2.24346673 0.00112337 0.00104889 1.00000000
0.43548046 -0.00230687 -0.00105079 1.00000000
0.95435191 -0.00260814 0.00010404 1.00000000
3.93995142 -0.00030022 0.00057207 1.00000000
2.95172842 -0.00259420 0.00041426 1.00000000
1.00769122 -0.00080474 -0.00670234 1.00000000
0.09325122 0.00293990 -0.00170725 1.00000000
3.98888860 -0.00207520 0.00096480 1.00000000
3.58357319 0.00049305 -0.00285856 1.00000000
3.39396359 0.00092383 -0.00458030 1.00000000
2.32801976 0.00247961 -0.00260453 1.00000000
4.06031961 0.00650435 0.00045236 1.00000000
1.08852298 0.00125242 -0.00260227 1.00000000
0.80884231 -0.00183004 -0.00234445 1.00000000
0.59476918 0.00210567 -0.00420206 1.00000000
1.37542560 -0.00571691 -0.00075366 1.00000000
2.29681087 0.00052991 -0.00409990 1.00000000
0.72623404 -0.00211336 0.00257540 1.00000000
2.00401118 -0.00078305 -0.00035315 1.00000000
4.12080870 -0.00164774 0.00176494 1.00000000
1.92001323 -0.00098532 0.00064085 1.00000000
1.36135218 0.00047903 -0.00424068 1.00000000
0.39327659 0.00403809 0.00189645 1.00000000
1.35497311 -0.00039160 0.00546112 1.00000000
4.16308267 -0.00114570 0.00151528 1.00000000
0.68232397 0.00396023 -0.00068891 1.00000000
2.79504387 0.00224598 -0.00144487 1.00000000
0.65312871 -0.00111979 -0.00264334 1.00000000
1.00856686 -0.00180642 0.00229712 1.00000000
1.16157556 0.00066314 -0.00159792 1.00000000
2.74563146 -0.00178022 -0.00212657 1.00000000
2.59147663 -0.00032798 -0.00354101 1.00000000
3.21936919 0.00199090 0.00050545 1.00000000
2.98863026 -0.00008432 -0.00165531 1.00000000
3.90327182 0.00023578 0.00273915 1.00000000
2.73114033 -0.00106553 0.00028572 1.00000000
0.38660494 -0.00447825 0.00066502 1.00000000
2.20251015 0.00096070 0.00192049 1.00000000
4.30190139 -0.00493517 -0.00164384 1.00000000
3.92632047 -0.00307916 0.00127532 1.00000000
0.57506082 -0.00612804 0.00098254 1.00000000
4.20154957 -0.00232160 -0.00164672 1.00000000
2.81294751 -0.00009139 0.00395591 1.00000000
1.00896383 -0.00162608 0.00207990 1.00000000
2.77715165 0.00079976 0.00048903 1.00000000
2.72243563 -0.00051443 -0.00057118 1.00000000
0.39668904 0.00347975 0.00119113 1.00000000
2.25034519 -0.00220685 -0.00363623 1.00000000
2.93191125 -0.00199303 -0.00298578 1.00000000
0.39863215 0.00227669 0.00466214 1.00000000
1.12569616 -0.00273844 0.00256185 1.00000000
0.64974639 -0.00016204 -0.00179834 1.00000000
1.80205994 -0.00038992 0.00126877 1.00000000
1.83167129 -0.00119583 0.00167558 1.00000000
1.21277012 -0.00523836 -0.00329605 1.00000000
0.27739646 -0.00085023 -0.00138996 1.00000000
0.75636431 0.00575867 -0.00255968 1.00000000
1.96357778 -0.00427108 -0.00204723 1.00000000
0.78971664 -0.00059436 0.00095301 1.00000000
0.50668375 -0.00154619 -0.00361746 1.00000000
2.08464178 0.00186619 -0.00058368 1.00000000
0.45084450 -0.00283631 0.00101724 1.00000000
1.31052347 -0.00017058 -0.00166606 1.00000000
4.08734131 -0.00037313 -0.00073050 1.00000000
3.83785174 -0.00071325 0.00465588 1.00000000
0.82360397 -0.00025829 0.00010155 1.00000000
2.31296969 -0.00361686 0.00164705 1.00000000
0.32818802 0.00031806 -0.00294454 1.00000000
1.23692291 0.00065945 0.00188163 1.00000000
0.35064218 -0.00197507 0.00313215 1.00000000
3.27732023 0.00442089 -0.00355835 1.00000000
2.56137992 -0.00062143 0.00636726 1.00000000
1.13069065 0.00037075 -0.00078702 1.00000000
0.24514160 0.00205839 -0.00286244 1.00000000
4.28108366 0.00072895 0.00183356 1.00000000
1.47474737 0.00106393 -0.00052729 1.00000000
1.00246357 -0.00176778 -0.00096435 1.00000000
2.77992981 -0.00437289 -0.00192000 1.00000000
1.27297282 0.00523817 -0.00312167 1.00000000
4.13398030 0.00240681 -0.00049060 1.00000000
2.57536728 0.00022174 0.00389454 1.00000000
0.93596737 0.00102773 -0.00041702 1.00000000
1.19881717 0.00200001 0.00398144 1.00000000
3.43821932 0.00241911 -0.00238178 1.00000000
1.06993171 -0.00212075 -0.00002123 1.00000000
4.36086759 0.00187298 -0.00178795 1.00000000
1.67903150 0.00204776 0.00056252 1.00000000
3.32629923 -0.00141942 -0.00062861 1.00000000
0.45907225 0.00234380 0.00256202 1.00000000
2.69856658 0.00383862 0.00266018 1.00000000
3.38015609 0.00437964 -0.00320376 1.00000000
0.89338763 0.00433082 0.00145867 1.00000000
0.14459071 -0.00272756 -0.00342818 1.00000000
3.65616094 0.00136142 -0.00055868 1.00000000
1.64745634 0.00197924 0.00134748 1.00000000
2.33885442 0.00365375 0.00040589 1.00000000
0.65176749 0.00184963 0.00554635 1.00000000
1.88882452 -0.00067263 0.00290819 1.00000000
1.02027221 -0.00122158 0.00341930 1.00000000
3.26482143 -0.00029951 0.00066390 1.00000000
1.82361307 -0.00182588 -0.00298261 1.00000000
0.45804633 0.00314113 0.00235843 1.00000000
2.75143269 0.00125317 -0.00179894 1.00000000
1.04655888 0.00133926 -0.00122431 1.00000000
0.53423607 -0.00232357 -0.00222205 1.00000000
2.08257988 -0.00172753 -0.00317043 1.00000000
2.75399431 0.00271709 -0.00138903 1.00000000
1.99904918 -0.00140641 -0.00055399 1.00000000
2.36335849 -0.00030313 -0.00002484 1.00000000
1.26489076 -0.00356523 -0.00133731 1.00000000
3.81229762 0.00514943 -0.00394786 1.00000000
0.09553945 0.00074009 -0.00267267 1.00000000
0.26281421 0.00061399 -0.00162333 1.00000000
0.12227867 -0.00284667 -0.00083555 1.00000000
3.98218827 -0.00048239 0.00065919 1.00000000
0.42977082 -0.00337430 0.00053712 1.00000000
3.15412083 -0.00066473 -0.00280618 1.00000000
1.25648634 -0.00153147 -0.00025381 1.00000000
2.80273397 -0.00023854 -0.00157945 1.00000000
4.26731976 0.00206545 0.00091010 1.00000000
2.39363635 -0.00211944 0.00175247 1.00000000
1.67116669 0.00186534 0.00149942 1.00000000
0.38097134 0.00340471 -0.00105951 1.00000000
0.36096664 -0.00302575 -0.00095617 1.00000000
3.26959097 0.00293843 -0.06480106 0.00000000
3.16220977 0.00031893 -0.13550321 0.00000000
0.36559086 0.00190187 -0.02578692 0.00000000
2.10368157 0.00048853 -0.14355198 0.00000000
3.61857135 -0.00016399 -0.02791615 0.00000000
1.29312948 0.00469984 -0.07860802 0.00000000
1.51478250 0.00567274 -0.15473585 0.00000000
1.24330833 -0.00002812 -0.13563614 0.00000000
2.83092687 0.00062264 -0.12943704 0.00000000
3.73029818 0.00524447 -0.11007378 0.00000000
3.15448210 -0.00052907 -0.14898271 0.00000000
0.14275568 0.00300690 -0.14087052 0.00000000
2.52293624 -0.00226194 -0.07104260 0.00000000
2.24469523 -0.00107643 -0.00755051 0.00000000
4.27018159 0.00081144 -0.05386959 0.00000000
2.62033166 0.00593833 -0.07724348 0.00000000
2.14624924 0.00298132 -0.02674502 0.00000000
0.94234976 0.00486241 -0.09246843 0.00000000
2.70693152 -0.00113138 -0.12864661 0.00000000
0.42669587 -0.00140530 -0.08456755 0.00000000
3.85833449 0.00383606 -0.10261976 0.00000000
0.13891480 0.00299828 -0.00647044 0.00000000
0.77075395 0.00388600 -0.13498698 0.00000000
4.38270524 -0.00095537 -0.04335862 0.00000000
3.46193532 -0.00214843 -0.03090535 0.00000000
0.63661187 -0.00178302 -0.11182648 0.00000000
0.40432206 0.00424939 -0.14530766 0.00000000
1.03094763 0.00332465 -0.07579879 0.00000000
2.33784474 0.00272753 -0.06549375 0.00000000
3.98847442 0.00065229 -0.09332499 0.00000000
0.43453962 0.00297894 -0.00306528 0.00000000
4.23073878 0.00207299 -0.05312222 0.00000000
1.88252782 -0.00058496 -0.14846015 0.00000000
2.57411784 0.00069529 -0.09161882 0.00000000
1.86843748 0.00529259 -0.14028906 0.00000000
2.67582326 -0.00341191 -0.05741790 0.00000000
3.36427124 -0.00074475 -0.09234592 0.00000000
3.06105292 0.00424281 -0.03783856 0.00000000
4.37898091 0.00052060 -0.14064940 0.00000000
2.84342912 -0.00365797 -0.01166408 0.00000000
0.85604138 0.00556700 -0.12027597 0.00000000
1.89944316 0.00157551 -0.10113151 0.00000000
1.93552786 -0.00176933 -0.06695350 0.00000000
2.08933009 0.00166853 -0.03071619 0.00000000
1.72672281 -0.00010637 -0.13118725 0.00000000
2.69287690 0.00028236 -0.09852450 0.00000000
0.76769359 0.00108351 -0.05525772 0.00000000
1.99436389 -0.00255845 -0.04521636 0.00000000
3.16938987 0.00152242 -0.08498430 0.00000000
2.80500345 0.00294330 -0.04519678 0.00000000
1.36918672 0.00082449 -0.11786445 0.00000000
3.40285536 0.00129882 -0.01312103 0.00000000
1.31375526 0.00241467 -0.02726964 0.00000000
3.33610721 -0.00128704 -0.13806905 0.00000000
3.06732709 -0.00109659 -0.01289072 0.00000000
3.61459559 0.00373582 -0.13717468 0.00000000
0.02956870 -0.00087507 -0.11916061 0.00000000
3.00368777 0.00467490 -0.06075943 0.00000000
3.69069187 0.00316773 -0.10780598 0.00000000
1.13700282 0.00100404 -0.13519511 0.00000000
0.69014981 -0.00029236 -0.01942341 0.00000000
2.37219467 -0.00132062 -0.04842273 0.00000000
2.81232666 0.00094631 -0.15447081 0.00000000
0.44354670 -0.00015249 -0.11476485 0.00000000
2.25665412 0.00370311 -0.12920712 0.00000000
3.62242068 -0.00215593 -0.01629132 0.00000000
0.27884743 0.00268978 -0.13207193 0.00000000
0.69004809 0.00087475 -0.02926688 0.00000000
1.96160557 -0.00154721 -0.01723088 0.00000000
0.33517790 0.00020997 -0.02461105 0.00000000
1.82994122 -0.00424855 -0.02351864 0.00000000
2.90426202 -0.00095139 -0.00532979 0.00000000
3.75151530 0.00226777 -0.05923588 0.00000000
0.72004053 -0.00392845 -0.09321311 0.00000000
1.24792142 0.00222745 -0.01891859 0.00000000
3.87940412 0.00465952 -0.05585844 0.00000000
1.76941292 0.00250062 -0.15331380 0.00000000
2.45570103 -0.00308465 -0.11490754 0.00000000
0.83954786 0.00333660 -0.11745532 0.00000000
0.10815384 0.00352906 -0.11081898 0.00000000
0.68877817 0.00010044 -0.03841965 0.00000000
1.95217425 -0.00227998 -0.00790256 0.00000000
3.06805908 0.00213662 -0.09786769 0.00000000
1.91869979 0.00194584 -0.14148848 0.00000000
0.44435372 0.00056767 -0.07383923 0.00000000
1.20840513 0.00078883 -0.12201383 0.00000000
3.89469096 -0.00402214 -0.03742476 0.00000000
0.89935010 -0.00059299 -0.09870142 0.00000000
3.39508765 0.00407250 -0.01091925 0.00000000
2.70702375 -0.00199489 -0.03661100 0.00000000
4.24974405 0.00204855 -0.03372791 0.00000000
3.61024836 0.00520236 -0.00575140 0.00000000
4.20344575 0.00300209 -0.03522447 0.00000000
2.73401311 0.00190614 -0.00631039 0.00000000
1.67154633 0.00460105 -0.13582946 0.00000000
4.25489101 0.00233177 -0.10283559 0.00000000
2.35518533 0.00366179 -0.01806804 0.00000000
1.08022883 0.00198620 -0.10065083 0.00000000
0.30544642 -0.00132039 -0.11823036 0.00000000
0.51939997 -0.00120086 -0.04027912 0.00000000
1.82375189 0.00265105 -0.00717717 0.00000000
3.34796090 0.00348889 -0.10905066 0.00000000
2.27278012 -0.00102176 -0.05606331 0.00000000
3.25366267 0.00419695 -0.01592408 0.00000000
2.56226577 0.00450907 -0.02423870 0.00000000
3.87472192 -0.00334612 -0.00477453 0.00000000
2.71618888 -0.00103591 -0.03665596 0.00000000
1.56034710 0.00465977 -0.08826729 0.00000000
1.23457859 -0.00152729 -0.05116395 0.00000000
0.72845205 0.00797134 -0.12260532 0.00000000
0.99482646 0.00137016 -0.14638577 0.00000000
1.70118699 0.00441861 -0.09914003 0.00000000
0.84065406 -0.00055631 -0.06277765 0.00000000
4.39916751 0.00274094 -0.05251731 0.00000000
1.20787587 0.00009882 -0.03629220 0.00000000
1.20601544 -0.00327920 -0.04943265 0.00000000
0.79846125 0.00268010 -0.04722141 0.00000000
3.02761021 -0.00178173 -0.05214241 0.00000000
3.44425851 -0.00357979 -0.10904733 0.00000000
0.52317069 -0.00208348 -0.06960592 0.00000000
3.11116720 0.00246568 -0.09581526 0.00000000
1.42540749 0.00312332 -0.09129077 0.00000000
4.20366879 0.00269622 -0.04224397 0.00000000
1.89153025 0.00596598 -0.09544720 0.00000000
1.93190182 -0.00055687 -0.00978859 0.00000000
3.29901330 -0.00137866 -0.13319621 0.00000000
3.29323833 0.00074301 -0.02193055 0.00000000
3.33380450 0.00398414 -0.05731047 0.00000000
0.40228578 0.00521055 -0.03982602 0.00000000
2.40316352 -0.00082870 -0.02932846 0.00000000
0.63641717 0.00199062 -0.08296476 0.00000000
2.66262506 0.00081188 -0.09956801 0.00000000
0.33992474 0.00320303 -0.05775689 0.00000000
0.65997878 -0.00033676 -0.00054635 0.00000000
1.29007510 -0.00304289 -0.02018076 0.00000000
2.83471908 0.00557006 -0.00013627 0.00000000
1.68778932 -0.00317370 -0.03465644 0.00000000
2.78128068 0.00177877 -0.06007448 0.00000000
3.82311836 0.00305741 -0.13268302 0.00000000
0.67581046 -0.00157409 -0.05722930 0.00000000
3.13222455 0.00491221 -0.03214871 0.00000000
0.77901993 0.00085879 -0.12768112 0.00000000
2.76584841 0.00083205 -0.14263437 0.00000000
1.39881722 -0.00082573 -0.14026609 0.00000000
3.55622483 -0.00296919 -0.02624500 0.00000000
1.19599160 0.00033711 -0.09108179 0.00000000
1.82109663 -0.00130536 -0.06133791 0.00000000
3.40163585 -0.00050298 -0.12466997 0.00000000
2.01708418 -0.00588608 -0.06316400 0.00000000
1.95162022 0.00014954 -0.06437391 0.00000000
2.81230355 0.00008048 -0.13502222 0.00000000
1.63919035 -0.00070010 -0.13356887 0.00000000
2.01301803 -0.00231212 -0.05752415 0.00000000
1.31450496 -0.00352373 -0.03728141 0.00000000
2.65624172 -0.00480593 -0.05578506 0.00000000
0.82084982 0.00439603 -0.02524129 0.00000000
3.17783936 0.00389579 -0.10686797 0.00000000
2.12189049 0.00297033 -0.14376708 0.00000000
4.27179496 0.00159743 -0.05028891 0.00000000
2.83578633 0.00089836 -0.15251262 0.00000000
3.45319744 0.00237875 -0.02547122 0.00000000
4.05960381 -0.00162950 -0.09492400 0.00000000
3.73371491 -0.00061379 -0.10424452 0.00000000
2.58246132 -0.00057546 -0.12211210 0.00000000
4.38712459 0.00184521 -0.14490516 0.00000000
0.69281031 -0.00130501 -0.14032594 0.00000000
0.18837412 -0.00271433 -0.00859489 0.00000000
0.91924667 0.00518144 -0.07599193 0.00000000
2.18942222 0.00439730 -0.06017278 0.00000000
2.98231073 -0.00054235 -0.01827471 0.00000000
1.88751461 0.00224966 -0.07275452 0.00000000
2.64586106 -0.00051791 -0.07643510 0.00000000
1.07214706 0.00007817 -0.11173159 0.00000000
3.46258800 -0.00630835 -0.01349238 0.00000000
2.57459604 0.00318834 -0.07238337 0.00000000
4.24311069 0.00498898 -0.13719387 0.00000000
3.31818297 0.00448135 -0.09986434 0.00000000
0.60153134 0.00440920 -0.15172919 0.00000000
1.85085327 0.00247519 -0.05488760 0.00000000
4.37009775 -0.00013188 -0.12280330 0.00000000
1.44410689 0.00110888 -0.08685711 0.00000000
1.10972896 0.00246116 -0.06063577 0.00000000
0.54947366 -0.00370413 -0.03223887 0.00000000
0.01757876 0.00687516 -0.02529656 0.00000000
0.45964906 0.00341388 -0.04468599 0.00000000
0.42988971 -0.00223108 -0.01859240 0.00000000
3.70379207 -0.00018555 -0.06546636 0.00000000
2.51929266 -0.00287006 -0.06966193 0.00000000
3.24558848 0.00081759 -0.09850817 0.00000000
3.45516124 0.00455706 -0.07531233 0.00000000
2.98299317 0.00200742 -0.01494022 0.00000000
1.99822656 0.00085846 -0.12628702 0.00000000
0.73724907 0.00269726 -0.04674132 0.00000000
1.80980295 0.00294473 -0.13556551 0.00000000
2.84000439 0.00310083 -0.00237043 0.00000000
1.18311401 0.00140421 -0.08220905 0.00000000
2.87869131 0.00377340 -0.07573251 0.00000000
3.64674396 -0.00126625 -0.03320361 0.00000000
1.99984090 0.00088824 -0.14374720 0.00000000
0.23955037 0.00131457 -0.03896462 0.00000000
2.78524909 0.00769255 -0.11423248 0.00000000
0.55943895 0.00095262 -0.13696342 0.00000000
0.87616649 -0.00196834 -0.11910824 0.00000000
1.77464535 -0.00398148 -0.00901808 0.00000000
3.63886130 0.00321290 -0.05666168 0.00000000
3.73020466 -0.00020506 -0.00518270 0.00000000
1.26095819 -0.00335125 -0.02977089 0.00000000
2.08702248 0.00079358 -0.11407852 0.00000000
1.24052932 -0.00080416 -0.09535835 0.00000000
0.01212870 0.00250598 -0.02194901 0.00000000
0.63963801 0.00209973 -0.01543268 0.00000000
1.64193617 0.00051906 -0.00919148 0.00000000
2.57385152 -0.00342396 -0.14897892 0.00000000
2.79255853 0.00541271 -0.15054280 0.00000000
4.31109226 -0.00257398 -0.12173924 0.00000000
3.70104187 -0.00101623 -0.04683173 0.00000000
2.86360618 0.00186781 -0.02925252 0.00000000
3.36508904 0.00220881 -0.11763598 0.00000000
2.04777220 0.00366550 -0.01438242 0.00000000
1.33981230 0.00738416 -0.10189997 0.00000000
2.15504864 0.00077082 -0.10823764 0.00000000
0.60428378 0.00045741 -0.02045989 0.00000000
3.99187242 0.00092282 -0.13694464 0.00000000
2.03476247 0.00241261 -0.05707459 0.00000000
3.56205135 0.00364720 -0.15006249 0.00000000
0.47114777 0.00023678 -0.00674104 0.00000000
4.09813328 0.00176065 -0.12875879 0.00000000
2.88825380 -0.00449003 -0.01787288 0.00000000
0.84345585 -0.00037686 -0.12606233 0.00000000
3.88779230 0.00364073 -0.07525021 0.00000000
0.64574188 -0.00404846 -0.06962873 0.00000000
2.43617834 -0.00309304 -0.10448739 0.00000000
0.75185149 0.00070343 -0.10876063 0.00000000
1.18058283 0.00049449 -0.05825966 0.00000000
3.20503748 0.00162394 -0.07704363 0.00000000
3.22958401 0.00221391 -0.08802149 0.00000000
2.24524878 0.00188771 -0.04758300 0.00000000
1.91204421 0.00544753 -0.12840589 0.00000000
3.93467545 0.00085979 -0.00112181 0.00000000
0.71969664 -0.00151024 -0.07471553 0.00000000
0.07263472 0.00336832 -0.06668642 0.00000000
4.31455079 -0.00045075 -0.01431020 0.00000000
2.18955234 -0.00150657 -0.04746378 0.00000000
1.04531122 0.00054031 -0.11759238 0.00000000
3.53653335 0.00110241 -0.05311982 0.00000000
1.57343767 0.00149615 -0.15109134 0.00000000
2.40355651 0.00367422 -0.06673587 0.00000000
3.99796788 0.00084030 -0.08609802 0.00000000
1.40900174 -0.00312846 -0.06459862 0.00000000
2.01408127 -0.00087160 -0.15038149 0.00000000
2.36575599 0.00213430 -0.05199953 0.00000000
2.62898156 0.00375805 -0.04076150 0.00000000
0.82292998 0.00312072 -0.00002710 0.00000000
4.32941084 0.00014035 -0.02815038 0.00000000
3.12727943 0.00292937 -0.06283208 0.00000000
3.33907460 0.00310780 -0.09356748 0.00000000
3.84900611 -0.00054079 -0.01263261 0.00000000
0.86215574 -0.00054726 -0.00039863 0.00000000
4.07437128 0.00297256 -0.06040993 0.00000000
3.95054406 -0.00378161 -0.08341786 0.00000000
1.85043828 -0.00361727 -0.04761591 0.00000000
1.81067848 0.00205546 -0.14254007 0.00000000
0.41207209 -0.00405574 -0.10296347 0.00000000
1.98612754 -0.00239815 -0.11444532 0.00000000
3.28733676 0.00027114 -0.11602478 0.00000000
0.60782649 -0.00100909 -0.14833381 0.00000000
0.51294682 -0.00033796 -0.13240523 0.00000000
2.23879649 -0.00335259 -0.04680889 0.00000000
4.12916723 -0.00654362 -0.00454998 0.00000000
2.66722539 0.00157240 -0.07709740 0.00000000
4.12587833 0.00115311 -0.02375141 0.00000000
3.24430969 -0.00402779 -0.14900711 0.00000000
1.48224860 0.00059804 -0.02805895 0.00000000
3.10063639 0.00217806 -0.11111181 0.00000000
2.82934387 -0.00178703 -0.08777219 0.00000000
1.17425597 0.00383801 -0.00208302 0.00000000
3.56985352 0.00046055 -0.01980287 0.00000000
4.25787931 0.00393107 -0.14872096 0.00000000
4.33240813 -0.00045969 -0.15165592 0.00000000
1.40548252 -0.00104250 -0.08750969 0.00000000
0.85733407 -0.00357646 -0.08844528 0.00000000
2.73512784 0.00085158 -0.00911588 0.00000000
0.85412386 -0.00138734 -0.05936579 0.00000000
2.88179206 -0.00282132 -0.08026552 0.00000000
0.27477364 0.00482949 -0.07907605 0.00000000
3.98855813 0.00681597 -0.13523026 0.00000000
2.87375152 0.00235089 -0.12837919 0.00000000
4.01657943 -0.00337768 -0.11149807 0.00000000
0.06417513 0.00360607 -0.15389877 0.00000000
2.49335761 -0.00482332 -0.02903053 0.00000000
3.12166715 0.00957675 -0.08156945 0.00000000
0.08133566 -0.00120084 -0.10210891 0.00000000
2.01823694 -0.00003608 -0.02093803 0.00000000
3.28080172 0.00244967 -0.04289614 0.00000000
2.56008965 0.00238259 -0.12470093 0.00000000
3.47706022 0.00645823 -0.03427363 0.00000000
1.22435855 -0.00290814 -0.04445694 0.00000000
2.75802947 0.00183971 -0.13313200 0.00000000
1.71315720 0.00226410 -0.06409427 0.00000000
2.74307881 0.00326896 -0.09479750 0.00000000
1.69619862 0.00381486 -0.08320001 0.00000000
3.29623785 0.00192177 -0.02953666 0.00000000
3.87380996 -0.00157409 -0.09050225 0.00000000
1.30223115 0.00323166 -0.06673054 0.00000000
1.59338757 0.00039366 -0.14004057 0.00000000
0.80417334 0.00421267 -0.08854203 0.00000000
1.08663703 0.00136450 -0.12467542 0.00000000
1.64768817 0.00253810 -0.03272488 0.00000000
3.82570269 -0.00321173 -0.05529334 0.00000000
3.78767977 0.00116525 -0.13378881 0.00000000
3.83578536 -0.00156855 -0.10197176 0.00000000
0.96734909 -0.00230112 -0.06045211 0.00000000
1.50377772 -0.00149073 -0.08458940 0.00000000
0.82354972 -0.00370584 -0.04713833 0.00000000
1.31767420 0.00537131 -0.04343942 0.00000000
3.21506528 0.00194283 -0.09668795 0.00000000
1.49475512 0.00116928 -0.09994767 0.00000000
0.94983814 -0.00067038 -0.04008936 0.00000000
