1.231465 0.022045 0.001532 0.0
1.807053 0.383051 0.000185 0.0
1.861566 1.111457 0.000982 0.0
2.514780 0.927195 -0.003570 0.0
1.574877 0.613349 0.002200 0.0
1.873912 0.817193 0.004332 0.0
1.224330 0.742483 0.002308 0.0
0.322560 1.222604 -0.004866 0.0
0.449301 0.369691 0.003804 0.0
2.063505 0.186176 -0.001961 0.0
0.718049 0.241522 0.004051 0.0
0.412514 0.976033 -0.001634 0.0
3.098892 1.318879 -0.001959 0.0
0.137663 1.115052 0.000572 0.0
0.360790 0.389897 0.000816 0.0
3.885076 0.499776 -0.001124 0.0
0.485888 0.380027 -0.000381 0.0
0.314613 1.414047 0.002931 0.0
3.653302 0.881135 0.001177 0.0
1.186252 0.959839 -0.001814 0.0
2.561373 1.338532 -0.003473 0.0
3.360647 0.096842 0.000598 0.0
1.577636 1.190307 0.003613 0.0
2.404585 0.342144 -0.002841 0.0
2.434460 0.886341 0.002839 0.0
0.195565 0.484883 0.002173 0.0
2.991751 0.750578 0.002265 0.0
0.454516 1.177843 0.003371 0.0
0.921888 0.882687 0.001589 0.0
3.847552 0.212913 0.004972 0.0
0.630022 1.115685 0.001839 0.0
1.880590 1.269242 0.000835 0.0
2.084315 0.200292 -0.001614 0.0
3.186376 0.809130 0.000627 0.0
3.716206 1.097721 0.000098 0.0
4.094744 0.783739 0.002487 0.0
3.370463 1.353841 -0.001472 0.0
1.028830 1.397057 0.002255 0.0
0.568341 0.795148 0.000694 0.0
2.595551 0.002415 0.001751 0.0
2.184558 0.174581 0.004122 0.0
3.768359 1.521628 0.003645 0.0
2.013816 0.397916 0.000812 0.0
4.097504 0.461817 0.001896 0.0
2.517456 1.116856 -0.002761 0.0
0.303805 1.241404 0.004761 0.0
0.036721 0.851642 -0.005298 0.0
0.054348 0.317369 0.002810 0.0
3.883144 1.237803 -0.004328 0.0
2.904742 0.628517 -0.000884 0.0
4.250006 1.054453 0.004411 0.0
2.051340 0.290289 -0.001660 0.0
0.448564 1.496245 -0.001407 0.0
2.084191 0.203825 0.001724 0.0
4.160509 0.857639 -0.003877 0.0
1.117800 1.270640 -0.003046 0.0
0.617200 0.974559 -0.004258 0.0
0.670786 1.198515 0.001787 0.0
4.086841 0.293582 0.000663 0.0
1.274869 0.031397 0.001526 0.0
3.418905 1.551505 0.000907 0.0
1.126335 0.855253 0.000353 0.0
0.265445 1.265410 -0.001209 0.0
2.035380 1.075679 0.000942 0.0
4.015362 0.879364 0.001449 0.0
3.576083 0.735108 0.002407 0.0
2.325876 1.379339 -0.000058 0.0
3.738233 0.088691 -0.000642 0.0
1.481371 0.542365 0.001892 0.0
0.146680 1.174656 -0.001778 0.0
1.216343 0.296666 -0.001593 0.0
2.359958 0.295584 -0.002684 0.0
3.951683 0.544376 -0.002426 0.0
3.128202 1.018054 -0.002579 0.0
1.693093 0.417684 0.003664 0.0
1.160499 0.743161 0.002596 0.0
3.892607 0.319937 0.005401 0.0
3.014337 1.143088 0.002771 0.0
1.797011 0.918571 0.003305 0.0
0.182071 0.134118 -0.000844 0.0
4.209761 1.167074 0.005139 0.0
3.842219 0.376631 -0.003234 0.0
1.891503 0.292228 -0.000643 0.0
4.195129 0.609425 -0.001536 0.0
2.433841 0.969233 0.000253 0.0
3.889071 0.020533 0.000032 0.0
0.131230 0.852449 -0.001058 0.0
4.326992 0.276332 0.004882 0.0
2.597905 1.054177 0.001880 0.0
3.769832 0.086696 -0.002210 0.0
2.195097 0.039221 -0.002118 0.0
0.434316 0.295603 0.001443 0.0
2.606840 0.975972 0.001315 0.0
3.835973 1.500686 -0.002593 0.0
3.869745 0.347305 -0.003259 0.0
1.642643 0.580428 0.002693 0.0
3.258282 0.959792 0.002961 0.0
3.783785 0.480108 0.002589 0.0
1.005443 1.115202 -0.001729 0.0
0.451361 0.141056 -0.000025 0.0
1.068140 1.516213 -0.003584 0.0
1.477294 0.036027 -0.000304 0.0
2.735026 0.799927 -0.001810 0.0
2.556619 0.837273 0.000064 0.0
3.145283 1.443039 0.001906 0.0
0.423632 1.296855 0.002204 0.0
3.503639 0.645983 0.003830 0.0
3.811502 1.077962 -0.002355 0.0
4.232406 0.962672 0.003992 0.0
1.686329 1.484206 0.000098 0.0
1.485762 0.814686 -0.001462 0.0
3.689982 0.978790 0.002861 0.0
0.924569 1.378874 -0.000984 0.0
4.299755 0.967017 0.003499 0.0
1.194901 0.247388 0.000509 0.0
0.098062 0.238209 0.004337 0.0
2.680516 0.267403 0.001693 0.0
3.113396 1.175855 0.005386 0.0
3.073532 0.452951 0.000874 0.0
1.167402 0.538142 0.000020 0.0
0.523106 1.090966 0.005396 0.0
1.056543 0.986896 0.002929 0.0
3.558322 1.157313 -0.002068 0.0
2.671072 1.503299 0.002532 0.0
2.443194 1.373477 -0.000781 0.0
0.909089 1.191580 -0.001498 0.0
2.452890 0.453883 0.002555 0.0
1.698442 0.274772 -0.001017 0.0
2.166217 0.946179 -0.001446 0.0
2.271002 1.172261 -0.001086 0.0
2.495133 1.098788 0.001385 0.0
4.149934 0.871535 -0.000072 0.0
0.746756 0.552736 -0.005111 0.0
0.594183 0.421323 0.003364 0.0
1.964974 1.313815 0.000812 0.0
2.067696 1.151043 -0.003498 0.0
3.858590 1.515643 -0.000158 0.0
0.466563 0.536355 -0.002430 0.0
1.265934 0.651715 0.000384 0.0
3.602111 0.480638 -0.003782 0.0
4.017593 0.452450 -0.002700 0.0
3.325773 0.152878 0.000559 0.0
2.572741 0.939069 0.001435 0.0
3.345091 0.192439 -0.000758 0.0
1.744737 0.284840 0.000177 0.0
1.615992 0.844881 0.001409 0.0
0.948210 0.908195 0.003601 0.0
0.493258 0.362003 0.000420 0.0
3.164667 0.824109 0.002741 0.0
3.819442 0.832038 -0.002094 0.0
2.364061 0.549131 0.002553 0.0
0.764379 0.169959 0.000805 0.0
3.706878 1.206338 -0.005354 0.0
3.335561 1.433354 0.000332 0.0
4.202463 0.456817 -0.000917 0.0
2.259288 1.062112 -0.002238 0.0
2.396013 0.610248 -0.002353 0.0
4.253601 0.640356 0.002696 0.0
2.818463 1.177751 -0.000726 0.0
0.262694 0.993700 -0.000376 0.0
0.463101 0.867270 -0.001384 0.0
0.639124 0.351975 -0.001330 0.0
3.464020 0.099898 -0.002924 0.0
4.040201 1.366098 0.000451 0.0
3.466267 1.531847 0.000872 0.0
1.501004 1.016275 -0.000161 0.0
1.932131 0.777850 0.001442 0.0
1.057416 1.486889 0.002366 0.0
2.622015 1.114771 -0.002863 0.0
1.239198 0.366172 -0.001472 0.0
0.643420 1.238583 -0.002278 0.0
1.001822 1.389613 0.004310 0.0
2.407166 1.204251 -0.001347 0.0
0.294624 1.121397 -0.003884 0.0
2.149729 0.324004 -0.004400 0.0
1.603972 0.371071 -0.000039 0.0
3.907926 0.219602 0.003544 0.0
1.156339 0.315014 -0.001321 0.0
0.739592 0.599058 -0.002378 0.0
0.476530 1.480516 0.002151 0.0
2.566014 0.552829 0.001382 0.0
3.372844 0.777993 0.000713 0.0
2.246703 0.392819 0.001677 0.0
1.921534 0.680846 0.001613 0.0
3.844982 0.385454 -0.002271 0.0
2.671779 1.348307 0.000794 0.0
3.764846 0.449564 -0.001813 0.0
0.435754 1.536370 -0.002431 0.0
3.443625 0.260243 0.000600 0.0
3.872034 1.051987 -0.001588 0.0
4.199284 0.317627 0.002508 0.0
0.790874 1.122985 0.003177 0.0
1.672334 0.639351 -0.003277 0.0
2.204877 0.097700 0.001018 0.0
2.916291 0.982759 0.000844 0.0
3.582037 0.765917 0.002439 0.0
0.115624 1.210648 0.001326 0.0
2.477376 0.456689 -0.000606 0.0
3.625201 0.298597 0.001695 0.0
0.461423 0.643140 -0.000959 0.0
3.816364 1.486262 0.000574 0.0
2.085459 0.625084 0.001528 0.0
2.924641 0.891247 0.001103 0.0
0.947918 0.380704 0.000045 0.0
2.619296 0.524312 -0.001437 0.0
3.189164 1.520466 -0.000012 0.0
2.705960 1.561966 -0.000364 0.0
3.998395 0.791332 -0.001345 0.0
0.022069 1.271613 0.003459 0.0
2.310970 0.978627 -0.002128 0.0
0.790122 0.608971 0.001522 0.0
3.160292 0.662363 -0.005465 0.0
1.672549 0.927731 -0.004823 0.0
2.851960 0.405235 0.002801 0.0
3.886101 1.154542 -0.003301 0.0
3.249940 0.384127 0.001047 0.0
0.575686 0.421413 -0.002705 0.0
2.039880 0.642853 -0.001114 0.0
1.424892 0.685705 -0.000141 0.0
3.177014 0.771926 0.003499 0.0
4.142642 0.479261 -0.001991 0.0
0.162563 0.989551 0.002879 0.0
2.954911 1.553572 0.000752 0.0
3.359235 0.816897 -0.000573 0.0
2.122969 1.321677 0.002849 0.0
3.692649 0.982847 -0.006708 0.0
2.576438 0.354203 -0.001541 0.0
3.759407 0.159573 0.001775 0.0
3.998315 1.424364 -0.001553 0.0
2.727559 0.592595 -0.003838 0.0
0.749234 0.533211 -0.001086 0.0
4.147276 1.424908 0.001800 0.0
0.781434 0.265903 -0.000671 0.0
2.248574 0.691753 -0.002432 0.0
3.830199 1.309111 -0.000428 0.0
1.652999 0.834486 -0.000293 0.0
1.508873 1.372434 0.001132 0.0
0.175162 0.213706 -0.000164 0.0
3.988974 1.038156 -0.000092 0.0
0.847216 0.335848 0.000731 0.0
4.403128 0.182025 0.002298 0.0
1.993277 0.498488 -0.001121 0.0
0.474879 1.099079 0.000334 0.0
1.623841 0.111958 0.001199 0.0
4.102754 1.222031 0.001667 0.0
2.767447 0.485342 -0.001125 0.0
3.094267 0.434137 0.001640 0.0
0.660019 0.142446 -0.000984 0.0
1.863202 0.495801 -0.002186 0.0
0.875167 1.283560 0.002074 0.0
3.735675 0.513255 0.000272 0.0
1.886544 0.448352 -0.002411 0.0
4.445753 0.337713 0.002563 0.0
3.132053 1.232476 0.000235 0.0
1.391460 0.110790 -0.002093 0.0
2.607820 1.040729 0.003186 0.0
2.123939 0.099746 -0.001593 0.0
1.512358 0.054456 -0.000490 0.0
3.886199 0.920518 0.002327 0.0
3.836324 1.243671 -0.002706 0.0
4.015713 0.586499 -0.000422 0.0
1.998865 1.023188 0.002684 0.0
2.899624 1.340569 0.001907 0.0
2.079357 1.471642 -0.001614 0.0
0.687294 0.319862 -0.001771 0.0
3.399338 0.224672 -0.002494 0.0
4.459805 1.029495 0.000260 0.0
0.862852 0.511676 -0.000391 0.0
4.408420 0.393023 0.000844 0.0
1.028301 1.269051 -0.000891 0.0
2.448654 1.026164 0.001193 0.0
3.985276 1.282642 0.000586 0.0
0.486901 0.781581 0.001479 0.0
4.165996 0.504221 0.000713 0.0
3.322679 0.938194 -0.003335 0.0
2.330794 1.187309 -0.001140 0.0
1.077853 1.094589 0.001142 0.0
3.342743 0.360958 -0.001206 0.0
2.608256 0.930330 -0.000942 0.0
3.875957 1.230370 0.002095 0.0
1.864548 0.877147 0.005186 0.0
4.038857 0.248682 -0.000051 0.0
3.185647 0.887823 -0.002225 0.0
3.546855 0.432832 0.004291 0.0
1.244518 0.801298 -0.001585 0.0
2.397751 0.725400 -0.000954 0.0
1.544710 1.103658 0.003025 0.0
0.261961 0.899923 0.000635 0.0
3.965974 1.262514 -0.001920 0.0
4.204165 1.046453 0.001583 0.0
3.228202 0.274276 -0.001104 0.0
3.356468 0.266606 -0.001363 0.0
0.475650 1.067041 0.000859 0.0
3.382928 0.009008 0.000098 0.0
1.509016 1.553071 -0.000394 0.0
3.980540 1.316867 -0.001591 0.0
0.227220 1.015223 0.003475 0.0
4.326089 0.632489 -0.000865 0.0
0.710960 0.065031 0.001401 0.0
1.650772 1.470469 -0.001314 0.0
3.544649 0.527643 -0.002831 0.0
2.205009 0.130697 -0.001437 0.0
1.305908 1.094602 -0.002324 0.0
1.858498 0.406372 0.001031 0.0
3.523349 0.926567 -0.002502 0.0
0.252329 1.031892 -0.001321 0.0
0.149955 0.572301 0.001379 0.0
1.718381 1.078476 -0.000836 0.0
3.459093 0.881025 -0.000583 0.0
4.383918 0.677735 -0.000624 0.0
3.791563 0.609170 -0.000394 0.0
1.415836 1.342167 -0.002059 0.0
0.891201 1.491774 -0.002150 0.0
0.942841 0.931217 0.002527 0.0
1.610942 0.788390 -0.002427 0.0
2.658289 0.504161 0.003220 0.0
2.747761 0.449328 0.002079 0.0
1.245386 0.572755 0.000068 0.0
0.301619 0.376075 0.001832 0.0
3.506112 1.307864 -0.004836 0.0
1.364756 1.340863 -0.002140 0.0
2.847650 0.089872 -0.000881 0.0
0.525916 0.334565 0.001118 0.0
2.039164 1.199698 -0.000521 0.0
2.165497 0.467916 -0.000167 0.0
4.444572 1.042806 0.001533 0.0
4.080960 0.902964 -0.001221 0.0
3.814956 0.461973 0.001274 0.0
3.171775 1.223824 -0.001044 0.0
2.976670 1.045360 0.004221 0.0
0.358503 0.047032 0.004569 0.0
2.207734 1.543956 0.003574 0.0
1.302632 1.144810 -0.001544 0.0
4.268079 0.075978 -0.000882 0.0
3.035503 0.937719 0.001662 0.0
1.743147 0.048456 -0.000651 0.0
3.675261 0.432551 0.000470 0.0
3.633280 0.937229 0.001453 0.0
0.245098 0.117146 -0.002550 0.0
0.212297 1.195829 -0.000471 0.0
1.823014 1.363143 0.001851 0.0
1.963996 1.496908 -0.000617 0.0
0.129454 1.491265 -0.000974 0.0
3.918159 0.931796 0.000802 0.0
3.719946 0.363722 0.001480 0.0
2.728739 0.551764 -0.004545 0.0
1.289326 1.481470 0.002010 0.0
1.697320 1.543406 -0.003816 0.0
3.702464 1.421586 0.001803 0.0
4.373420 0.672062 -0.004070 0.0
3.179242 0.981593 -0.001410 0.0
3.936289 0.056979 0.003124 0.0
1.119172 1.306775 -0.002831 0.0
1.008887 0.261562 -0.006480 0.0
1.384405 0.105112 0.001386 0.0
2.711612 1.320883 0.001874 0.0
2.683343 1.266327 -0.002809 0.0
3.080653 1.404684 -0.000957 0.0
3.099023 0.382319 0.001265 0.0
3.629672 0.789869 -0.000325 0.0
2.245269 0.505318 -0.008228 0.0
1.088727 0.298898 0.001683 0.0
3.988558 1.142723 0.000732 0.0
4.057043 0.826408 -0.000911 0.0
1.891605 1.427486 -0.002703 0.0
2.875997 0.109658 0.002862 0.0
0.252232 1.157723 0.000627 0.0
0.618345 0.820466 0.000653 0.0
1.677770 1.284156 0.002548 0.0
0.881179 0.805432 0.000613 0.0
1.091095 0.273901 0.003577 0.0
1.759344 1.277577 0.001153 0.0
2.802603 1.187670 0.000257 0.0
2.323607 0.065556 -0.001980 0.0
4.310315 1.344226 0.002021 0.0
0.754632 0.073580 0.001283 0.0
2.231896 1.047897 -0.004524 0.0
1.284794 1.013066 0.001560 0.0
0.752975 1.447215 0.004563 0.0
0.037792 0.904097 0.002116 0.0
2.016504 0.599685 0.002649 0.0
3.288104 0.734124 -0.001743 0.0
0.299380 0.888882 0.003079 0.0
0.126126 1.535859 -0.000417 0.0
2.653960 0.428858 0.002535 0.0
2.490654 1.116873 -0.003302 0.0
4.314843 1.096440 -0.007775 0.0
2.877385 0.846859 0.000842 0.0
0.287117 0.042954 0.002149 0.0
1.730997 1.046003 -0.002979 0.0
3.180136 0.885290 -0.003181 0.0
1.972351 0.959005 -0.000142 0.0
3.488925 0.671928 -0.004227 0.0
0.167405 0.129405 -0.000649 0.0
3.932434 0.074513 0.001990 0.0
0.269489 0.325732 0.003324 0.0
0.287413 0.643802 -0.000812 0.0
0.666989 1.126921 0.000950 0.0
1.693136 0.143577 -0.000447 0.0
3.391348 0.535965 0.000253 0.0
1.929265 1.516198 -0.001630 0.0
0.227052 0.924915 0.000529 0.0
2.764719 0.262352 -0.001981 0.0
3.312457 0.336560 -0.002844 0.0
2.733323 0.612861 -0.004553 0.0
1.527549 0.403156 0.000952 0.0
1.113586 1.335391 -0.001874 0.0
4.432817 1.209901 -0.002933 0.0
3.703819 0.750602 -0.002935 0.0
1.980245 0.802798 0.001105 0.0
0.856845 0.614131 0.002698 0.0
3.494829 0.827858 -0.000228 0.0
1.078979 0.200931 -0.001401 0.0
1.653427 1.123159 -0.002147 0.0
1.709126 0.667703 -0.003546 0.0
3.460570 1.422712 0.003506 0.0
2.458140 0.015294 -0.001688 0.0
1.241407 0.741242 -0.002406 0.0
2.782494 1.555391 -0.002058 0.0
3.117883 1.085330 0.002744 0.0
2.949790 1.429664 -0.005018 0.0
3.052239 1.221009 -0.001802 0.0
4.039458 1.335752 -0.000950 0.0
1.115972 0.491770 0.000960 0.0
1.986104 1.334080 -0.003677 0.0
3.344471 0.858351 0.002482 0.0
0.610472 1.382973 -0.000659 0.0
0.984770 0.635885 0.001563 0.0
0.956142 1.465171 -0.000447 0.0
1.607690 1.430788 0.000876 0.0
4.258645 0.141720 -0.000824 0.0
4.021961 1.042348 0.001746 0.0
0.874155 0.298264 0.002169 0.0
0.523361 0.441138 0.001210 0.0
3.369098 1.255146 -0.000828 0.0
2.335060 1.317288 0.002234 0.0
3.210558 1.002524 -0.000246 0.0
3.261221 1.072909 -0.002325 0.0
1.804520 0.608975 0.001345 0.0
3.046127 0.083759 -0.002762 0.0
1.187939 0.709178 0.000038 0.0
3.378698 0.600905 -0.000554 0.0
3.979056 1.120617 -0.001545 0.0
0.313184 0.812063 -0.003496 0.0
2.770773 0.547207 0.000025 0.0
3.866800 0.224388 0.000132 0.0
0.497495 0.669964 -0.001340 0.0
3.774892 0.074289 0.000586 0.0
3.453491 0.348142 -0.002405 0.0
3.075945 0.707106 -0.001082 0.0
0.320197 1.081393 -0.005250 0.0
2.099601 0.735466 -0.003937 0.0
4.370564 0.904987 0.000242 0.0
0.568405 1.006536 0.000862 0.0
0.683536 0.632822 -0.001793 0.0
1.254140 0.706032 0.003063 0.0
4.044173 0.017902 0.000487 0.0
0.881249 0.958582 0.003118 0.0
1.671809 0.897760 -0.000790 0.0
2.721465 0.833375 0.001893 0.0
4.134840 1.160822 0.000613 0.0
1.416969 0.971183 -0.000324 0.0
4.278794 1.041141 0.001401 0.0
4.222474 1.149902 0.000411 0.0
4.363152 0.446965 0.001651 0.0
1.529519 1.018750 -0.004627 0.0
3.563431 0.675117 0.000681 0.0
2.750737 1.104382 0.000760 0.0
2.385000 1.157674 -0.001227 0.0
2.725032 0.792453 0.002226 0.0
3.161565 0.282831 -0.002177 0.0
0.548949 0.330288 0.002002 0.0
2.776739 0.180738 -0.000600 0.0
3.521066 1.419914 -0.004261 0.0
0.964490 0.400360 0.006513 0.0
0.009484 0.491039 -0.001727 0.0
1.189277 0.901571 0.000062 0.0
3.414338 1.173032 -0.000497 0.0
3.222329 0.618217 0.000907 0.0
0.106107 0.963592 -0.000727 0.0
2.267085 0.726193 0.001735 0.0
2.636812 1.347129 0.000471 0.0
1.623809 0.169162 -0.000162 0.0
1.729597 0.096924 -0.004632 0.0
2.440550 1.073736 -0.002022 0.0
4.366245 0.243424 0.004547 0.0
4.000289 1.036801 0.000841 0.0
4.079890 0.230473 -0.001666 0.0
0.925799 0.366302 0.001474 0.0
1.481760 1.038264 0.000504 0.0
2.953575 0.296283 0.001988 0.0
0.157324 0.224813 -0.000731 0.0
3.988479 0.179598 0.003466 0.0
2.770461 0.398275 0.000450 0.0
3.735970 0.522070 0.002954 0.0
2.057065 0.043536 0.002658 0.0
3.442578 1.396703 0.003195 0.0
2.991639 0.835068 -0.001558 0.0
2.189167 0.505074 -0.000384 0.0
0.983267 1.435642 -0.002500 0.0
2.633469 0.474480 0.001261 0.0
1.091871 0.085386 0.007959 0.0
3.977842 0.046381 0.002423 0.0
1.762882 0.200982 -0.006811 0.0
3.265882 0.469723 0.001782 0.0
1.164942 1.249189 0.003370 0.0
2.974540 0.503994 -0.001431 0.0
1.293885 0.026793 -0.002639 0.0
0.583230 1.217250 -0.004693 0.0
3.475302 0.964746 -0.006258 0.0
2.623485 0.796542 -0.000021 0.0
1.887379 0.355384 -0.000304 0.0
3.101773 0.179590 -0.003416 0.0
2.325245 0.968324 0.000470 0.0
1.056272 0.741856 0.000358 0.0
2.911774 0.173357 0.002727 0.0
3.299537 1.068605 0.003262 0.0
0.130735 1.035120 0.000568 0.0
2.088068 1.207290 0.000819 0.0
2.717664 0.839528 0.003307 0.0
2.746717 0.957894 -0.001427 0.0
1.037303 0.281340 -0.003124 0.0
4.374032 0.425661 0.002963 0.0
2.402684 0.043614 0.000133 0.0
2.410291 0.594576 -0.004122 0.0
0.951713 0.819114 -0.002182 0.0
3.286953 1.218497 0.003511 0.0
1.160141 0.120481 0.003463 0.0
3.797340 1.293400 -0.000725 0.0
3.189484 1.113001 -0.000693 0.0
3.054023 0.846631 0.000031 0.0
2.562753 0.162969 -0.001704 0.0
2.392997 0.768837 0.002131 0.0
1.395476 0.891391 0.001874 0.0
2.235785 1.173669 0.001171 0.0
1.545050 1.446812 -0.000763 0.0
4.107025 1.315996 0.002187 0.0
1.622198 0.535958 0.002826 0.0
2.349347 0.928472 -0.004207 0.0
2.270540 0.291793 0.001455 0.0
0.078616 0.895650 -0.001391 0.0
3.844745 0.237518 0.004850 0.0
1.199201 0.814411 -0.001196 0.0
0.650220 0.254750 0.003582 0.0
2.965873 0.943246 -0.000756 0.0
0.503156 0.186463 -0.000889 0.0
0.608356 1.387049 0.000386 0.0
4.283701 0.656957 -0.000435 0.0
3.055116 1.249173 -0.000871 0.0
3.104094 1.251586 -0.000021 0.0
2.010089 1.037707 -0.000000 0.0
3.874070 1.111803 -0.003475 0.0
0.443386 0.464240 0.000756 0.0
2.350731 1.416919 0.002922 0.0
3.628930 0.862895 0.003080 0.0
1.019639 1.213357 -0.003021 0.0
3.926342 1.366661 -0.001977 0.0
1.236443 1.094842 -0.001001 0.0
1.500317 0.893634 0.003175 0.0
0.369655 1.070128 0.004172 0.0
1.449233 0.383985 0.001737 0.0
0.879859 1.019555 -0.002625 0.0
3.037835 0.330678 0.000987 0.0
1.518834 0.723374 -0.001837 0.0
1.204138 0.948884 -0.003053 0.0
0.968828 0.298929 -0.000752 0.0
1.498780 1.001048 -0.003539 0.0
2.957287 1.190820 0.002284 0.0
3.747834 0.309649 0.002016 0.0
3.470034 0.022831 -0.002928 0.0
3.221665 1.236046 0.003031 0.0
2.802469 1.152239 0.003038 0.0
0.127756 0.863495 -0.003737 0.0
0.507263 1.011017 0.002704 0.0
2.896291 1.319629 0.001603 0.0
3.796491 1.049557 0.000117 0.0
3.512401 0.467717 0.002687 0.0
0.005802 1.274746 0.001345 0.0
4.039665 0.070483 0.002400 0.0
3.004940 1.421095 -0.003637 0.0
1.377324 1.555916 -0.001605 0.0
2.671608 0.206062 -0.001338 0.0
1.937096 1.198740 -0.001938 0.0
0.086586 0.574068 0.002773 0.0
0.334908 0.476197 -0.004387 0.0
2.460512 0.761534 -0.001475 0.0
4.165121 1.151211 0.001386 0.0
0.883361 0.374728 -0.000797 0.0
1.504580 0.208711 0.002005 0.0
1.368511 0.385486 -0.002524 0.0
0.733248 1.489136 -0.002780 0.0
1.339896 1.399212 0.003844 0.0
3.477629 0.683923 0.000874 0.0
2.902098 0.015863 0.002890 0.0
4.169433 0.224824 -0.002359 0.0
3.295260 1.027914 0.000101 0.0
3.975836 1.059403 -0.000420 0.0
4.159476 1.179326 -0.001779 0.0
1.759805 0.751186 -0.001722 0.0
0.099234 0.564623 -0.001181 0.0
2.985176 1.017515 -0.000521 0.0
1.333860 0.430886 -0.002105 0.0
4.099709 0.708198 -0.000988 0.0
1.931742 0.938121 0.000110 0.0
3.481308 0.562358 0.001010 0.0
1.737206 1.159320 -0.002556 0.0
1.202659 1.566708 0.000476 0.0
2.021123 0.463496 0.000934 0.0
3.975128 0.236605 0.003172 0.0
2.561593 0.233297 0.000921 0.0
1.679237 0.980634 -0.003614 0.0
2.095962 1.353877 0.001973 0.0
3.050401 0.231242 -0.003778 0.0
3.844866 0.732251 0.001588 0.0
1.867384 0.442616 -0.000319 0.0
1.253548 0.792792 -0.003178 0.0
4.456201 0.202252 -0.001570 0.0
4.228378 0.369370 0.001914 0.0
0.842919 1.225347 0.000771 0.0
3.617567 1.092580 -0.001371 0.0
3.085243 0.206201 0.005947 0.0
0.541791 0.643725 0.002302 0.0
1.267211 0.962989 0.004968 0.0
0.222008 0.924190 -0.000202 0.0
1.285563 1.111286 0.000018 0.0
3.449984 1.005010 0.003594 0.0
0.542952 1.445411 -0.001385 0.0
0.410173 1.447831 0.001672 0.0
3.354736 1.080230 0.003858 0.0
2.307400 1.281152 -0.001708 0.0
3.564577 1.422679 -0.001329 0.0
2.818300 1.065809 -0.000308 0.0
3.027464 0.848726 0.001067 0.0
2.287321 1.222665 -0.005881 0.0
1.827713 0.320323 -0.000891 0.0
3.388678 0.862482 -0.006583 0.0
0.113741 0.259981 0.004817 0.0
3.824209 0.120675 0.000734 0.0
4.263589 0.101509 0.000962 0.0
0.893180 0.252307 -0.003793 0.0
2.432825 1.497936 0.002802 0.0
3.726572 0.661844 -0.000586 0.0
0.675028 0.222437 0.002458 0.0
2.266736 1.168526 -0.001716 0.0
1.435938 0.390978 0.001314 0.0
1.172346 0.958317 -0.001449 0.0
1.725230 0.969153 -0.004500 0.0
1.926713 0.682396 -0.000980 0.0
0.834432 1.048702 0.002603 0.0
2.203420 0.791020 -0.000431 0.0
3.842487 0.563577 0.001668 0.0
0.022703 0.978767 0.001799 0.0
3.420018 1.165669 0.003346 0.0
3.960602 0.714725 0.002270 0.0
1.265723 0.501164 -0.001239 0.0
4.230023 0.461891 0.001453 0.0
4.387684 1.409166 0.000613 0.0
0.422726 0.674888 -0.001519 0.0
0.523179 0.201979 -0.000954 0.0
3.419349 0.073629 0.001283 0.0
3.340428 0.814422 -0.001870 0.0
4.216598 1.327230 -0.000920 0.0
1.599592 0.458850 0.001645 0.0
0.809950 1.028722 0.000331 0.0
1.571488 1.099959 -0.001631 0.0
4.061271 1.286159 -0.003031 0.0
3.284174 0.930429 0.003267 0.0
2.576804 0.155007 -0.001999 0.0
3.579182 0.617956 0.000469 0.0
0.044787 1.240113 0.008134 0.0
4.418851 1.551309 0.000205 0.0
0.957663 1.285997 -0.001739 0.0
4.015907 1.183933 0.001665 0.0
1.162180 1.014984 -0.000333 0.0
1.065621 0.988515 0.000510 0.0
3.774939 0.022820 0.000324 0.0
1.600944 0.414923 -0.001394 0.0
1.095557 1.079925 -0.001141 0.0
1.803026 0.550705 -0.002231 0.0
3.811133 1.471626 0.002278 0.0
1.559522 0.213062 0.005370 0.0
2.045515 0.524580 0.005573 0.0
0.117628 1.299869 0.000893 0.0
2.569226 1.383561 -0.001225 0.0
2.213351 0.411063 -0.002920 0.0
0.992910 1.383264 -0.002779 0.0
1.004350 0.729816 0.000524 0.0
2.855548 1.417303 0.003659 0.0
2.511013 0.277403 -0.001990 0.0
4.096250 0.872699 -0.002597 0.0
2.741906 1.216718 -0.000920 0.0
4.115154 1.560863 -0.000916 0.0
2.002168 1.210654 -0.005552 0.0
1.183624 0.800797 -0.002445 0.0
0.215094 0.289500 -0.003693 0.0
1.021756 0.819572 0.001229 0.0
2.643161 0.653253 -0.004476 0.0
2.828272 1.308382 -0.000015 0.0
3.394299 0.190358 0.001901 0.0
4.018730 0.706199 -0.000062 0.0
2.408801 1.181899 -0.001404 0.0
1.714158 0.658781 -0.000953 0.0
2.760454 1.381088 0.002425 0.0
2.159063 1.364302 0.002043 0.0
1.473173 0.805389 -0.004295 0.0
3.251723 0.166063 -0.000065 0.0
2.766045 0.792977 0.000608 0.0
4.221619 1.145070 -0.000950 0.0
4.183541 0.114415 0.001475 0.0
4.072918 0.636684 -0.004081 0.0
2.550055 0.234410 0.001626 0.0
1.263231 0.668902 -0.000071 0.0
1.396292 1.138805 0.002256 0.0
2.217700 0.402045 -0.003867 0.0
0.182957 1.492056 -0.003866 0.0
3.044677 1.195112 -0.004611 0.0
3.276335 0.273501 0.000492 0.0
2.591999 1.118705 -0.003589 0.0
3.710792 0.755703 -0.002148 0.0
2.088763 0.682954 0.001205 0.0
4.306145 0.726500 -0.002276 0.0
0.171306 1.514932 -0.001045 0.0
3.504158 0.614507 -0.000543 0.0
2.660873 0.369459 0.004201 0.0
2.659740 1.238496 -0.002629 0.0
2.787125 1.064949 -0.002934 0.0
3.873176 0.986985 -0.002062 0.0
1.491308 0.852646 -0.003334 0.0
0.811846 1.182277 0.002360 0.0
1.157692 0.723533 -0.001156 0.0
2.967265 0.403269 0.003204 0.0
2.859413 0.488718 0.002806 0.0
2.475050 0.672127 -0.000932 0.0
2.077142 1.034755 -0.002970 0.0
1.373259 0.229190 0.002010 0.0
2.345987 0.243719 0.000268 0.0
2.274693 1.539962 0.002546 0.0
2.722954 0.678718 -0.001660 0.0
3.273622 0.134137 -0.003569 0.0
0.466368 0.072374 0.001502 0.0
1.238108 0.893437 0.000884 0.0
1.118393 0.443447 0.002016 0.0
2.391290 1.022241 -0.000283 0.0
2.569479 1.165174 0.000332 0.0
1.775442 0.240642 0.001592 0.0
0.106223 1.387289 0.001602 0.0
4.085373 0.974580 0.000583 0.0
1.194308 1.181177 0.001615 0.0
4.090777 0.385186 0.002467 0.0
4.098273 0.448535 -0.004692 0.0
0.835217 1.366293 0.002386 0.0
3.812769 0.035272 0.004761 0.0
0.963199 0.429242 0.003249 0.0
2.764198 0.589587 -0.000173 0.0
4.030728 0.216202 0.000564 0.0
0.988569 0.481730 -0.002930 0.0
2.726092 0.348833 -0.000771 0.0
0.522969 0.970821 -0.000697 0.0
3.818512 1.341791 0.002709 0.0
1.417512 0.882566 0.000895 0.0
0.803074 0.694867 0.001189 0.0
4.455443 0.299523 0.000547 0.0
1.535941 0.749679 -0.001564 0.0
1.632037 0.106120 -0.001188 0.0
2.311821 0.489758 -0.000203 0.0
3.754818 0.367747 -0.000174 0.0
4.116984 0.315093 -0.001777 0.0
3.630196 1.346261 0.001844 0.0
4.115918 0.558361 0.002987 0.0
0.191983 1.448323 -0.000808 0.0
0.587722 0.453681 -0.001453 0.0
4.126045 1.216770 0.000680 0.0
4.034964 0.271077 -0.000581 0.0
3.375753 1.173320 -0.005593 0.0
3.079459 1.074604 -0.004257 0.0
1.781565 0.806418 0.001091 0.0
0.859121 1.070897 -0.000894 0.0
3.219832 1.270038 -0.002083 0.0
2.240869 0.773586 -0.000056 0.0
3.105303 1.275435 -0.000135 0.0
3.402677 1.091968 -0.003598 0.0
1.050080 0.736356 0.001050 0.0
2.946336 1.005122 0.000242 0.0
4.071548 0.341793 -0.003971 0.0
3.996666 0.234450 0.000580 0.0
3.631346 1.012346 0.004146 0.0
0.177926 0.076003 0.000010 0.0
0.753926 1.512228 -0.000176 0.0
2.746465 0.412604 0.002735 0.0
0.952250 1.485890 -0.001639 0.0
3.586360 0.069666 -0.003105 0.0
3.402878 1.288048 0.004305 0.0
3.276126 0.354450 -0.000614 0.0
2.389434 0.894279 -0.001348 0.0
2.594579 0.207528 0.002813 0.0
1.632584 0.032817 0.000124 0.0
2.125996 0.403654 -0.001046 0.0
0.489124 1.383623 0.000610 0.0
3.960960 0.878300 -0.000631 0.0
3.682077 1.394205 0.002736 0.0
4.370133 0.029149 0.001162 0.0
2.323662 1.260245 -0.003939 0.0
0.457700 1.539842 -0.000573 0.0
3.052267 0.221884 -0.002153 0.0
2.806504 1.188644 0.001011 0.0
3.475307 0.504607 0.000380 0.0
1.065651 1.497447 -0.000703 0.0
0.862995 0.915129 0.000574 0.0
4.216881 0.494751 -0.001020 0.0
1.912075 1.459150 -0.002666 0.0
3.002747 0.890938 -0.003821 0.0
1.059761 0.567481 -0.003834 0.0
2.017284 0.617783 -0.004122 0.0
0.798001 0.488595 0.002663 0.0
2.850747 0.202761 -0.001300 0.0
1.738264 0.637352 -0.002256 0.0
2.434509 1.049267 -0.001051 0.0
0.679350 1.042289 -0.001573 0.0
3.055482 0.953097 -0.003498 0.0
2.778490 0.735657 0.002755 0.0
1.666542 0.186764 0.002619 0.0
2.608449 0.907650 -0.003277 0.0
0.413338 1.239062 0.000784 0.0
1.244099 1.343182 0.004825 0.0
3.379217 1.053137 0.002275 0.0
4.019700 0.538989 0.000570 0.0
4.292145 1.364494 -0.000229 0.0
0.017734 1.428117 0.003503 0.0
1.889014 0.928777 -0.002010 0.0
2.537755 1.018571 0.004087 0.0
0.184382 0.263658 0.000381 0.0
3.242572 1.144764 0.003113 0.0
0.514009 1.316882 0.002847 0.0
4.242977 0.855354 0.002135 0.0
3.063103 0.489243 -0.001759 0.0
3.951370 1.518074 -0.003160 0.0
1.762950 0.614574 -0.003079 0.0
2.565504 0.809642 -0.000292 0.0
4.074807 0.463058 -0.001336 0.0
0.149382 0.276189 0.000133 0.0
0.810498 1.491531 -0.003093 0.0
2.574401 0.791411 -0.001276 0.0
2.667828 1.074904 0.002428 0.0
1.097307 0.516196 -0.003759 0.0
3.699853 0.366564 -0.002142 0.0
3.990918 1.049467 -0.000654 0.0
0.470217 1.173319 -0.002062 0.0
1.038618 1.169405 -0.007836 0.0
2.679942 0.820697 0.000305 0.0
4.381422 0.344297 0.002862 0.0
0.937840 0.352020 -0.003755 0.0
0.675877 0.311537 0.001035 0.0
2.363833 0.026462 0.001130 0.0
2.796331 0.314314 0.001465 0.0
0.750675 1.501093 0.003827 0.0
2.820668 0.984419 0.000676 0.0
1.413681 1.271918 -0.000045 0.0
2.060994 0.723420 -0.003654 0.0
4.351044 1.330606 0.001299 0.0
0.120359 1.098977 0.000834 0.0
1.954420 1.423063 -0.000586 0.0
2.380734 0.020292 -0.000335 0.0
4.133762 0.479712 0.000892 0.0
4.394764 0.467171 0.001589 0.0
0.848865 1.464891 0.000022 0.0
3.495635 0.971083 0.002443 0.0
0.530124 0.449255 0.001277 0.0
4.090599 0.585501 -0.000441 0.0
0.852650 1.101800 -0.000318 0.0
3.391649 0.216484 0.000985 0.0
3.538920 0.008163 0.002279 0.0
2.966344 0.572580 -0.003759 0.0
2.220190 0.071179 0.000998 0.0
3.534359 1.497865 0.002713 0.0
1.584641 1.092176 0.000166 0.0
4.003999 1.080179 -0.000898 0.0
4.331335 0.055661 0.000223 0.0
2.961142 0.862889 -0.003735 0.0
3.531062 1.164175 0.001349 0.0
1.536708 0.996143 0.000232 0.0
3.600860 1.554591 0.001160 0.0
3.241898 1.267168 0.001066 0.0
0.715044 0.519166 -0.000024 0.0
4.326491 0.935010 0.000624 0.0
1.023837 0.896820 -0.000327 0.0
1.594655 0.977624 0.001207 0.0
3.189483 0.913460 0.003608 0.0
0.552891 1.101600 0.000731 0.0
1.125125 0.439593 0.000810 0.0
2.472720 1.036607 0.000378 0.0
3.656922 0.026838 -0.001905 0.0
0.070813 1.264049 -0.001629 0.0
1.937951 0.025395 0.000840 0.0
0.798948 0.732009 0.004075 0.0
2.902441 0.263418 0.000018 0.0
3.289145 1.200832 0.002171 0.0
0.050038 1.246784 0.004753 0.0
2.906456 1.454287 0.002594 0.0
1.129413 1.462585 -0.003672 0.0
3.941588 0.322279 -0.000050 0.0
1.731496 1.393432 -0.001176 0.0
3.034962 0.750042 -0.001150 0.0
0.610886 1.195206 -0.003545 0.0
3.756897 0.691497 0.002006 0.0
2.008845 0.884832 0.001325 0.0
2.280324 1.135723 0.001066 0.0
4.029580 0.727450 0.001087 0.0
4.456679 0.831914 -0.000350 0.0
1.141384 0.334518 -0.001646 0.0
1.452293 0.977365 0.002238 0.0
3.426860 0.285816 -0.003812 0.0
1.088677 1.407795 0.004256 0.0
3.249338 1.493136 0.000461 0.0
4.020400 0.430102 0.003140 0.0
4.201371 0.539694 0.003968 0.0
1.518533 0.809270 0.002934 0.0
1.115383 0.411431 0.001767 0.0
3.959170 1.016382 -0.001487 0.0
1.795576 0.623551 0.001486 0.0
2.362253 0.342680 -0.000665 0.0
1.384879 1.161932 0.000387 0.0
1.406114 1.199094 -0.000539 0.0
0.112299 0.213450 0.000024 0.0
0.836550 0.424456 -0.001398 0.0
0.734947 1.379315 0.000580 0.0
3.247571 0.198089 0.001846 0.0
3.032756 0.638923 -0.002413 0.0
1.213716 1.117089 0.001554 0.0
0.363567 0.484160 0.001901 0.0
0.205817 1.445735 -0.000994 0.0
0.633771 1.270718 -0.000433 0.0
2.904721 1.371208 0.000425 0.0
1.915029 0.474810 0.003833 0.0
1.647464 0.756993 -0.002007 0.0
2.600896 0.896556 0.001777 0.0
2.866837 0.857172 -0.001370 0.0
1.235285 0.982341 -0.000283 0.0
3.057055 1.389944 -0.003309 0.0
4.326443 0.193112 0.005211 0.0
2.325518 1.035436 -0.004557 0.0
1.659640 0.097270 -0.001819 0.0
1.653882 0.183687 0.000869 0.0
1.808350 0.733524 0.000349 0.0
0.746920 0.059301 0.001330 0.0
4.164854 0.379262 -0.002911 0.0
0.266695 1.036773 -0.002697 0.0
0.021316 1.419811 -0.001796 0.0
2.209447 0.917008 -0.000171 0.0
1.406001 0.096260 0.002820 0.0
3.775995 0.710900 0.000306 0.0
3.579592 0.721877 0.002631 0.0
2.050137 0.828380 -0.001145 0.0
1.760106 0.837054 0.000867 0.0
2.682829 0.874971 -0.004135 0.0
3.565593 0.850017 -0.001289 0.0
0.080501 1.511913 -0.001421 0.0
1.827206 1.068448 0.003924 0.0
2.051308 1.279560 -0.005620 0.0
4.045128 0.492471 0.002137 0.0
2.775449 0.107630 0.000407 0.0
2.108268 0.472379 0.000546 0.0
1.142105 0.244306 -0.003297 0.0
3.127325 1.287182 0.006126 0.0
2.402853 0.289542 0.000250 0.0
0.975814 0.158788 0.002271 0.0
0.583536 0.412659 0.004772 0.0
4.252355 1.166799 0.000600 0.0
0.357878 0.729170 -0.002387 0.0
1.867432 0.280260 0.000903 0.0
3.815658 0.751928 0.001197 0.0
1.440498 0.253840 -0.003953 0.0
0.239630 1.117551 -0.001137 0.0
4.337727 0.907991 0.000003 0.0
3.913386 1.083878 0.001069 0.0
3.297428 1.124921 -0.002361 0.0
0.450285 0.288665 0.001014 0.0
2.152799 1.155618 -0.000188 0.0
3.770433 1.220172 -0.002135 0.0
2.092849 0.256293 0.001605 0.0
0.295769 1.189599 0.004964 0.0
0.989504 0.505426 0.000709 0.0
1.319844 1.365434 0.002676 0.0
3.598817 0.142768 0.002285 0.0
2.754967 0.528862 0.000292 0.0
2.398643 1.399519 0.000803 0.0
0.569863 0.188631 0.000915 0.0
4.232162 0.378666 -0.001439 0.0
0.828315 1.033794 -0.000558 0.0
3.662596 0.626505 -0.001010 0.0
2.808685 0.306835 0.000480 0.0
2.012786 0.160433 -0.003913 0.0
1.888966 0.983518 0.002384 0.0
2.307001 0.129900 0.000741 0.0
0.768414 0.880696 0.001363 0.0
0.761558 0.791695 -0.005086 0.0
0.170123 1.165778 -0.000348 0.0
2.246834 1.247631 0.000090 0.0
2.048375 1.320436 0.001759 0.0
2.153358 1.368150 0.000227 0.0
1.256119 0.810710 0.000099 0.0
4.281528 0.130305 0.000179 0.0
1.586275 1.268618 -0.000931 0.0
1.962625 1.292200 -0.001583 0.0
2.443745 0.695798 0.001101 0.0
0.806404 0.141346 0.001453 0.0
2.673407 0.096165 0.000869 0.0
0.088328 0.059212 0.002301 0.0
1.998310 1.193884 -0.000758 0.0
3.548114 0.669923 0.001240 0.0
0.962516 0.654956 -0.002050 0.0
0.390853 1.205222 -0.000227 0.0
0.539643 0.805240 0.005220 0.0
3.546761 0.714485 -0.000943 0.0
1.429053 0.226297 0.000373 0.0
2.795556 0.107217 -0.001316 0.0
1.492559 0.634826 -0.002023 0.0
1.321164 0.583139 0.003309 0.0
2.221530 1.361067 0.000123 0.0
0.834635 0.941898 -0.003412 0.0
3.687864 0.744024 -0.001590 0.0
1.611598 0.619322 -0.003344 0.0
4.032222 0.204036 -0.001414 0.0
0.797693 0.180659 0.001698 0.0
2.776371 0.634808 -0.002191 0.0
3.480808 0.746444 -0.000191 0.0
0.947429 0.702102 0.003663 0.0
0.740327 0.914592 0.004343 0.0
1.482302 0.548295 -0.002033 0.0
1.433742 1.051411 -0.002483 0.0
3.115815 0.825044 -0.005272 0.0
0.159008 0.547194 -0.004740 0.0
1.626570 0.752219 0.000668 0.0
0.377125 1.085470 0.002250 0.0
2.089197 1.084210 -0.001242 0.0
0.737802 0.837964 -0.002505 0.0
2.756361 0.811858 -0.004281 0.0
3.976718 0.322526 -0.001245 0.0
3.405478 0.314655 0.001766 0.0
1.183012 0.369993 0.001213 0.0
3.823592 1.098623 0.000372 0.0
0.610389 1.448252 0.000025 0.0
2.774166 1.464328 -0.002094 0.0
0.164217 1.531167 -0.000896 0.0
4.284197 1.119834 0.001661 0.0
2.832622 0.542358 0.002334 0.0
2.447198 0.788009 -0.000642 0.0
0.244353 0.111065 -0.003295 0.0
4.398523 1.450173 0.001278 0.0
1.149273 0.293668 -0.003382 0.0
0.781668 1.316958 0.002470 0.0
1.744779 0.880407 0.002397 0.0
1.731369 0.478988 0.002217 0.0
1.077668 0.261447 0.000841 0.0
4.062742 1.493303 -0.002698 0.0
2.236023 0.283134 0.000878 0.0
0.188851 0.527654 -0.002091 0.0
3.986587 0.375950 -0.001217 0.0
2.339956 1.188309 -0.001195 0.0
3.362484 0.343535 -0.002591 0.0
0.322362 1.496347 -0.000807 0.0
1.594538 0.532141 -0.002661 0.0
1.933880 1.353906 -0.003944 0.0
0.668359 0.080882 0.002142 0.0
1.101051 1.067686 0.002448 0.0
1.314527 0.140764 -0.001291 0.0
2.472210 0.545904 -0.002125 0.0
0.774653 0.982740 0.001231 0.0
1.767345 1.480894 0.001942 0.0
1.178775 0.802993 -0.006519 0.0
1.098527 0.533556 0.004530 0.0
0.243288 1.040760 -0.001793 0.0
0.933470 0.022892 -0.003883 0.0
4.188583 0.456156 0.001140 0.0
2.287665 0.124062 0.002551 0.0
0.466475 0.713761 -0.000979 0.0
4.432333 0.860656 0.002056 0.0
3.200012 0.525655 0.002482 0.0
0.911493 0.041128 0.000622 0.0
3.160469 0.285794 0.001347 0.0
0.780555 1.184342 0.000370 0.0
4.384262 0.885756 0.002072 0.0
1.116299 0.826621 -0.003919 0.0
0.480627 0.275570 -0.000028 0.0
3.255651 1.557904 0.003272 0.0
0.732666 1.520874 0.001744 0.0
2.059483 0.968075 -0.002327 0.0
2.421901 1.519761 0.001739 0.0
3.212146 0.592169 -0.001985 0.0
2.346333 1.113175 0.000612 0.0
3.929911 0.915241 -0.001112 0.0
2.487142 0.035654 0.000179 0.0
2.450034 1.460097 0.001134 0.0
3.641348 1.143372 0.000415 0.0
2.188137 1.115323 0.002709 0.0
0.871467 1.432759 -0.000396 0.0
1.646609 0.772199 -0.003138 0.0
3.992634 0.618520 -0.003173 0.0
3.655885 1.476852 0.004893 0.0
0.710953 1.347552 0.000571 0.0
4.277942 1.490783 -0.004396 0.0
3.745711 0.489896 0.000316 0.0
0.741294 0.852647 0.003773 0.0
2.599799 0.247600 -0.004918 0.0
2.364457 1.304072 0.001403 0.0
1.421097 1.434570 0.005082 0.0
1.074624 1.416835 0.003211 0.0
1.484984 0.028275 -0.002695 0.0
0.145591 1.170572 0.000264 0.0
0.201873 1.421251 0.001970 0.0
1.472126 0.734558 -0.001212 0.0
4.079699 1.390560 -0.001324 0.0
0.949623 0.550588 0.002612 0.0
4.018749 0.084586 0.000915 0.0
1.339252 0.092508 -0.002227 0.0
2.303847 0.465956 0.000019 0.0
2.296726 0.986814 0.000148 0.0
3.293922 0.025992 0.001301 0.0
2.488846 0.241192 -0.002665 0.0
3.197570 0.320932 -0.001412 0.0
1.913477 1.015325 -0.001739 0.0
1.080151 0.253861 0.000832 0.0
1.633453 0.281192 -0.002052 0.0
2.728468 0.844903 0.002543 0.0
1.918272 1.344794 0.000774 0.0
4.249353 0.899430 0.003180 0.0
0.823881 0.361015 0.002886 0.0
1.018343 0.431977 0.001776 0.0
0.960501 0.025819 -0.001619 0.0
3.327179 0.032580 -0.003696 0.0
0.976407 0.377487 -0.004975 0.0
1.387693 1.512126 -0.007748 0.0
2.273738 1.416638 0.001019 0.0
3.041748 0.446558 -0.004036 0.0
4.000988 0.150568 -0.001695 0.0
1.729987 0.850944 0.003264 0.0
0.878324 1.281885 -0.002841 0.0
1.382776 1.509742 0.000318 0.0
0.167301 0.268125 -0.000568 0.0
1.294478 0.496088 0.000730 0.0
2.971311 1.334109 -0.003474 0.0
2.471911 1.259189 0.001367 0.0
1.095931 1.198955 0.000124 0.0
0.914392 0.236567 0.000324 0.0
3.620843 1.068052 -0.003108 0.0
0.155494 0.895468 0.001010 0.0
1.381148 0.192798 -0.002244 0.0
0.564376 1.392544 0.000130 0.0
2.919402 0.689886 0.002986 0.0
2.308610 0.445739 0.003088 0.0
1.700404 0.831287 -0.004217 0.0
1.301491 0.427288 -0.002024 0.0
0.996082 0.998503 0.000890 0.0
2.538175 0.613604 -0.003326 0.0
1.919061 1.073611 0.004247 0.0
0.820939 0.522795 0.005771 0.0
1.540485 1.439163 -0.002194 0.0
2.879488 0.939134 -0.001698 0.0
3.906408 1.385586 0.001923 0.0
2.571700 0.799061 -0.004458 0.0
1.271397 0.755604 0.002614 0.0
0.824842 0.744061 0.000565 0.0
0.711057 1.265232 0.001926 0.0
1.115391 1.041869 -0.002850 0.0
4.252297 1.448588 0.001903 0.0
1.557442 1.395557 -0.003932 0.0
1.365781 1.517716 -0.004106 0.0
3.937141 0.846870 0.002867 0.0
1.309100 1.221325 -0.001141 0.0
1.910314 0.504537 0.004615 0.0
1.338221 1.183761 0.001803 0.0
0.472804 0.226894 0.000648 0.0
1.451642 0.955969 0.000746 0.0
1.028178 1.230797 -0.000750 0.0
1.140573 0.861515 -0.000148 0.0
4.287196 0.279334 0.004038 0.0
3.563959 0.974851 0.000255 0.0
3.289088 0.478076 -0.000816 0.0
2.706251 1.453799 0.002788 0.0
4.068010 0.130400 -0.000118 0.0
3.751228 1.017540 0.000445 0.0
1.144154 0.625251 0.000397 0.0
1.570999 1.037785 -0.000999 0.0
0.814410 1.525379 -0.001625 0.0
0.054574 0.715028 0.005102 0.0
2.956282 1.288608 0.002142 0.0
1.524497 1.538668 0.002104 0.0
2.167035 0.664376 -0.000185 0.0
1.552075 1.022466 -0.001503 0.0
2.087321 0.197213 0.000077 0.0
2.082211 0.733811 0.001907 0.0
2.329129 1.433712 0.002237 0.0
0.251576 0.799807 -0.002385 0.0
0.164538 1.143898 0.002780 0.0
3.350539 0.950853 0.001423 0.0
4.212929 1.289995 -0.003080 0.0
1.680622 1.384251 -0.001808 0.0
3.576017 1.374076 0.002812 0.0
1.474495 0.040082 -0.002742 0.0
2.629049 1.131621 -0.004107 0.0
0.295803 1.109194 -0.006252 0.0
2.730913 0.563900 -0.003077 0.0
1.500503 0.296921 -0.000899 0.0
1.272934 0.541956 -0.003350 0.0
1.025985 1.026327 0.003506 0.0
1.102049 0.406456 -0.001941 0.0
2.293795 1.378559 -0.000438 0.0
3.013819 1.516558 -0.001073 0.0
3.297166 1.258990 0.004525 0.0
2.492263 1.200291 -0.000982 0.0
2.977090 0.918132 -0.001137 0.0
1.151975 0.044550 -0.000068 0.0
0.475955 0.254503 0.002347 0.0
3.862962 0.997033 -0.005145 0.0
0.821533 0.682442 0.003643 0.0
1.028310 1.504964 0.007385 0.0
0.883739 0.802627 0.000590 0.0
3.936406 0.754520 -0.001397 0.0
0.976622 0.318244 -0.006125 0.0
2.998586 1.472335 -0.000693 0.0
4.390674 0.716854 -0.001862 0.0
0.171678 1.134699 0.000408 0.0
2.244748 0.716045 0.001879 0.0
0.267085 0.973691 -0.001374 0.0
0.219799 0.071563 0.000588 0.0
3.621216 0.387976 0.002130 0.0
3.750816 0.122145 -0.000897 0.0
1.004673 1.050383 -0.000322 0.0
2.696858 1.326282 0.000510 0.0
3.502905 0.222780 0.002398 0.0
3.276844 1.296958 0.000110 0.0
2.532584 0.271463 0.001154 0.0
1.555892 0.666061 0.001461 0.0
1.118615 0.039517 0.000229 0.0
3.159931 1.064427 -0.001055 0.0
2.047996 0.188916 -0.004450 0.0
4.219891 0.380762 0.000093 0.0
3.928690 0.065948 -0.004999 0.0
2.093664 0.341172 -0.000192 0.0
0.816898 1.058841 -0.001489 0.0
2.573581 1.061301 -0.001148 0.0
0.212073 0.739891 0.000871 0.0
4.339720 1.120904 0.000142 0.0
2.336036 0.578147 0.000785 0.0
1.445779 0.384472 0.003053 0.0
0.523287 1.163156 -0.000292 0.0
0.433564 0.240563 -0.001086 0.0
3.421658 0.213356 0.003885 0.0
0.942667 0.218872 0.001503 0.0
1.530268 0.590522 0.003993 0.0
4.320161 1.099984 0.002807 0.0
4.287944 1.027980 -0.000139 0.0
3.611136 0.503781 0.000312 0.0
1.292915 0.200720 0.001552 0.0
2.457397 0.108137 0.000380 0.0
1.220773 0.961055 0.004551 0.0
2.640491 0.332313 -0.004025 0.0
2.694191 1.556047 0.000999 0.0
0.949229 1.048176 -0.002096 0.0
1.061154 1.245869 -0.001079 0.0
3.689813 0.169678 0.000753 0.0
3.599933 0.035316 0.002520 0.0
4.442814 1.357139 -0.002056 0.0
1.395822 1.136982 0.002345 0.0
3.096713 0.758951 0.002386 0.0
0.941980 1.176919 0.001474 0.0
2.868254 1.323098 0.000584 0.0
1.479723 0.021997 0.006118 0.0
1.276916 0.179985 -0.002111 0.0
4.199955 0.763142 -0.002373 0.0
0.389190 0.076750 -0.000102 0.0
0.397115 0.711051 -0.001095 0.0
2.718084 1.009156 0.000439 0.0
4.215685 0.157156 0.003748 0.0
2.670609 1.004980 0.000609 0.0
3.636956 0.969709 -0.001793 0.0
1.131691 1.393278 0.001692 0.0
3.508926 1.049282 -0.001001 0.0
1.235682 1.120653 0.000896 0.0
1.905761 0.172020 -0.000998 0.0
2.249485 0.756773 -0.001685 0.0
2.408750 0.342268 0.003611 0.0
3.602449 0.261150 -0.002468 0.0
0.719068 0.427428 -0.001413 0.0
3.641221 0.554793 0.000332 0.0
2.918333 1.561747 0.000844 0.0
2.814747 0.785548 0.005876 0.0
0.958306 1.231292 0.000705 0.0
0.872400 1.540043 0.000688 0.0
1.861230 0.434041 -0.001036 0.0
2.618952 1.187883 -0.004118 0.0
0.074926 0.085338 0.002303 0.0
0.411034 0.910958 0.000147 0.0
1.464067 1.398236 0.004336 0.0
2.019506 0.617296 -0.003400 0.0
3.653073 0.891692 -0.000503 0.0
1.899635 0.962694 0.000844 0.0
2.989448 0.421129 0.001515 0.0
1.522747 0.513984 -0.002037 0.0
3.495630 0.571681 0.000508 0.0
1.264541 0.299533 0.000676 0.0
1.197798 1.031855 0.003894 0.0
0.642170 -0.004092 0.001633 0.0
2.753610 0.674822 0.001202 0.0
1.049663 0.969238 -0.002340 0.0
4.000060 1.102184 -0.004081 0.0
1.357571 1.307642 0.003154 0.0
1.711434 0.975103 -0.003304 0.0
0.328410 0.383018 -0.000575 0.0
0.558272 0.172578 -0.003570 0.0
3.355675 1.424102 0.001753 0.0
1.174098 0.516832 -0.001837 0.0
2.752334 1.045415 -0.004704 0.0
2.323676 0.761008 -0.002033 0.0
1.812255 1.344136 0.001074 0.0
2.163638 0.172207 0.002317 0.0
1.593027 1.483236 -0.005471 0.0
4.139606 0.915968 -0.000141 0.0
2.068620 0.209207 0.004279 0.0
4.049733 0.672722 0.000542 0.0
0.187377 1.514535 -0.001284 0.0
2.742086 1.494229 -0.002687 0.0
3.667049 0.737632 0.001902 0.0
0.386053 1.368065 0.000460 0.0
2.979132 0.632435 0.002612 0.0
1.695340 0.186126 -0.002113 0.0
3.992769 1.043983 0.000217 0.0
0.825860 0.967170 -0.001846 0.0
2.329358 0.071313 0.000361 0.0
2.087972 0.074907 0.001060 0.0
0.966935 0.481844 0.002665 0.0
4.008278 1.094070 -0.002832 0.0
3.407899 0.808979 -0.002910 0.0
1.563357 -0.003708 0.003182 0.0
3.662371 0.958363 0.000072 0.0
1.102485 0.864081 0.000767 0.0
0.554866 1.285969 0.002002 0.0
3.757307 0.687888 -0.003419 0.0
0.092773 0.958195 0.002222 0.0
0.827944 1.041811 -0.002360 0.0
2.161861 0.148522 0.006329 0.0
1.884162 1.158015 -0.003378 0.0
2.559114 0.427775 -0.003518 0.0
3.736375 1.340908 0.004359 0.0
0.959775 0.832995 -0.003324 0.0
3.378199 1.214540 0.002839 0.0
2.979278 1.133854 -0.002791 0.0
2.875136 0.682844 -0.000401 0.0
4.031081 0.238469 0.004625 0.0
0.076102 0.045929 -0.004093 0.0
0.596854 1.244310 -0.002842 0.0
3.381041 0.844136 -0.002049 0.0
0.656916 1.272865 0.001912 0.0
3.848805 0.515540 -0.002311 0.0
1.843330 0.031543 0.001792 0.0
4.157583 0.145458 0.002831 0.0
1.549194 1.388277 -0.002093 0.0
3.356472 0.433359 -0.000554 0.0
0.647434 0.255048 0.004207 0.0
2.002666 0.362789 0.001466 0.0
1.770123 1.514896 -0.002218 0.0
1.786631 1.215267 0.000103 0.0
1.228544 1.334805 0.003046 0.0
3.199576 0.696470 -0.000297 0.0
4.173220 1.382855 -0.006063 0.0
3.287483 0.429931 0.002057 0.0
3.129614 0.806530 -0.002532 0.0
1.866932 1.519942 -0.000498 0.0
2.855470 1.207260 0.000361 0.0
1.420904 1.268011 0.002704 0.0
4.009925 0.914904 0.002227 0.0
3.111314 0.103053 0.005284 0.0
2.948824 1.159833 -0.001559 0.0
1.697560 0.090187 0.000925 0.0
2.537202 0.221857 -0.001679 0.0
4.129594 0.554309 -0.002185 0.0
3.767714 0.767461 0.002112 0.0
0.921700 1.214017 0.000622 0.0
1.802444 1.553152 -0.000312 0.0
2.390438 0.401436 0.001677 0.0
2.299664 1.286188 0.000018 0.0
1.389531 1.044210 0.001897 0.0
0.735470 1.252102 -0.002797 0.0
3.868853 1.241268 -0.003011 0.0
2.472722 0.141704 -0.000966 0.0
1.591077 0.568305 -0.000055 0.0
0.536550 0.615803 0.004112 0.0
2.776748 1.330080 0.001167 0.0
1.069442 0.696091 0.001640 0.0
4.299976 0.862119 -0.002847 0.0
1.580183 0.288711 -0.005734 0.0
3.741896 0.752331 0.004094 0.0
2.698162 1.547498 0.002212 0.0
0.432053 0.509586 -0.001410 0.0
1.207091 1.238201 0.001700 0.0
0.674802 1.548572 -0.002780 0.0
1.511728 0.693356 0.003611 0.0
2.858212 0.834434 0.001096 0.0
2.304301 0.902999 -0.004887 0.0
1.072506 1.134581 -0.003043 0.0
0.069653 1.343083 -0.000453 0.0
4.268419 0.344836 -0.003173 0.0
3.223957 1.552850 0.000912 0.0
1.377788 1.395304 0.003648 0.0
1.111932 0.686260 -0.002658 0.0
0.229245 0.326528 -0.003023 0.0
2.473440 0.326379 -0.001298 0.0
0.862497 1.231867 0.000141 0.0
3.563981 0.270996 -0.000013 0.0
1.932387 1.507953 -0.001358 0.0
0.091561 0.434710 0.001994 0.0
0.675829 0.919583 -0.003240 0.0
1.069391 0.897898 0.002241 0.0
3.355317 0.122488 -0.004070 0.0
4.294418 0.928245 -0.002212 0.0
4.283769 1.350281 0.000087 0.0
3.519619 0.291760 0.004929 0.0
1.962446 1.335153 -0.002249 0.0
0.837068 0.124736 -0.003374 0.0
0.898783 0.136449 0.003768 0.0
2.081052 0.937474 0.001206 0.0
1.432802 0.206361 0.001217 0.0
2.194456 1.068375 0.000427 0.0
3.970158 1.213877 0.000235 0.0
1.633151 0.476802 0.000895 0.0
3.839257 0.298081 -0.001065 0.0
1.546261 0.785833 -0.001994 0.0
4.458662 0.090222 -0.000413 0.0
3.277564 0.122146 -0.000469 0.0
3.378479 0.116549 0.003553 0.0
3.006900 1.154532 -0.005019 0.0
1.931195 1.146762 -0.000439 0.0
2.298390 1.417776 0.002933 0.0
2.284694 0.734584 0.002247 0.0
3.651228 0.877167 0.000494 0.0
0.301596 0.418605 -0.001627 0.0
0.695406 1.236417 0.002888 0.0
3.819159 1.309276 -0.001800 0.0
3.409987 0.070785 0.002872 0.0
0.950458 1.470262 0.000780 0.0
3.559622 1.073408 -0.002009 0.0
1.883588 0.998555 0.004399 0.0
3.593624 0.749301 0.003603 0.0
2.939259 0.347961 -0.004975 0.0
2.796046 0.481682 0.000776 0.0
2.137841 0.557260 0.003757 0.0
2.002443 0.153420 0.004251 0.0
1.737887 1.400665 0.003450 0.0
3.868679 0.261384 -0.001502 0.0
0.231413 1.331925 0.003421 0.0
1.187585 1.499160 0.001709 0.0
2.738797 0.257083 0.001047 0.0
1.823253 0.340879 -0.005101 0.0
0.843440 0.570270 0.000525 0.0
0.644530 0.012493 0.000974 0.0
2.135488 0.060102 -0.000122 0.0
3.315171 1.197761 0.003254 0.0
2.638132 0.494975 -0.001057 0.0
2.187128 0.317928 0.000669 0.0
4.289958 0.636208 0.000702 0.0
0.449747 0.782025 0.002091 0.0
0.171670 0.475289 0.001820 0.0
4.217868 1.541130 0.000402 0.0
2.539193 1.090121 0.001916 0.0
0.180668 0.363306 0.001759 0.0
4.411955 1.127868 0.000625 0.0
3.347500 1.231032 0.000049 0.0
1.967251 0.279529 0.000274 0.0
1.260732 1.121931 0.001442 0.0
2.768407 0.730439 -0.000223 0.0
0.613487 0.893386 -0.001636 0.0
0.807668 0.131281 0.001732 0.0
3.686465 0.649973 0.000871 0.0
0.479643 1.111201 0.001679 0.0
1.012661 1.175768 0.001581 0.0
4.155724 0.437629 0.000426 0.0
4.398870 1.153892 -0.004461 0.0
0.418543 0.584043 -0.000195 0.0
3.215342 0.019853 0.000228 0.0
1.610752 1.026133 -0.002279 0.0
0.339795 0.437182 0.003585 0.0
1.156186 0.896143 0.001570 0.0
2.763724 1.208618 0.000965 0.0
1.083981 1.492046 -0.004096 0.0
3.871776 0.121237 -0.003463 0.0
4.341391 0.753505 0.003183 0.0
0.318910 1.433482 0.000381 0.0
3.902901 1.359280 -0.004525 0.0
3.428359 1.362330 0.005398 0.0
2.671233 1.372619 0.002339 0.0
1.666761 1.383989 -0.003946 0.0
3.710031 0.246930 0.002238 0.0
1.435219 0.915118 -0.003007 0.0
0.889412 0.765279 -0.001297 0.0
3.782610 0.905428 0.002220 0.0
4.150011 1.064273 0.003110 0.0
1.760675 0.220909 -0.001114 0.0
1.087377 0.239287 -0.004141 0.0
1.402889 0.532444 -0.002842 0.0
1.865217 0.750969 -0.003705 0.0
0.661888 1.040724 -0.002518 0.0
1.081643 0.285789 0.000335 0.0
0.548798 1.418493 0.001889 0.0
1.224670 1.272113 0.001815 0.0
1.775783 0.058192 0.000319 0.0
3.048210 0.577032 0.002244 0.0
1.672062 1.524229 -0.001776 0.0
3.622953 1.099139 -0.003580 0.0
2.751390 0.813266 -0.001062 0.0
0.720713 0.439465 -0.000683 0.0
4.191193 0.495540 0.000989 0.0
3.655868 0.373623 0.001369 0.0
1.145728 1.450438 -0.001736 0.0
4.019085 0.614626 -0.003039 0.0
3.020417 1.210556 -0.000972 0.0
2.097634 0.304658 -0.000303 0.0
1.667053 0.509529 0.003267 0.0
0.845041 1.071793 -0.004307 0.0
2.432011 1.130043 0.003092 0.0
1.284367 0.584849 0.001174 0.0
0.499110 1.065002 -0.002756 0.0
2.921823 0.427021 0.001953 0.0
1.326363 1.107169 -0.002685 0.0
0.459824 0.005098 0.001165 0.0
0.874058 1.270737 -0.000253 0.0
