0.78235371 0.23227116 0.00419204 0.00000000
0.56112028 0.15575761 -0.00265226 0.00000000
2.45184139 1.85743143 0.00130324 0.00000000
3.34533659 0.49605097 -0.00124035 0.00000000
1.14061529 0.76443258 -0.00254446 0.00000000
3.80054913 0.31800453 0.00318104 0.00000000
4.03567317 0.11409986 0.00296991 0.00000000
0.46331136 0.09909461 -0.00189607 0.00000000
3.66999137 0.12605749 -0.00357707 0.00000000
2.95772187 1.13270868 0.00357565 0.00000000
1.68922520 0.07771136 0.00239322 0.00000000
2.73119242 0.20243957 -0.00251289 0.00000000
0.37110520 0.91936265 -0.00039043 0.00000000
3.66955005 1.24765916 0.00006329 0.00000000
0.98535617 1.44652007 0.00005097 0.00000000
3.58327941 1.41609230 -0.00098201 0.00000000
4.27424347 0.95706120 -0.00496935 0.00000000
2.10720457 0.09839103 0.00060911 0.00000000
1.04890339 0.63225971 0.00162131 0.00000000
3.73750812 2.02677638 0.00041806 0.00000000
3.71767321 1.26706808 0.00179336 0.00000000
0.30857997 0.55925095 -0.00001621 0.00000000
3.65089208 1.66984121 -0.00276808 0.00000000
3.47631403 0.24174788 -0.00102441 0.00000000
2.36971382 0.68192206 0.00053374 0.00000000
4.04191769 2.00714099 0.00208361 0.00000000
2.76218073 0.05085460 0.00265667 0.00000000
2.25897536 0.15954747 -0.00080915 0.00000000
3.63461258 1.66870535 -0.00260617 0.00000000
2.30369159 0.38320274 -0.00072003 0.00000000
0.30412158 0.18223922 0.00289536 0.00000000
3.54139272 1.67254660 -0.00096597 0.00000000
1.13655899 1.23866120 0.00195490 0.00000000
1.64734534 0.55194772 -0.00197210 0.00000000
1.19829333 1.73856706 0.00168277 0.00000000
3.66757317 1.71514360 0.00215235 0.00000000
4.09898941 0.93295384 0.00283647 0.00000000
1.68601416 0.54371633 0.00139507 0.00000000
2.98874930 0.07974652 0.00011876 0.00000000
2.83102117 0.64104004 -0.00128374 0.00000000
1.30383893 2.09355763 -0.00081747 0.00000000
2.64336161 1.43916694 -0.00178363 0.00000000
0.77029231 1.47642460 0.00068665 0.00000000
3.56788178 1.11366658 0.00078002 0.00000000
1.19335413 1.10908438 0.00125882 0.00000000
0.00529894 1.96820187 0.00484075 0.00000000
0.28952288 2.12835765 -0.00052055 0.00000000
3.00391266 0.43989189 0.00199373 0.00000000
2.82483627 0.90510404 -0.00128560 0.00000000
4.58679628 0.94347239 -0.00121541 0.00000000
3.64464093 0.62991801 -0.00316590 0.00000000
3.25914070 0.73927157 -0.00491895 0.00000000
0.92578647 1.93763879 -0.00379390 0.00000000
2.16610009 1.12349815 0.00734368 0.00000000
0.26267623 0.72836884 -0.00126045 0.00000000
1.03717380 1.97476595 0.00000785 0.00000000
3.69513235 1.51752496 0.00036258 0.00000000
2.82460465 0.66175646 -0.00290601 0.00000000
0.54976897 1.58703189 0.00340650 0.00000000
0.82908520 0.07282611 0.00021707 0.00000000
1.18990858 0.83321777 -0.00164566 0.00000000
3.59493289 0.27118651 0.00579779 0.00000000
1.25202344 2.08467407 0.00054088 0.00000000
2.45950778 1.80798801 0.00438839 0.00000000
2.88775320 0.15091223 0.00140625 0.00000000
0.39913861 1.77058046 -0.00075117 0.00000000
0.66813911 1.15769632 -0.00101109 0.00000000
0.18863885 1.96810273 -0.00497414 0.00000000
3.05890057 0.88016211 -0.00183627 0.00000000
1.99363914 1.06562983 -0.00366781 0.00000000
2.36567080 1.24730120 0.00648331 0.00000000
0.83586352 1.10490869 -0.00111382 0.00000000
1.48741965 0.31023931 0.00252555 0.00000000
3.76463145 0.19278294 -0.00111258 0.00000000
1.99774548 1.43385062 0.00555138 0.00000000
2.52960489 1.32697993 -0.00466366 0.00000000
1.60767593 1.22642121 -0.00219958 0.00000000
1.81862128 0.10164837 -0.00168224 0.00000000
3.47103100 0.77053759 -0.00042370 0.00000000
1.30489082 0.50201346 -0.00186340 0.00000000
3.90111061 1.96709183 -0.00319404 0.00000000
2.24740897 1.28548058 -0.00215214 0.00000000
4.03352015 0.44359611 -0.00262160 0.00000000
2.12493125 0.22949404 -0.00203150 0.00000000
4.04822554 1.91546081 0.00121351 0.00000000
1.27806477 1.44752772 -0.00010654 0.00000000
3.69014631 0.26603025 0.00135482 0.00000000
1.05562010 0.40212640 -0.00445495 0.00000000
4.22429884 1.31374404 0.00084556 0.00000000
1.23275081 0.65811126 0.00242849 0.00000000
0.64467235 1.87457568 -0.00256655 0.00000000
2.30950819 2.08257303 -0.00455513 0.00000000
2.19651191 1.61201862 0.00381340 0.00000000
0.84063305 1.02273976 -0.00064997 0.00000000
4.45090592 0.44851337 0.00194814 0.00000000
1.13632207 0.85212685 -0.00060972 0.00000000
3.22616029 1.07517291 0.00069168 0.00000000
4.30729405 0.57086094 -0.00099600 0.00000000
3.57112627 2.02097185 0.00083648 0.00000000
4.18179627 1.11203648 0.00024314 0.00000000
2.00287717 2.11481796 -0.00619228 0.00000000
3.15903104 0.37268979 -0.00481174 0.00000000
1.12473500 1.97989937 -0.00179275 0.00000000
1.78945867 0.07804555 -0.00163351 0.00000000
2.76392413 0.14216917 -0.00062784 0.00000000
3.11577270 0.65990824 0.00001420 0.00000000
1.83880833 0.36511514 0.00535544 0.00000000
0.28976739 0.23884700 0.00160547 0.00000000
2.24952723 1.52917188 0.00348958 0.00000000
2.26002326 1.23539644 -0.00065654 0.00000000
1.11385355 0.26491712 -0.00303399 0.00000000
0.55705751 1.69686924 0.00484348 0.00000000
1.83701460 1.11267688 -0.00167061 0.00000000
3.52539825 0.65315231 -0.00258022 0.00000000
3.57909046 0.65821163 -0.00480828 0.00000000
1.20130885 1.38248447 -0.00432139 0.00000000
2.39755122 1.28658633 0.00126199 0.00000000
1.91476536 0.89149765 -0.00244844 0.00000000
4.53692919 0.25866390 0.00085427 0.00000000
1.50716262 1.65311979 -0.00412130 0.00000000
0.84798796 1.16954696 0.00058357 0.00000000
4.32738135 0.40021768 -0.00550159 0.00000000
4.64289535 1.82694864 0.00040057 0.00000000
4.46768553 1.50242917 0.00380179 0.00000000
3.71166715 0.46786872 -0.00134631 0.00000000
0.36955824 0.25136837 0.00216803 0.00000000
0.75337577 1.03312383 -0.00200015 0.00000000
3.49949588 2.14166286 -0.00426312 0.00000000
0.89117792 0.57856467 -0.00029469 0.00000000
1.25205407 1.23205387 0.00157230 0.00000000
0.81113783 1.77097571 0.00063420 0.00000000
2.83924509 0.08028379 0.00047580 0.00000000
1.81924310 2.06747130 -0.00077439 0.00000000
2.99670932 1.20619908 -0.00185921 0.00000000
3.66051541 0.19712592 0.00065003 0.00000000
0.56330269 2.16055625 -0.00106795 0.00000000
1.23496736 0.00976201 -0.00303282 0.00000000
0.22040817 0.90533149 0.00057718 0.00000000
4.03789732 1.52363391 0.00219980 0.00000000
0.51722503 1.76367655 0.00291165 0.00000000
4.44821389 2.08239252 0.00368809 0.00000000
1.18222683 2.04810260 0.00286267 0.00000000
2.43018825 0.95969684 -0.00189388 0.00000000
0.44213793 1.03172945 0.00114090 0.00000000
3.59280586 0.00263857 0.00019526 0.00000000
3.72132214 1.18816528 -0.00075509 0.00000000
0.40715158 0.36251081 0.00094958 0.00000000
4.58304756 0.85008699 -0.00155884 0.00000000
1.80853305 0.73855993 0.00051275 0.00000000
0.26121812 1.48136261 0.00284246 0.00000000
1.16482750 1.38268474 -0.00044827 0.00000000
4.15296793 0.75725040 0.00450223 0.00000000
3.46287334 2.08925188 -0.00188221 0.00000000
0.60270824 1.60350128 -0.00212004 0.00000000
1.84253915 1.02901089 0.00118457 0.00000000
1.67524990 0.26466470 0.00081425 0.00000000
2.56765072 1.05748662 -0.00263994 0.00000000
1.43445576 1.87582341 -0.00040548 0.00000000
0.02432985 1.35424890 0.00204512 0.00000000
0.13968838 0.34037623 -0.00372199 0.00000000
3.17364251 0.12718610 0.00247096 0.00000000
3.37625005 1.82151974 0.00074892 0.00000000
1.52070606 0.17152074 0.00339965 0.00000000
0.15406497 1.61909209 -0.00211350 0.00000000
3.62572778 1.08982981 -0.00043409 0.00000000
3.09578975 2.00090886 -0.00029045 0.00000000
0.25955979 0.05445004 -0.00304202 0.00000000
0.93163661 1.90384612 0.00227652 0.00000000
2.22826066 2.02629005 0.00009142 0.00000000
2.73582166 1.16023741 0.00541163 0.00000000
1.49633300 0.68567247 0.00286956 0.00000000
1.72587346 0.03002551 -0.00101439 0.00000000
3.87341702 0.08348507 -0.00124933 0.00000000
4.20410307 1.15631676 -0.00313755 0.00000000
2.65245295 0.10291647 0.00520287 0.00000000
3.12426287 1.93304462 -0.00144066 0.00000000
4.06515813 0.40828622 0.00327481 0.00000000
0.43123222 0.88138662 0.00352597 0.00000000
3.92207471 1.12483817 -0.00330343 0.00000000
1.65776122 1.67840232 0.00446331 0.00000000
3.09109402 0.01247808 -0.00061995 0.00000000
1.81096070 1.41893427 0.00081084 0.00000000
3.88053926 0.43707134 -0.00044508 0.00000000
1.32486327 1.61359783 -0.00026698 0.00000000
1.75048786 0.18367514 0.00040049 0.00000000
2.69524291 0.55631903 -0.00042632 0.00000000
0.45765610 1.44482676 0.00159606 0.00000000
4.54931841 1.53417691 -0.00115953 0.00000000
4.40804484 1.62016626 -0.00099152 0.00000000
0.46892855 0.41488279 0.00350731 0.00000000
0.20407655 1.87953811 -0.00023392 0.00000000
2.03382150 1.94459706 0.00138567 0.00000000
2.40980591 0.21938865 -0.00479185 0.00000000
2.25356965 1.36635931 0.00622606 0.00000000
0.16087923 2.12254398 0.00253563 0.00000000
4.21644314 0.94453656 0.00073670 0.00000000
3.42775701 1.10418839 -0.00129728 0.00000000
1.51429311 0.83053645 0.00196460 0.00000000
2.45829614 1.19710261 0.00081250 0.00000000
4.11338357 0.33933823 0.00403349 0.00000000
1.06424335 0.50284401 -0.00310584 0.00000000
2.46580920 0.44151631 -0.00187691 0.00000000
2.76118938 0.34619740 -0.00059803 0.00000000
3.51745570 0.18428313 0.00123057 0.00000000
0.71348181 0.78661549 -0.00198486 0.00000000
0.78859765 0.68363472 -0.00000480 0.00000000
0.74744909 0.60172298 -0.00035187 0.00000000
2.61026020 1.34011012 0.00089979 0.00000000
1.72893321 1.46862158 -0.00224391 0.00000000
4.03038882 1.17088576 -0.00241856 0.00000000
0.29075057 1.11757179 0.00026266 0.00000000
0.16739333 1.92609463 0.00376286 0.00000000
0.82432494 0.98423345 0.00296919 0.00000000
3.71722232 0.95000975 -0.00392955 0.00000000
1.09534802 0.95992946 -0.00174985 0.00000000
4.20979325 0.27624791 -0.00596848 0.00000000
2.57016011 1.07579367 0.00072978 0.00000000
4.23308377 1.23242320 -0.00134488 0.00000000
1.69706620 2.14018899 0.00382838 0.00000000
1.79304924 1.67649019 0.00320310 0.00000000
3.11598407 1.53549326 0.00317037 0.00000000
0.43430762 0.04803774 0.00474744 0.00000000
2.04217458 0.41246816 -0.00068090 0.00000000
1.72252227 0.00138860 0.00200375 0.00000000
3.51790826 1.66856336 -0.00128495 0.00000000
3.99031946 1.83305981 0.00178847 0.00000000
1.80761082 0.46581939 -0.00260072 0.00000000
2.43410575 1.81177804 -0.00651281 0.00000000
1.39831094 0.53372109 -0.00071706 0.00000000
1.00145121 0.71057274 -0.00125285 0.00000000
1.02126142 0.62227859 0.00312801 0.00000000
3.80673938 0.59094714 0.00040652 0.00000000
3.95285574 0.37182773 -0.00040032 0.00000000
3.70114742 1.85584648 0.00240092 0.00000000
2.93240529 0.26339653 -0.00046183 0.00000000
1.09031773 0.69784259 -0.00033926 0.00000000
3.26390726 0.98216980 -0.00202327 0.00000000
2.66222137 1.86904541 0.00097047 0.00000000
3.94617830 0.50919165 0.00088274 0.00000000
1.18220142 1.89927036 -0.00221404 0.00000000
3.85491564 1.86812482 -0.00080677 0.00000000
2.88568228 0.25365438 -0.00122385 0.00000000
2.43918985 0.73687434 -0.00003529 0.00000000
2.11292128 0.80995295 0.00222198 0.00000000
4.00178738 1.87452677 -0.00291370 0.00000000
0.67118535 1.02582083 -0.00256929 0.00000000
0.19526243 1.93259134 0.00054824 0.00000000
1.34200615 1.63634193 -0.00336981 0.00000000
3.40772484 1.40483185 -0.00181580 0.00000000
0.36592486 0.73921004 -0.00064709 0.00000000
2.21209109 1.32758765 -0.00638290 0.00000000
1.23068493 0.72751008 -0.00159747 0.00000000
0.86028567 1.34841865 0.00055954 0.00000000
4.63597528 0.07348958 0.00029840 0.00000000
2.02373948 2.07360146 -0.00232361 0.00000000
2.48295613 1.23214567 -0.00221863 0.00000000
2.90202901 0.39840907 -0.00173544 0.00000000
0.83111968 1.06140871 -0.00181348 0.00000000
3.30014167 0.26662460 -0.00102764 0.00000000
0.05547148 1.41794873 0.00022048 0.00000000
1.06511946 1.27201063 0.00135567 0.00000000
2.82237250 1.28697645 0.00221929 0.00000000
2.65159975 1.46694951 0.00125676 0.00000000
3.07210866 0.56983007 -0.00606246 0.00000000
3.94420156 0.48544807 -0.00291525 0.00000000
3.47461168 0.04719262 0.00379073 0.00000000
4.01027270 0.91109502 0.00090336 0.00000000
3.91119328 0.61442149 0.00046329 0.00000000
1.00547710 0.87675313 0.00171891 0.00000000
3.33099369 1.81900915 -0.00239050 0.00000000
0.19814205 1.06810922 -0.00139544 0.00000000
3.77117411 1.20904103 -0.00058741 0.00000000
0.61867860 1.25048772 -0.00226078 0.00000000
2.29489591 0.46520896 -0.00017172 0.00000000
2.62812789 0.61501919 -0.00081930 0.00000000
3.73035597 1.12856496 -0.00184653 0.00000000
2.59846572 0.97836532 -0.00071431 0.00000000
3.72763187 1.95298815 0.00161563 0.00000000
0.97125255 0.96303892 0.00103027 0.00000000
2.43428190 0.64568560 -0.00395882 0.00000000
1.75010998 0.91362621 0.00524500 0.00000000
4.16549048 0.34874186 -0.00085842 0.00000000
0.10043203 1.29230928 -0.00028906 0.00000000
4.17642344 0.95971659 -0.00101562 0.00000000
0.12503192 0.38065673 0.00357992 0.00000000
4.55570348 0.90303610 0.00102409 0.00000000
1.77669900 0.11580693 -0.00199213 0.00000000
4.44347748 0.14132823 0.00148210 0.00000000
0.90227868 1.40990987 0.00372524 0.00000000
0.03501986 1.26000217 -0.00627260 0.00000000
3.18511206 1.81500365 -0.00602887 0.00000000
3.38982972 0.71095355 0.00081589 0.00000000
3.94285556 0.08838742 0.00288557 0.00000000
0.74598954 1.05065469 0.00370846 0.00000000
0.98732191 0.01062098 0.00396819 0.00000000
1.77178814 0.44989196 0.00138167 0.00000000
3.25920989 1.84841856 -0.00092229 0.00000000
0.63716035 1.83455011 -0.00028607 0.00000000
3.04364828 1.41470979 0.00182538 0.00000000
0.03005208 1.38544658 -0.00114991 0.00000000
3.48529055 1.37970699 -0.00081115 0.00000000
2.54295705 0.08160266 -0.00135736 0.00000000
4.44269971 1.26136125 -0.00443307 0.00000000
1.01244920 0.33462065 0.00075535 0.00000000
2.61627343 0.68150498 0.00011342 0.00000000
4.28282342 0.89246677 -0.00294862 0.00000000
2.15007879 1.70346623 0.00050701 0.00000000
1.33746500 1.38924108 0.00072958 0.00000000
1.74975438 1.42209717 -0.00106466 0.00000000
0.12986020 1.70010351 0.00059889 0.00000000
0.04782803 2.04278359 -0.00233750 0.00000000
3.68184429 0.43086318 0.00713001 0.00000000
3.91010055 1.32907738 -0.00082999 0.00000000
0.23970080 0.66012768 0.00118750 0.00000000
3.38759545 0.93205737 -0.00366898 0.00000000
0.02343709 0.96387874 0.00436233 0.00000000
1.03644337 1.75134029 0.00004755 0.00000000
3.86910906 0.13745437 0.00198194 0.00000000
1.50494625 1.54043829 -0.00307412 0.00000000
0.71619348 0.57866594 0.00156233 0.00000000
0.04996714 1.47411620 0.00291826 0.00000000
0.49570893 0.48340052 0.00030583 0.00000000
1.84224403 1.23903273 -0.00534080 0.00000000
0.70407004 0.14997037 -0.00208834 0.00000000
2.59651448 2.09196427 0.00022968 0.00000000
4.30178711 0.92039492 0.00481453 0.00000000
0.15938402 1.93141013 -0.00196067 0.00000000
3.10949288 0.72203716 0.00178952 0.00000000
1.19957666 1.27569503 0.00214706 0.00000000
0.50940246 1.95410879 0.00141130 0.00000000
4.17200541 0.38970443 -0.00185475 0.00000000
4.63732739 1.54311190 0.00069425 0.00000000
2.10937800 0.46642562 0.00226360 0.00000000
2.77584201 0.06808575 0.00296685 0.00000000
3.87241115 1.78933804 0.00160476 0.00000000
4.54959558 1.12863155 0.00035961 0.00000000
3.80640901 1.66324016 0.00329852 0.00000000
4.22310221 1.03971110 0.00193846 0.00000000
0.44458662 0.84119043 0.00362277 0.00000000
3.41626138 1.11791785 0.00279913 0.00000000
3.35463730 1.95091041 0.00234772 0.00000000
2.43761759 2.08126945 -0.00023245 0.00000000
0.51907332 1.61037672 0.00317188 0.00000000
2.35201276 0.12771286 0.00093766 0.00000000
0.39053353 1.98326516 -0.00513271 0.00000000
2.62576016 0.72853623 -0.00190084 0.00000000
0.75335122 1.15637743 0.00464670 0.00000000
2.88946369 1.03708058 -0.00076877 0.00000000
0.02892926 1.96751298 0.00180160 0.00000000
1.10913744 0.08227612 -0.00018070 0.00000000
4.45479577 1.02440281 0.00226001 0.00000000
3.27433604 1.90782689 0.00380223 0.00000000
3.54037940 0.16932020 -0.00214109 0.00000000
0.17133688 2.16760946 -0.00239016 0.00000000
2.61559638 1.20949481 -0.00463978 0.00000000
3.75823926 0.47992545 -0.00071634 0.00000000
0.93407142 1.98157435 -0.00053812 0.00000000
0.19302418 2.14590443 0.00231747 0.00000000
0.66737993 2.18713981 0.00089868 0.00000000
1.83323224 0.61079411 0.00141336 0.00000000
1.85120519 1.54991367 -0.00331313 0.00000000
4.33329803 1.42760082 -0.00494889 0.00000000
2.10837220 1.63187133 0.00160082 0.00000000
4.22819930 0.21700002 -0.00134937 0.00000000
1.18742453 1.19125975 -0.00342222 0.00000000
2.04829565 1.28723621 0.00009719 0.00000000
3.30935612 0.67633054 0.00403201 0.00000000
0.78347403 0.90496424 0.00125446 0.00000000
4.19389486 1.67038042 -0.00101720 0.00000000
0.90041031 0.70484331 -0.00044255 0.00000000
0.60063008 0.57493901 -0.00517351 0.00000000
1.19379727 0.59077471 -0.00162415 0.00000000
3.82230458 1.45739171 0.00100585 0.00000000
2.86163737 0.56563956 -0.00125560 0.00000000
0.99784907 0.46990360 0.00266556 0.00000000
0.88322682 1.71413863 0.00010029 0.00000000
0.91530004 1.55247521 -0.00201127 0.00000000
4.60785540 0.68297447 -0.00110310 0.00000000
0.28250363 1.43300813 0.00143611 0.00000000
2.89004054 0.73520533 0.00065820 0.00000000
3.06657014 0.57124709 -0.00094265 0.00000000
1.78671825 0.56619257 0.00121434 0.00000000
4.25128463 1.65573781 0.00193686 0.00000000
2.88296063 1.72487733 -0.00099194 0.00000000
3.57211471 0.60502937 0.00054165 0.00000000
4.19557682 1.00988119 -0.00096318 0.00000000
2.08363355 0.92339808 0.00040783 0.00000000
1.56859658 1.34886333 -0.00197570 0.00000000
3.42745815 1.79485414 0.00026865 0.00000000
1.08860933 2.06863996 0.00188995 0.00000000
1.69990071 1.93210684 0.00166318 0.00000000
0.89340747 0.98619475 0.00010895 0.00000000
0.19658641 1.47791892 -0.00039643 0.00000000
0.78437921 1.98243898 0.00127274 0.00000000
3.89568048 1.42733542 0.00144636 0.00000000
3.88287715 0.67864029 0.00058671 0.00000000
4.48913822 1.65876761 0.00013246 0.00000000
0.96751939 1.87745217 -0.00125099 0.00000000
0.34499195 1.88880832 -0.00117992 0.00000000
2.84417807 0.51328731 -0.00205821 0.00000000
3.70802625 0.26456126 -0.00193379 0.00000000
4.48011140 1.31464611 -0.00453195 0.00000000
0.96092777 1.68038823 0.00230136 0.00000000
3.76043529 0.45700878 0.00405572 0.00000000
2.27596328 0.48504459 0.00233279 0.00000000
4.55574961 1.01481672 0.00075572 0.00000000
2.99519757 0.91783869 0.00393121 0.00000000
0.56183637 0.07016036 0.00398992 0.00000000
3.24712676 1.80226289 0.00187936 0.00000000
4.41756468 1.83840391 -0.00649884 0.00000000
3.09988846 0.64418665 0.00438039 0.00000000
1.77082718 1.89983473 -0.00187261 0.00000000
4.25981272 0.94354756 0.00237529 0.00000000
4.43055243 1.87830416 0.00442274 0.00000000
1.57971659 0.89370014 -0.00105748 0.00000000
3.48039693 1.75213662 0.00040004 0.00000000
1.02756361 0.73714337 -0.00209257 0.00000000
0.02639843 0.35154162 -0.00360541 0.00000000
4.10396371 0.36128846 -0.00112595 0.00000000
0.84378293 0.55056387 -0.00247032 0.00000000
1.57773760 0.05253314 0.00044391 0.00000000
1.93952244 1.14671503 -0.00001772 0.00000000
1.51822637 0.27175591 0.00042999 0.00000000
2.08884503 1.60007838 0.00052793 0.00000000
2.26444823 1.92450104 0.00222397 0.00000000
0.67728831 0.60291847 -0.00062822 0.00000000
4.25057035 0.63511550 -0.00551632 0.00000000
4.63019561 2.16322771 -0.00243338 0.00000000
3.79482424 0.09368696 -0.00159462 0.00000000
3.51034978 0.03438866 -0.00028538 0.00000000
1.38779037 1.89454724 0.00165091 0.00000000
2.87733426 0.48776807 0.00349367 0.00000000
3.61697143 2.00616803 -0.00012368 0.00000000
1.05603251 1.59808329 -0.00188892 0.00000000
1.53050125 0.18194753 -0.00128554 0.00000000
2.02406301 0.40955705 0.00218241 0.00000000
0.87322437 1.68065536 -0.00127460 0.00000000
4.54607247 0.99243599 0.00133963 0.00000000
0.26430323 0.89260965 0.00157641 0.00000000
2.57204997 0.16724371 -0.00027334 0.00000000
3.73913108 1.73262710 0.00120130 0.00000000
3.00649132 1.11446442 0.00135932 0.00000000
3.55364126 1.92628178 0.00164064 0.00000000
2.87619623 1.55133746 0.00025060 0.00000000
4.60954717 1.21438523 0.00374640 0.00000000
1.28262236 0.00427485 0.00132478 0.00000000
4.29167341 2.17735049 0.00279024 0.00000000
0.90833992 1.67241509 -0.00188973 0.00000000
4.30751075 1.17754563 -0.00221472 0.00000000
2.11567691 1.93199216 0.00304562 0.00000000
4.14995005 1.63888534 -0.00217005 0.00000000
0.40893906 0.95922015 -0.00353415 0.00000000
2.25216090 0.99389731 0.00390307 0.00000000
0.76078146 1.03606402 -0.00082159 0.00000000
0.15159242 1.48874672 -0.00072595 0.00000000
4.01651962 1.01861318 -0.00028649 0.00000000
2.07594631 0.07337161 -0.00280049 0.00000000
3.40437587 0.63684753 -0.00029140 0.00000000
0.44636295 1.54707759 -0.00302809 0.00000000
3.40563063 2.12346087 0.00192990 0.00000000
4.13103400 0.14120912 -0.00115388 0.00000000
0.19618113 0.96293813 0.00166214 0.00000000
2.01783987 1.78830426 -0.00175329 0.00000000
0.63258912 0.51521782 -0.00010817 0.00000000
3.93005048 1.09323805 0.00035459 0.00000000
4.34867849 1.15610628 0.00154062 0.00000000
2.08379459 1.74117550 -0.00144511 0.00000000
1.76559413 1.80007917 0.00102326 0.00000000
0.33672375 0.57418226 0.00382918 0.00000000
1.65201608 1.74324182 -0.00171906 0.00000000
3.71206831 0.52614879 -0.00397284 0.00000000
3.99071996 1.61056215 0.00050749 0.00000000
0.81097371 0.22789862 -0.00187789 0.00000000
1.79213127 0.70901665 0.00067219 0.00000000
1.06365956 0.34805689 -0.00280747 0.00000000
1.44554779 1.37197686 0.00487580 0.00000000
4.17809361 1.80574804 -0.00020027 0.00000000
4.27782399 2.05767764 -0.00262114 0.00000000
2.60129109 0.00372954 -0.00048408 0.00000000
2.17433947 1.18966691 -0.00056459 0.00000000
3.53532669 0.47205413 0.00075259 0.00000000
1.54350705 2.05001241 -0.00180581 0.00000000
3.59589474 2.07308549 0.00126423 0.00000000
1.16761882 0.39872599 -0.00097457 0.00000000
2.80927182 0.08316912 -0.00070323 0.00000000
2.45177620 1.70659762 0.00053794 0.00000000
3.19844738 0.91238695 0.00024755 0.00000000
0.04908868 1.99628232 -0.00091784 0.00000000
4.11350882 1.17266233 -0.00098232 0.00000000
4.23898609 1.92319859 0.00671465 0.00000000
3.69183330 0.76588621 -0.00411162 0.00000000
0.48832130 0.34541059 -0.00014841 0.00000000
2.38556913 0.72734570 0.00214727 0.00000000
4.60717614 1.08161412 0.00067359 0.00000000
1.78905986 1.61343550 -0.00104372 0.00000000
2.74237350 2.17591949 0.00272450 0.00000000
1.00086970 0.23822043 0.00134887 0.00000000
1.44931130 1.67567726 0.00097231 0.00000000
1.54385711 0.96030123 0.00394065 0.00000000
0.75741091 1.26121494 -0.00082386 0.00000000
4.45848442 2.05497482 -0.00367968 0.00000000
0.29471311 1.75495385 -0.00683175 0.00000000
0.55117898 2.03761342 -0.00392562 0.00000000
4.51450769 1.28659543 -0.00108815 0.00000000
1.90890809 1.89083320 0.00075042 0.00000000
2.35836081 1.68980449 -0.00010607 0.00000000
3.15000457 1.78285893 -0.00049344 0.00000000
4.21884345 1.64244339 0.00045547 0.00000000
3.63163673 0.27734370 -0.00211926 0.00000000
3.49658464 0.36464404 -0.00566532 0.00000000
1.41187689 0.11481968 0.00122161 0.00000000
2.84297861 0.60891466 -0.00584621 0.00000000
1.67859590 0.65374159 0.00564313 0.00000000
4.38190105 1.38370940 -0.00023304 0.00000000
2.77936236 1.35407450 -0.00096560 0.00000000
4.25704867 0.84960995 -0.00286005 0.00000000
3.02837427 1.99880790 -0.00143143 0.00000000
1.89046944 0.48210218 -0.00093205 0.00000000
2.70071824 1.28989832 -0.00048045 0.00000000
1.44576490 1.23885657 0.00029860 0.00000000
4.50767806 1.12409398 0.00267499 0.00000000
1.88861394 0.98960755 -0.00380825 0.00000000
2.69235373 0.02951839 -0.00297704 0.00000000
4.50804908 1.93061867 0.00011243 0.00000000
0.43376517 0.42699138 0.00156520 0.00000000
0.08753023 1.95478570 -0.00239212 0.00000000
1.89792381 0.81749175 0.00452990 0.00000000
4.07091125 1.65644411 -0.00134500 0.00000000
2.94124366 1.94858065 0.00259469 0.00000000
1.04891410 0.10222252 0.00038609 0.00000000
3.33290056 0.02300095 -0.00098870 0.00000000
2.57064989 1.93784788 -0.00067790 0.00000000
4.37777678 0.28046355 -0.00001974 0.00000000
4.09606667 0.95835888 -0.00130654 0.00000000
2.78869086 0.70441268 -0.00024648 0.00000000
0.44656638 2.04562232 0.00020986 0.00000000
4.45888006 1.30288211 -0.00241465 0.00000000
4.36175696 0.40110901 -0.00138444 0.00000000
3.64543999 1.80247919 -0.00301139 0.00000000
1.20575669 1.81507208 -0.00026984 0.00000000
1.50968594 1.40499901 0.00349392 0.00000000
2.37910580 0.72895009 0.00004564 0.00000000
0.81128649 0.31981171 -0.00144745 0.00000000
0.19575793 1.97871602 0.00067062 0.00000000
2.51512814 1.97227540 -0.00169425 0.00000000
4.56591005 1.05415588 0.00140547 0.00000000
3.06282052 0.31234517 -0.00074146 0.00000000
4.22285145 0.61968710 0.00210968 0.00000000
1.09217335 0.52642804 -0.00159393 0.00000000
1.72127871 0.81864267 -0.00497446 0.00000000
1.69905314 1.57603851 0.00049053 0.00000000
2.48018600 2.07208813 0.00543652 0.00000000
3.14611706 2.01316675 -0.00024992 0.00000000
2.60850676 1.88704937 -0.00584026 0.00000000
3.66370802 1.85841033 -0.00381519 0.00000000
1.45135056 1.82896263 -0.00321267 0.00000000
1.56282948 0.98182747 -0.00484891 0.00000000
4.49439241 1.34128053 0.00059847 0.00000000
3.83475102 0.22533700 0.00132914 0.00000000
0.04442289 1.52951472 -0.00266857 0.00000000
2.58401676 0.72918299 -0.00013795 0.00000000
0.31453837 0.00362749 -0.00060052 0.00000000
1.45510382 1.96785450 0.00248136 0.00000000
4.58888298 0.35721654 0.00050980 0.00000000
2.30963578 1.11995606 0.00290312 0.00000000
2.74778336 2.04780380 -0.00219072 0.00000000
1.61166730 0.17161942 0.00187844 0.00000000
0.19818411 1.45895061 0.00115702 0.00000000
0.60287025 1.91043869 -0.00147185 0.00000000
1.24438059 1.09386220 0.00129257 0.00000000
2.92310734 0.26229610 0.00016118 0.00000000
1.64746792 0.15666313 0.00288976 0.00000000
2.55550575 0.91171320 0.00155547 0.00000000
0.24939807 0.89991158 -0.00264395 0.00000000
2.23651959 0.94739921 -0.00121281 0.00000000
3.81614675 2.10663666 -0.00359830 0.00000000
0.12607780 1.49903279 0.00292919 0.00000000
0.13765071 2.16900932 0.00193675 0.00000000
0.59978202 0.16076866 0.00123562 0.00000000
3.12671942 1.87196709 -0.00208298 0.00000000
1.07230019 1.90480600 0.00062538 0.00000000
0.03247736 0.17146948 0.00193522 0.00000000
0.97192841 1.99785282 0.00283898 0.00000000
2.64689371 1.04646547 0.00069368 0.00000000
3.90829125 0.45829472 -0.00261049 0.00000000
3.66987137 0.48267939 -0.00122318 0.00000000
4.18676248 1.24223998 0.00208255 0.00000000
2.18466512 1.91602520 -0.00120732 0.00000000
0.87051941 1.88598579 0.00155816 0.00000000
2.77093234 0.20006137 -0.00577678 0.00000000
1.97694977 1.28820128 0.00022599 0.00000000
3.01204800 2.10562572 0.00087334 0.00000000
2.77186989 1.07050532 -0.00038971 0.00000000
1.62675771 1.39607314 -0.00084678 0.00000000
2.51674978 0.67882539 -0.00089000 0.00000000
1.87032379 1.86132738 -0.00170400 0.00000000
0.52937527 2.08517676 -0.00058607 0.00000000
1.35519110 0.92716869 0.00381271 0.00000000
4.63610062 1.68660629 -0.00356059 0.00000000
3.44151587 1.43935392 -0.00051724 0.00000000
1.59526975 0.85143422 -0.00327428 0.00000000
2.56560270 2.11962007 0.00248841 0.00000000
2.07917166 1.99380929 -0.00354835 0.00000000
1.68024800 0.67462985 -0.00072909 0.00000000
0.26540012 2.10584674 0.00330831 0.00000000
2.75970542 0.78145375 -0.00208024 0.00000000
1.44380357 0.06847985 0.00101771 0.00000000
1.60462429 0.36146661 -0.00046791 0.00000000
4.14218190 0.93752138 0.00307218 0.00000000
1.92928755 0.36220498 0.00614761 0.00000000
4.08247353 0.83285506 0.00030006 0.00000000
2.22642269 0.55719557 -0.00038208 0.00000000
3.66271554 1.82861181 -0.00143764 0.00000000
0.45686091 1.80103928 0.00115396 0.00000000
3.86405294 0.08503475 -0.00058639 0.00000000
3.47037541 0.86170897 -0.00131294 0.00000000
4.29817567 0.98676768 0.00047220 0.00000000
3.59226074 1.64337595 0.00108489 0.00000000
2.36580291 0.23326009 0.00399057 0.00000000
0.12928158 0.47295940 -0.00208304 0.00000000
1.28677347 1.68236477 0.00230591 0.00000000
2.16908886 1.65365422 0.00026217 0.00000000
3.86897985 1.45654073 -0.00196915 0.00000000
1.12868917 1.62216046 0.00294499 0.00000000
3.87675048 1.70470500 -0.00009033 0.00000000
4.62989663 2.05445241 -0.00225330 0.00000000
3.21624370 1.58906179 0.00366448 0.00000000
0.31399099 1.46297729 0.00069157 0.00000000
0.55539456 0.50973978 -0.00140406 0.00000000
0.03668111 1.23095813 -0.00249242 0.00000000
4.16404441 1.54169161 0.00114921 0.00000000
4.58417258 0.66173541 0.00188468 0.00000000
0.42529811 1.22848670 0.00309049 0.00000000
3.12538874 1.64791056 -0.00051002 0.00000000
1.77007504 1.60474152 -0.00030527 0.00000000
4.59894305 0.86720121 -0.00060141 0.00000000
3.13124024 1.30860845 -0.00178359 0.00000000
2.19692605 0.58232200 -0.00031711 0.00000000
3.63036817 0.37156659 0.00056503 0.00000000
3.44125965 1.27896904 0.00311913 0.00000000
4.32558046 1.89671704 -0.00165316 0.00000000
3.87000656 1.50549391 0.00121614 0.00000000
3.29919305 1.00025144 0.00249528 0.00000000
2.74606265 1.21414062 0.00594720 0.00000000
2.26151664 0.95865018 -0.00092944 0.00000000
4.49246503 1.81392133 -0.00168299 0.00000000
1.22150482 1.75362113 0.00183807 0.00000000
3.92341712 0.47266912 0.00248795 0.00000000
0.82518841 0.11758551 0.00199472 0.00000000
1.74213358 0.98091607 0.00334897 0.00000000
0.60861668 0.08396765 -0.00006722 0.00000000
3.40368558 0.20863706 0.00286982 0.00000000
2.19614203 1.20716614 -0.00091888 0.00000000
1.65542400 0.96856873 0.00221309 0.00000000
2.25549882 0.09333069 -0.00009593 0.00000000
0.06493795 1.47129300 -0.00476382 0.00000000
3.67113208 0.82209279 -0.00057094 0.00000000
1.60771290 1.93988431 -0.00220895 0.00000000
3.26856376 0.59013545 -0.00189250 0.00000000
0.92548217 0.50765820 0.00117580 0.00000000
0.18724397 0.13557029 0.00023185 0.00000000
3.76734545 0.16580906 0.00540412 0.00000000
0.88943982 2.15065568 -0.00002734 0.00000000
0.07878958 1.77747371 -0.00168853 0.00000000
0.52521550 0.86020359 -0.00292664 0.00000000
0.94682798 2.06951137 -0.00015152 0.00000000
3.81453619 0.26628257 0.00045845 0.00000000
2.78044077 1.21481463 -0.00303514 0.00000000
2.60320468 1.81633060 -0.00287116 0.00000000
2.99049978 2.14645587 0.00293804 0.00000000
2.24404336 0.60729452 -0.00291822 0.00000000
0.08851538 0.49681110 -0.00178028 0.00000000
0.85769958 1.15987376 0.00113957 0.00000000
3.20313412 0.51336711 -0.00238411 0.00000000
2.85487803 0.73421488 -0.00534045 0.00000000
4.25226355 1.81384730 -0.00011011 0.00000000
2.88986457 1.80030370 0.00287922 0.00000000
3.93556837 0.67621598 -0.00067584 0.00000000
2.96277384 2.01126494 -0.00190302 0.00000000
3.72732956 1.72860032 0.00434824 0.00000000
2.21219223 1.28635971 -0.00093585 0.00000000
1.70915008 1.49880218 0.00106194 0.00000000
2.37162058 0.67101550 0.00352217 0.00000000
0.73271128 0.14950184 0.00222255 0.00000000
1.12441739 1.85651845 -0.00506240 0.00000000
2.37812343 0.65704287 -0.00360989 0.00000000
2.67063646 1.84537290 -0.00186288 0.00000000
0.24430304 0.32928046 0.00156199 0.00000000
3.80746836 1.68660057 -0.00137140 0.00000000
4.54885093 0.34859164 -0.00043115 0.00000000
1.33980562 0.66569762 -0.00078294 0.00000000
3.03292968 1.08602476 -0.00365544 0.00000000
2.23566622 0.23759675 -0.00023018 0.00000000
4.61228775 0.39429245 -0.00137242 0.00000000
3.31284380 1.11822467 -0.00251636 0.00000000
3.76125837 1.84234853 0.00466628 0.00000000
0.03644563 0.95259865 -0.00069807 0.00000000
2.40368627 0.22991535 0.00131691 0.00000000
0.51741463 0.02778575 0.00055110 0.00000000
4.36968104 0.80267154 -0.00072540 0.00000000
3.20978718 1.58123772 -0.00047675 0.00000000
2.20440397 1.20384489 -0.00085534 0.00000000
1.64762932 0.44747039 -0.00109401 0.00000000
1.82626197 1.85083575 0.00191252 0.00000000
1.71993164 2.07834888 0.00151277 0.00000000
3.65922346 1.70318122 -0.00177426 0.00000000
3.67936174 2.14616621 0.00011536 0.00000000
2.29222653 2.14201715 -0.00145964 0.00000000
2.78149834 2.03001150 -0.00098343 0.00000000
3.12749674 0.18997900 0.00542696 0.00000000
2.37207316 0.07054948 -0.00420948 0.00000000
0.03505113 1.25077415 -0.00128553 0.00000000
2.12473389 0.37930382 0.00168701 0.00000000
2.70716254 0.56960340 0.00023481 0.00000000
2.40709949 1.09914325 0.00078120 0.00000000
1.40755299 0.53174870 -0.00066309 0.00000000
3.85700494 0.03173618 0.00116821 0.00000000
2.87450283 1.76219787 0.00146810 0.00000000
1.82566933 0.47394901 0.00440322 0.00000000
3.61078368 1.66168993 0.00099714 0.00000000
2.91190894 0.26884103 -0.00179382 0.00000000
1.12008421 0.27622702 0.00306673 0.00000000
2.80067588 1.18372353 -0.00089590 0.00000000
4.62886517 1.73633875 -0.00003500 0.00000000
1.93364991 1.46117616 -0.00083184 0.00000000
4.54974435 1.63472845 -0.00170408 0.00000000
4.11539796 0.13401603 0.00240076 0.00000000
1.54318081 2.00700943 0.00214126 0.00000000
0.02548115 0.47378111 -0.00302469 0.00000000
3.14110150 0.30166679 -0.00350465 0.00000000
2.06367833 1.91478238 0.00256106 0.00000000
1.30506139 1.62589245 0.00170377 0.00000000
2.40767447 0.97672925 0.00022334 0.00000000
2.15749967 0.40177055 -0.00050471 0.00000000
0.23634958 1.92248590 0.00039950 0.00000000
2.24354654 0.36570204 -0.00099362 0.00000000
4.36007026 1.22687336 0.00027333 0.00000000
0.94925331 0.30046177 0.00070334 0.00000000
0.97098264 1.18092680 0.00266184 0.00000000
4.28040315 1.79083086 0.00156445 0.00000000
2.43924671 0.34508451 -0.00020354 0.00000000
1.67091884 1.04175298 -0.00084687 0.00000000
3.49078080 0.91073737 0.00134267 0.00000000
3.16494253 1.85877912 -0.00314051 0.00000000
0.60316288 2.12130081 0.00091177 0.00000000
0.88484261 1.09346598 -0.00138480 0.00000000
1.19391118 0.79005713 -0.00076171 0.00000000
2.47290012 2.19146016 -0.00653498 0.00000000
3.24200607 1.61336608 -0.00130417 0.00000000
3.47976698 0.63687423 0.00331165 0.00000000
3.26418888 0.97560748 -0.00079040 0.00000000
0.31036647 0.42801801 -0.00555460 0.00000000
0.74124875 1.24524492 0.00109618 0.00000000
2.07264408 0.67896441 -0.00093964 0.00000000
2.51814113 0.51647840 -0.00302261 0.00000000
0.33973598 0.29668293 0.00158282 0.00000000
0.98985680 1.90189982 0.00160146 0.00000000
2.71988108 2.00647172 -0.00096101 0.00000000
3.92318462 1.20739094 -0.00176270 0.00000000
3.26105916 0.33822428 -0.00172427 0.00000000
4.20589553 0.55558023 -0.00033422 0.00000000
1.92603031 0.07490447 0.00469906 0.00000000
0.98629632 1.02323430 -0.00467845 0.00000000
3.67958620 1.64191296 -0.00282958 0.00000000
4.13713399 1.37685802 -0.00519276 0.00000000
2.97299739 0.81323444 -0.00176820 0.00000000
2.31112485 0.66948735 0.00497936 0.00000000
1.91183319 1.10879751 -0.00157503 0.00000000
1.43062894 1.89995879 -0.00310222 0.00000000
2.27145301 0.11428427 -0.00205407 0.00000000
3.50363227 0.40877481 -0.00056802 0.00000000
0.52543820 1.94129722 -0.00252859 0.00000000
0.57134075 1.44878450 -0.00237463 0.00000000
1.35073310 0.97357349 -0.00323250 0.00000000
2.17227484 0.06043865 -0.00190834 0.00000000
4.59766100 1.19975744 -0.00136360 0.00000000
1.21990757 1.73932363 -0.00535935 0.00000000
0.69963762 1.31703761 0.00027060 0.00000000
1.59598218 1.07030726 0.00064161 0.00000000
3.65220831 0.07149208 0.00063918 0.00000000
4.61777320 1.89037781 0.00096556 0.00000000
0.33257471 0.85709374 0.00179416 0.00000000
0.36453111 0.10708386 0.00225174 0.00000000
3.14512423 1.43564597 -0.00035965 0.00000000
3.41974885 1.94490686 -0.00039004 0.00000000
1.47037861 0.85193673 -0.00051400 0.00000000
4.58272960 1.01161960 0.00206411 0.00000000
3.78227959 1.83583899 -0.00192463 0.00000000
4.06179282 1.86888028 0.00024303 0.00000000
3.67391779 0.91665930 0.00126413 0.00000000
0.27850997 0.74255642 0.00262811 0.00000000
3.83507866 0.45026534 -0.00282629 0.00000000
4.56713520 0.30803793 0.00195638 0.00000000
4.35621282 1.01556527 -0.00130214 0.00000000
4.36058430 1.24270979 -0.00083211 0.00000000
0.68304580 2.16779531 0.00099484 0.00000000
1.74808731 1.97818579 0.00159779 0.00000000
1.70634951 2.04585049 0.00071547 0.00000000
2.93768849 0.07854965 -0.00271837 0.00000000
1.38891990 1.20026405 0.00112542 0.00000000
4.54039200 1.70264916 0.00193012 0.00000000
4.37641565 0.19174106 0.00310773 0.00000000
2.92168284 0.58686729 -0.00055254 0.00000000
4.20523659 1.17099454 -0.00108118 0.00000000
0.59067593 0.99023502 0.00130459 0.00000000
1.62493175 1.98693518 -0.00257965 0.00000000
0.18691257 0.80056032 -0.00256176 0.00000000
0.54022683 1.88948374 0.00283793 0.00000000
2.83075690 0.11991258 -0.00190157 0.00000000
4.01335516 0.51517266 -0.00243423 0.00000000
3.24323431 0.84279517 -0.00044956 0.00000000
0.94801376 0.92927206 -0.00073101 0.00000000
3.37955692 2.13328862 0.00470049 0.00000000
1.02279613 0.08229002 0.00011869 0.00000000
2.75003572 0.89718166 0.00213423 0.00000000
1.53924055 0.63847402 -0.00057615 0.00000000
1.84240765 1.99623193 0.00326402 0.00000000
1.30119316 1.98094290 0.00231007 0.00000000
0.61556228 1.03884861 0.00094780 0.00000000
2.52079216 0.21083324 -0.00546555 0.00000000
0.06018326 1.16699954 -0.00256042 0.00000000
1.63486409 0.57541982 -0.00142249 0.00000000
1.09559032 0.65409651 -0.00292319 0.00000000
0.78041121 0.85012919 -0.00209458 0.00000000
0.60497361 1.35710834 0.00260091 0.00000000
2.23362085 1.62466112 0.00472950 0.00000000
1.10116369 2.11133068 0.00112453 0.00000000
3.64391766 1.56131279 -0.00252722 0.00000000
1.39043992 2.04899856 0.00139982 0.00000000
0.39090335 0.76625876 0.00236244 0.00000000
0.99159124 1.38218540 0.00115116 0.00000000
4.48709780 0.70802336 0.00289822 0.00000000
3.47119071 1.71933902 0.00047110 0.00000000
0.38925539 0.21461461 -0.00551200 0.00000000
3.96830241 0.14879252 0.00241964 0.00000000
0.21909848 1.07520285 -0.00300773 0.00000000
1.66584589 1.50408426 -0.00175519 0.00000000
0.36068497 1.73101316 -0.00150008 0.00000000
0.54742652 0.48854777 0.00024794 0.00000000
3.35197507 0.21625844 -0.00094233 0.00000000
1.93438143 0.49726245 -0.00145854 0.00000000
2.15667915 0.42957673 -0.00091121 0.00000000
3.16466923 1.89364889 -0.00339471 0.00000000
4.16502327 1.30927806 0.00024946 0.00000000
2.51459844 1.07776603 0.00012909 0.00000000
0.37742697 1.55133578 -0.00044886 0.00000000
0.13331307 1.85698319 -0.00285112 0.00000000
1.60112276 1.69864964 0.00496811 0.00000000
0.92672595 1.86394138 -0.00073181 0.00000000
1.44940525 0.71034400 0.00287704 0.00000000
4.26012242 1.89058069 -0.00146515 0.00000000
1.77833523 0.54799596 0.00035388 0.00000000
0.00293062 0.26622099 0.00155528 0.00000000
4.34335542 0.98525095 0.00433235 0.00000000
3.46876792 0.31684887 0.00016036 0.00000000
1.18762939 0.00689339 0.00052104 0.00000000
2.47457228 1.19674315 0.00267198 0.00000000
2.56315360 0.91679313 -0.00345346 0.00000000
3.83358335 0.73610761 -0.00360073 0.00000000
2.46962091 1.50550550 0.00214609 0.00000000
4.62474426 2.04539863 0.00302398 0.00000000
4.03045819 0.58972308 -0.00310058 0.00000000
0.23298866 1.99820585 0.00167483 0.00000000
3.43800832 0.94455875 0.00078137 0.00000000
1.77822568 1.45743882 0.00082920 0.00000000
2.18440192 1.54123994 0.00506694 0.00000000
0.78582095 1.75501235 0.00145075 0.00000000
2.51360893 1.87077226 -0.00069239 0.00000000
4.28780452 0.17663831 -0.00078469 0.00000000
2.32600964 0.75731560 0.00127281 0.00000000
1.75544720 1.90929309 0.00353438 0.00000000
4.36640720 0.44886424 -0.00285162 0.00000000
0.71682506 1.47909163 -0.00103156 0.00000000
1.36799102 1.42850565 -0.00155948 0.00000000
1.00950138 0.41170638 0.00177796 0.00000000
1.63206409 0.45404923 -0.00088400 0.00000000
2.47162850 0.69724327 0.00146442 0.00000000
3.39290722 0.85354156 0.00353921 0.00000000
0.79776578 1.90684294 -0.00053848 0.00000000
1.04278541 0.61481670 -0.00220583 0.00000000
1.81937439 0.94968925 -0.00028673 0.00000000
2.86937391 0.70335709 -0.00125634 0.00000000
2.52071888 0.65287182 -0.00262489 0.00000000
2.35639495 0.98741670 0.00101079 0.00000000
3.71516890 0.71623171 -0.00175834 0.00000000
1.67147894 0.44618461 -0.00344457 0.00000000
0.49906274 1.57581586 0.00345179 0.00000000
3.59578961 1.95938540 -0.00084439 0.00000000
1.03658899 0.37308498 -0.00060548 0.00000000
2.94836393 2.02901935 0.00066317 0.00000000
1.37860120 0.55385288 -0.00498093 0.00000000
0.55572414 0.38228018 0.00420121 0.00000000
1.14741042 0.03491783 0.00303604 0.00000000
1.82127647 0.85633229 0.00403081 0.00000000
3.22470662 0.23072468 0.00271763 0.00000000
1.40187563 1.15781674 -0.00059949 0.00000000
0.63511987 0.62687594 0.00143216 0.00000000
4.31405269 0.39675463 -0.00278876 0.00000000
1.40132622 1.85776018 -0.00263915 0.00000000
3.39185611 1.59377524 0.00217628 0.00000000
1.88623004 1.80690668 -0.00333572 0.00000000
3.24729364 0.45668379 -0.00538801 0.00000000
1.87791230 2.12194888 -0.00364461 0.00000000
1.48901340 0.52161710 -0.00188379 0.00000000
4.53088078 0.11136668 0.00109616 0.00000000
1.01483540 1.72870245 0.00094836 0.00000000
4.30537838 1.10421501 0.00463943 0.00000000
4.15647724 1.03809367 -0.00021147 0.00000000
1.39028079 1.40762233 -0.00048578 0.00000000
2.35299392 2.07969346 0.00093443 0.00000000
0.83625561 1.69177665 0.00352568 0.00000000
0.71382334 0.46034468 -0.00141667 0.00000000
0.33636840 1.19687459 -0.00150708 0.00000000
1.25026688 0.61491451 0.00202182 0.00000000
1.97869086 2.02814290 0.00367485 0.00000000
0.76807693 1.17110372 0.00049436 0.00000000
2.51306199 0.40170896 0.00020175 0.00000000
3.38531770 1.46994848 0.00126781 0.00000000
4.24962475 2.09810698 -0.00054254 0.00000000
2.37489795 1.44000250 -0.00254648 0.00000000
3.36844904 0.47627427 -0.00587279 0.00000000
4.06727303 1.87613399 0.00118320 0.00000000
4.25400718 0.03368842 -0.00113929 0.00000000
3.37721523 0.57476845 -0.00243229 0.00000000
2.77114572 0.92147216 -0.00122734 0.00000000
2.34721798 1.97232538 0.00220583 0.00000000
0.75547368 1.55114607 0.00326527 0.00000000
2.17939410 1.30021656 0.00461370 0.00000000
0.37175075 1.54438291 -0.00191170 0.00000000
1.04002755 0.14985074 0.00173116 0.00000000
2.49265746 1.08446306 -0.00197612 0.00000000
0.47501150 2.12522016 0.00176892 0.00000000
2.71396457 1.07338654 -0.00213998 0.00000000
1.42296322 0.79939379 0.00046351 0.00000000
3.41227104 1.13648003 0.00222370 0.00000000
2.95840583 2.17113149 -0.00475027 0.00000000
0.40638560 1.36600315 0.00253510 0.00000000
2.93912023 0.69783535 0.00140800 0.00000000
2.96085999 0.23671530 -0.00276074 0.00000000
4.33619177 0.35485099 0.00372017 0.00000000
0.72235159 1.00009712 0.00009573 0.00000000
1.49448674 1.89658379 -0.00138052 0.00000000
3.72618226 0.45424253 0.00170122 0.00000000
2.44906020 2.12157252 -0.00309939 0.00000000
1.06718657 1.06593774 0.00031658 0.00000000
0.17356978 0.39123011 -0.00206663 0.00000000
2.10886535 0.85314991 -0.00053390 0.00000000
3.00013119 0.64734657 0.00054336 0.00000000
0.50319825 1.00251400 -0.00391006 0.00000000
2.82625539 0.37985855 -0.00230006 0.00000000
0.27812424 0.12090798 -0.00070786 0.00000000
1.93151711 2.06346714 0.00056514 0.00000000
2.01111738 0.93494340 0.00292068 0.00000000
4.18315732 1.95682964 -0.00142968 0.00000000
3.29036351 2.08623670 -0.00064058 0.00000000
3.34238648 0.99555849 0.00323352 0.00000000
2.55089402 1.29194662 0.00033767 0.00000000
3.19344532 0.09347565 0.00016946 0.00000000
1.67457161 0.10219696 -0.00016685 0.00000000
3.53319642 1.09807797 0.00115367 0.00000000
0.17133798 0.27750155 -0.00199691 0.00000000
2.06533951 0.54650374 0.00197056 0.00000000
3.96881394 2.10971293 -0.00056010 0.00000000
1.62382090 0.65798753 -0.00001461 0.00000000
3.03176403 0.38825749 0.00095930 0.00000000
0.08755108 1.68097087 -0.00123985 0.00000000
3.79372087 0.02895464 -0.00324796 0.00000000
4.13798003 2.08386757 0.00205051 0.00000000
4.11974820 0.59546711 -0.00181521 0.00000000
2.14467112 1.85337600 -0.00266201 0.00000000
4.57013652 0.10633412 0.00503637 0.00000000
0.37194670 1.94753224 -0.00240518 0.00000000
0.64993255 0.37522060 0.00604220 0.00000000
0.30035371 1.38229013 -0.00127146 0.00000000
2.64804010 1.56481857 0.00293028 0.00000000
3.93066433 1.00018057 0.00227615 0.00000000
4.08259599 1.18365544 -0.00188215 0.00000000
2.62006820 1.25956175 0.00068998 0.00000000
0.33816423 0.99605305 -0.00128337 0.00000000
2.95901828 1.75387106 0.00297554 0.00000000
2.07047993 0.88922991 -0.00106637 0.00000000
3.59525965 0.37580529 0.00023753 0.00000000
2.43704209 0.88175261 -0.00020775 0.00000000
2.06018926 1.40325934 0.00209674 0.00000000
0.58593090 1.75520141 -0.00067199 0.00000000
2.56559318 0.19464444 -0.00096225 0.00000000
4.48838732 0.48528849 -0.00339154 0.00000000
3.98239637 2.05309359 -0.00199822 0.00000000
2.55635965 1.37295723 0.00039030 0.00000000
2.35423838 1.05923879 0.00064351 0.00000000
4.61432217 0.51783413 0.00048839 0.00000000
2.35902019 0.94793894 -0.00249323 0.00000000
2.88907559 1.45865186 0.00129127 0.00000000
2.31907038 0.83719539 0.00386908 0.00000000
1.05131335 0.30326600 -0.00235435 0.00000000
1.55727496 1.99776648 -0.00361872 0.00000000
0.31936792 1.65015692 -0.00140534 0.00000000
0.61294010 0.52267020 -0.00199162 0.00000000
0.11418980 0.37920939 -0.00004945 0.00000000
0.32358363 1.82667687 0.00019750 0.00000000
2.69960371 1.85534934 0.00225262 0.00000000
4.24443107 2.02841523 -0.00472066 0.00000000
4.27069232 0.36232983 -0.00036634 0.00000000
4.54786523 1.87870618 0.00105388 0.00000000
4.46502969 0.64850068 -0.00215771 0.00000000
0.42549228 1.45484886 -0.00029251 0.00000000
0.92184823 1.05559288 0.00139895 0.00000000
2.98807568 0.13101991 -0.00070164 0.00000000
0.29668560 1.18042121 0.00022603 0.00000000
1.88766643 0.40777207 -0.00005634 0.00000000
1.31952255 1.71881793 0.00071553 0.00000000
2.65500567 0.03222263 0.00306408 0.00000000
0.08637199 0.22968848 -0.00071035 0.00000000
4.10394667 0.01204391 -0.00079082 0.00000000
4.22014879 2.10597994 0.00174695 0.00000000
2.34795395 2.07325390 -0.00360307 0.00000000
1.37272323 2.19178922 0.00062760 0.00000000
4.46033161 1.28889857 -0.00083838 0.00000000
2.11622368 0.06244808 0.00367294 0.00000000
3.68818533 0.18830537 0.00172651 0.00000000
0.66287889 2.17896793 0.00153506 0.00000000
0.63557855 1.44998520 0.00117124 0.00000000
1.77096042 0.66811986 -0.00280119 0.00000000
0.16630615 1.13530757 0.00070774 0.00000000
0.90982276 1.65704818 0.00037844 0.00000000
1.33925847 0.82428907 0.00868286 0.00000000
1.30153258 2.00142345 -0.00094908 0.00000000
1.84295906 1.17689583 -0.00022179 0.00000000
3.79879494 0.46545999 0.00002777 0.00000000
2.34425619 1.49094805 0.00071155 0.00000000
2.36416850 1.01419645 0.00049570 0.00000000
4.34671884 2.01999472 -0.00064735 0.00000000
1.22134939 0.52508896 0.00153421 0.00000000
4.52948528 1.40398796 -0.00062996 0.00000000
3.32997415 1.15032721 -0.00275185 0.00000000
3.37961520 0.68040612 -0.00083743 0.00000000
0.84526362 0.65248516 0.00192062 0.00000000
0.35735905 1.16846368 -0.00368719 0.00000000
3.51707056 2.10108402 -0.00117163 0.00000000
3.82198416 1.86781658 0.00112708 0.00000000
1.34907576 0.74371401 -0.00060936 0.00000000
0.55259888 2.07383256 0.00187373 0.00000000
2.12758978 0.36100324 -0.00137642 0.00000000
2.40537627 0.20083227 0.00359250 0.00000000
0.89609801 0.48298320 -0.00098296 0.00000000
0.69044320 2.03361174 0.00343785 0.00000000
2.03749658 1.47070094 0.00010430 0.00000000
1.10780217 0.14318448 0.00276446 0.00000000
0.22417719 0.86665510 -0.00058981 0.00000000
2.24569936 1.71745387 0.00214518 0.00000000
4.51163836 2.18437882 0.00512794 0.00000000
1.07115007 1.69353589 0.00110324 0.00000000
0.44025590 1.81165573 0.00097538 0.00000000
0.34552750 0.80893854 -0.00102234 0.00000000
4.12851871 2.12406719 0.00233442 0.00000000
3.48160073 0.44938996 -0.00504548 0.00000000
0.60617725 1.63209001 -0.00045357 0.00000000
2.10601467 0.62546512 -0.00182487 0.00000000
2.09770157 0.02240760 0.00094102 0.00000000
2.26144686 0.56861691 -0.00041788 0.00000000
4.05128836 0.95892300 -0.00196203 0.00000000
3.54884672 0.82929168 0.00230987 0.00000000
3.72866272 0.75843572 0.00240685 0.00000000
1.67019075 0.89021756 -0.00220359 0.00000000
2.40928448 1.50744687 0.00092845 0.00000000
0.95984294 0.81769043 -0.00167123 0.00000000
1.42366636 0.62050861 0.00139438 0.00000000
3.12703166 1.77587376 -0.00214469 0.00000000
2.82280580 1.52928041 0.00365805 0.00000000
2.20328358 1.85434116 -0.00253047 0.00000000
2.09310972 1.24654979 -0.00259750 0.00000000
2.44469810 0.41561312 0.00396199 0.00000000
2.35131396 1.35749309 0.00099918 0.00000000
1.75765461 0.81902799 0.00452459 0.00000000
1.58849096 1.37137260 -0.00523184 0.00000000
4.05535113 0.60606867 0.00009554 0.00000000
4.20797782 2.18158144 -0.00153192 0.00000000
2.11572146 1.73181441 0.00614521 0.00000000
