0.987311 1.049890 -0.000314 0.0
2.758524 1.436823 0.002414 0.0
4.116609 0.883197 -0.000147 0.0
2.509805 0.576846 0.000133 0.0
2.794508 0.935947 0.000996 0.0
0.056352 1.514197 0.002299 0.0
2.513455 1.687060 0.000696 0.0
1.278201 0.296458 -0.003357 0.0
4.207902 1.109048 -0.001708 0.0
2.951848 0.395884 0.000499 0.0
3.669573 1.580890 -0.000038 0.0
4.576348 0.631547 -0.005496 0.0
2.471043 1.803309 -0.003215 0.0
1.292829 1.707299 0.001183 0.0
0.351142 1.339404 0.002142 0.0
0.021942 1.204650 0.004687 0.0
4.342269 1.130247 0.002345 0.0
0.061595 0.217028 -0.001817 0.0
2.716196 1.588697 -0.001086 0.0
3.777084 0.674395 -0.000275 0.0
0.075344 1.643488 0.001979 0.0
0.646801 0.196404 0.002533 0.0
3.793704 0.807761 0.001539 0.0
2.676563 0.834156 -0.002229 0.0
4.261227 0.221366 -0.001453 0.0
1.369671 0.741849 -0.001802 0.0
1.004776 1.676720 0.001327 0.0
2.590803 0.312312 0.000885 0.0
1.568332 0.132251 0.000451 0.0
2.716253 1.382612 0.007425 0.0
4.602525 0.804248 0.002840 0.0
1.924354 0.865309 -0.002943 0.0
1.294120 1.057380 -0.000358 0.0
2.399742 0.982049 -0.002091 0.0
0.123573 0.601973 -0.004498 0.0
1.357270 1.927780 -0.001584 0.0
1.045932 0.667021 0.002604 0.0
2.323633 1.185612 -0.002095 0.0
1.477344 1.773820 -0.002741 0.0
1.478435 1.164311 0.004398 0.0
1.355072 0.192210 0.004471 0.0
1.096487 1.470755 -0.000276 0.0
2.914214 1.061771 0.000202 0.0
0.055519 0.828130 -0.001842 0.0
2.781489 0.859197 -0.002876 0.0
2.713110 1.217350 -0.004620 0.0
2.397696 1.648084 0.000630 0.0
0.628496 0.525483 0.000378 0.0
2.169001 2.040243 -0.002161 0.0
1.124214 1.626517 -0.001013 0.0
0.190808 1.559934 -0.002663 0.0
1.488036 1.200800 -0.001212 0.0
2.320643 1.728173 -0.000383 0.0
2.322041 1.169734 0.002284 0.0
0.919646 0.092157 -0.001072 0.0
4.398292 0.760021 0.001099 0.0
0.022674 0.060870 0.001381 0.0
3.866258 0.075079 -0.003507 0.0
4.068911 0.734702 -0.001347 0.0
3.585074 1.071459 0.001661 0.0
2.187835 1.305902 -0.006583 0.0
1.515714 1.940557 0.002490 0.0
2.802672 1.685907 0.001062 0.0
0.557496 1.937703 -0.002674 0.0
3.068520 0.648027 0.002732 0.0
2.012352 0.179150 -0.000007 0.0
1.143065 0.575368 0.001573 0.0
0.720803 1.284270 -0.001138 0.0
3.019062 1.451796 -0.005916 0.0
4.229260 1.461761 0.001653 0.0
1.084541 1.693210 0.000434 0.0
1.054630 0.244262 -0.005624 0.0
0.638941 1.486828 0.000445 0.0
2.498054 0.167150 -0.000693 0.0
2.896756 1.394513 -0.008890 0.0
0.492535 0.338976 -0.003947 0.0
3.235287 1.225395 -0.000674 0.0
1.008709 0.785205 -0.002109 0.0
0.245899 1.992376 -0.000968 0.0
3.519647 0.472150 0.004892 0.0
3.749359 1.413126 0.005391 0.0
1.741097 1.421428 0.001856 0.0
3.656851 1.368970 -0.000517 0.0
0.953104 1.034584 0.002070 0.0
3.123383 0.865542 0.000126 0.0
4.470155 0.206802 -0.002941 0.0
3.320514 1.252751 0.005959 0.0
3.052494 0.192517 0.004168 0.0
2.470031 1.962231 0.001394 0.0
2.761812 0.525991 -0.001419 0.0
2.788659 0.053146 0.000313 0.0
0.277659 0.956686 0.003382 0.0
4.454261 1.295591 0.004126 0.0
4.161775 1.333362 -0.003201 0.0
2.526937 1.749984 0.001839 0.0
3.747408 2.032928 -0.003430 0.0
0.539615 0.131801 -0.003607 0.0
2.774293 1.818712 0.001147 0.0
4.513639 1.215537 -0.003930 0.0
4.346937 1.336889 -0.001617 0.0
1.048744 1.463444 -0.001764 0.0
1.147533 2.028760 -0.001185 0.0
2.919340 0.251261 0.000726 0.0
4.025662 0.862126 -0.000802 0.0
0.516244 0.781354 -0.001182 0.0
0.869017 0.558020 -0.000830 0.0
2.052724 1.829510 0.003453 0.0
0.128810 0.393965 -0.000353 0.0
1.864096 0.114634 0.001276 0.0
3.915244 1.940448 0.000138 0.0
3.264862 0.779248 -0.002236 0.0
3.227363 1.237683 0.000417 0.0
3.409302 0.745488 0.000539 0.0
0.764431 1.001619 -0.001995 0.0
2.596902 1.117170 -0.002386 0.0
1.460704 0.573035 -0.002693 0.0
0.084453 1.597170 0.003874 0.0
3.889239 0.118215 -0.000627 0.0
1.642049 1.188619 -0.002762 0.0
3.995544 1.702406 0.001947 0.0
4.492305 0.742287 -0.001222 0.0
0.471422 1.503719 -0.005457 0.0
2.876731 1.376225 -0.002423 0.0
4.191219 1.729298 -0.001547 0.0
2.495062 1.213730 0.001227 0.0
1.672214 1.122443 -0.003792 0.0
0.008041 1.531737 -0.003299 0.0
2.226738 1.536477 0.003588 0.0
4.427661 1.361817 -0.000470 0.0
0.585383 0.300482 -0.000990 0.0
3.631048 0.007234 -0.002302 0.0
3.295500 1.120385 0.002922 0.0
0.677700 0.940599 0.002645 0.0
1.043115 1.055926 -0.002443 0.0
0.395409 1.788276 0.003947 0.0
3.300636 0.949876 -0.001833 0.0
0.454859 1.884613 -0.001467 0.0
1.579796 0.757038 0.004563 0.0
1.776060 1.237606 -0.001680 0.0
4.233114 0.216958 -0.000450 0.0
0.507085 1.629103 0.003192 0.0
1.429425 0.524975 0.002802 0.0
1.855788 1.374881 -0.005279 0.0
1.250783 0.365721 0.004704 0.0
2.805766 0.060457 0.003737 0.0
0.243515 1.058417 -0.001513 0.0
4.060420 0.420402 -0.002554 0.0
2.758975 0.899513 0.001423 0.0
1.633754 0.855197 0.003744 0.0
3.943860 1.721981 0.000740 0.0
1.006436 0.538022 0.002877 0.0
2.183049 0.350732 0.000384 0.0
2.226528 0.402993 -0.001987 0.0
0.233865 0.406177 0.002274 0.0
1.773742 1.290601 0.001709 0.0
3.701880 1.146378 -0.004591 0.0
4.597690 0.074701 0.002183 0.0
4.463028 0.649266 0.001508 0.0
0.748898 1.458237 0.005611 0.0
3.474510 1.643767 0.000497 0.0
1.662324 1.150531 0.000203 0.0
2.629935 1.745268 0.003000 0.0
3.877487 1.997625 0.000850 0.0
4.157101 0.884624 -0.005618 0.0
1.868479 0.484993 -0.006634 0.0
2.946409 0.562511 0.002899 0.0
3.062189 0.849495 -0.001149 0.0
0.489102 1.093358 0.000326 0.0
4.460228 0.790971 0.003492 0.0
3.315684 0.467830 -0.002419 0.0
1.018105 0.868534 0.000684 0.0
3.988485 1.399316 0.005817 0.0
1.674992 1.704322 -0.001510 0.0
4.093353 1.026704 0.001701 0.0
1.781246 0.682728 -0.001482 0.0
1.544058 0.576254 0.001092 0.0
2.571938 0.338125 -0.001258 0.0
3.880690 0.251977 -0.004252 0.0
3.377998 1.156692 -0.000102 0.0
2.896938 0.641844 0.002399 0.0
2.567087 1.655447 0.001604 0.0
1.254316 1.393877 -0.001130 0.0
3.086441 1.405741 -0.001204 0.0
2.560423 1.901759 -0.000056 0.0
4.196355 0.370161 0.002733 0.0
3.353133 1.125996 0.003577 0.0
3.195385 1.920871 -0.003405 0.0
1.699138 1.179516 -0.004183 0.0
0.884778 1.001621 -0.001930 0.0
0.634130 1.400868 0.004101 0.0
1.665783 1.533902 0.001767 0.0
0.680716 1.180835 -0.001228 0.0
3.184211 0.753068 -0.000069 0.0
0.506280 1.850612 -0.001467 0.0
0.145255 1.297984 -0.000199 0.0
1.030161 0.096544 0.003743 0.0
0.199846 1.376703 0.001134 0.0
0.911020 1.198362 -0.002725 0.0
3.620587 0.872354 0.001905 0.0
0.130444 0.224973 -0.000083 0.0
4.389156 1.665649 -0.002017 0.0
2.948507 0.967759 0.001084 0.0
4.323103 0.427188 0.002364 0.0
3.918737 1.483411 0.000561 0.0
1.947440 1.729003 0.000838 0.0
2.286293 1.076025 0.002870 0.0
1.382086 1.386358 0.004214 0.0
0.142178 0.691343 0.001332 0.0
2.760760 0.187301 0.003083 0.0
0.182176 1.323210 -0.001284 0.0
2.238112 1.419284 -0.001454 0.0
2.867341 0.042401 -0.001609 0.0
0.307428 1.568058 -0.001206 0.0
4.548209 1.266725 0.002350 0.0
3.732152 0.880582 -0.003219 0.0
1.342818 1.880630 -0.001458 0.0
3.976137 1.570064 0.000523 0.0
0.892114 1.434255 -0.005119 0.0
2.047247 1.565072 -0.001488 0.0
2.178002 0.763805 0.001478 0.0
2.337268 0.659431 -0.000920 0.0
2.932842 0.122341 0.001594 0.0
4.123921 0.956141 0.000076 0.0
4.552849 0.321004 0.002623 0.0
3.275447 0.320202 0.003988 0.0
1.658304 1.903103 -0.000109 0.0
2.998292 1.103135 0.003506 0.0
4.200901 1.360286 -0.000633 0.0
0.341254 0.654183 0.002206 0.0
3.620908 1.955329 -0.001295 0.0
1.710595 0.696566 -0.002532 0.0
4.590586 1.852773 0.001132 0.0
1.490475 0.916113 -0.001226 0.0
3.021710 1.441098 0.001378 0.0
2.887410 1.861125 0.002254 0.0
0.960812 0.464961 0.000940 0.0
3.411715 0.173867 -0.003187 0.0
3.675398 0.174060 0.002144 0.0
2.014972 1.239720 -0.000370 0.0
4.472919 1.014652 0.002693 0.0
1.114049 0.686659 0.005899 0.0
3.975748 1.788206 -0.000568 0.0
3.777279 1.441063 0.001460 0.0
3.870930 1.259401 0.000791 0.0
1.082710 0.769031 -0.004575 0.0
0.192399 0.390479 0.003630 0.0
4.581870 1.841872 0.001036 0.0
1.199670 1.853346 0.001705 0.0
2.830613 0.423788 -0.001982 0.0
4.017043 1.458611 0.002893 0.0
3.627369 1.454703 -0.001661 0.0
0.110758 0.758408 -0.001636 0.0
1.200339 1.680550 0.001444 0.0
3.281789 1.440904 0.002678 0.0
0.633695 1.959312 -0.000947 0.0
4.242899 1.522601 0.002618 0.0
4.318166 0.451840 0.001150 0.0
0.441308 1.420358 0.002041 0.0
3.055099 0.093924 0.004162 0.0
2.745854 0.319751 -0.002653 0.0
1.294096 1.639186 -0.002403 0.0
3.591823 0.281290 -0.003517 0.0
0.462933 1.832416 0.001548 0.0
0.623242 0.500970 -0.001197 0.0
2.404677 1.182504 0.001771 0.0
2.362628 1.946972 0.000157 0.0
4.366940 1.262986 0.003177 0.0
3.019494 1.631011 0.001542 0.0
1.087431 1.406942 -0.001603 0.0
1.810271 1.339752 0.000394 0.0
0.386186 1.616312 0.002223 0.0
3.651933 1.127551 -0.001104 0.0
0.289799 0.287339 -0.001546 0.0
1.633481 1.597347 -0.002078 0.0
3.779001 0.934915 -0.001302 0.0
1.418947 1.083667 0.002741 0.0
0.430601 1.057945 -0.004539 0.0
3.915045 1.861818 0.004060 0.0
4.048854 1.323486 0.000328 0.0
2.927455 1.873926 -0.003049 0.0
3.132930 1.145818 -0.000655 0.0
0.017627 0.734247 -0.001335 0.0
2.817134 0.851620 0.002774 0.0
2.396849 1.380140 0.003216 0.0
0.672598 1.417604 0.006707 0.0
2.294885 0.119975 0.000217 0.0
3.049206 0.016171 -0.002563 0.0
0.199334 1.405540 0.002663 0.0
2.317712 0.375828 -0.002368 0.0
3.481873 0.824348 -0.001674 0.0
1.509302 0.084960 0.001537 0.0
0.429595 0.067926 -0.000293 0.0
2.759365 1.351128 -0.001271 0.0
1.884649 1.928876 0.001619 0.0
3.597783 1.102325 0.001785 0.0
3.322603 0.776115 0.000853 0.0
1.413496 1.146437 0.000461 0.0
0.130103 0.865270 -0.000687 0.0
1.176828 1.187816 0.000285 0.0
2.746819 1.766616 -0.000992 0.0
1.486143 1.931968 0.000680 0.0
0.126814 0.137945 0.001163 0.0
2.120645 0.751099 -0.000655 0.0
1.068123 1.887472 0.004566 0.0
1.871627 1.741830 0.001062 0.0
3.406453 0.816166 0.000425 0.0
1.790974 1.472667 -0.004395 0.0
1.761252 1.427880 -0.001262 0.0
0.285078 1.402601 -0.000245 0.0
1.913538 0.709378 0.002160 0.0
1.051289 0.840457 0.004288 0.0
0.745664 0.374694 0.002830 0.0
2.510821 1.136232 -0.001378 0.0
0.406817 1.383276 -0.003001 0.0
2.229471 1.891591 0.001832 0.0
2.649487 0.725616 0.002488 0.0
1.478724 1.169083 0.003480 0.0
3.850823 1.586122 0.000908 0.0
1.850428 1.994821 0.002172 0.0
2.750131 0.702601 -0.000346 0.0
1.189820 1.375237 0.001001 0.0
1.878557 1.849414 -0.002266 0.0
2.700956 1.015897 0.003182 0.0
4.293592 0.411587 0.000176 0.0
3.017067 0.797761 0.002467 0.0
1.888214 0.121308 -0.000422 0.0
2.404189 1.427328 0.002759 0.0
2.226147 2.021122 -0.002838 0.0
4.075061 1.491712 0.001980 0.0
3.271259 0.751146 -0.000238 0.0
3.484400 0.171349 -0.000871 0.0
1.532531 0.349308 -0.000065 0.0
3.572947 1.907369 -0.002927 0.0
4.360563 0.758569 -0.003077 0.0
3.576392 0.543509 -0.000356 0.0
1.889595 1.860377 0.002639 0.0
1.899360 0.684727 0.003241 0.0
3.136649 1.998160 0.002406 0.0
3.074161 1.947606 0.002223 0.0
3.017228 1.382729 0.002810 0.0
3.136031 0.242419 0.000841 0.0
1.503490 0.221981 0.001180 0.0
3.471050 0.119625 0.001434 0.0
0.278240 0.203097 -0.003326 0.0
2.189933 0.945160 0.001611 0.0
3.949916 1.698043 -0.000976 0.0
4.564218 1.062623 -0.002347 0.0
3.171423 1.498267 -0.000729 0.0
2.002784 0.895305 -0.001706 0.0
0.798136 1.622946 -0.000342 0.0
1.364309 0.018749 0.000588 0.0
2.070064 0.362611 0.002855 0.0
3.749418 1.960069 -0.003909 0.0
0.113457 1.992060 -0.000015 0.0
3.428467 0.920642 -0.004314 0.0
1.706172 1.149626 -0.003044 0.0
3.802051 0.643575 0.000270 0.0
1.085713 0.478951 0.000199 0.0
1.586551 0.025628 -0.002089 0.0
1.919060 0.513719 0.000976 0.0
0.537641 0.002452 -0.001403 0.0
1.392153 1.061345 -0.000246 0.0
3.970514 1.494897 0.002743 0.0
1.706705 0.694899 -0.000484 0.0
3.083389 1.370656 0.003330 0.0
3.297982 1.592026 0.001659 0.0
0.912981 0.355366 0.005508 0.0
1.054016 1.066310 0.002941 0.0
3.479693 0.371960 -0.002753 0.0
1.176421 0.997475 -0.000832 0.0
1.995398 0.720590 0.001257 0.0
3.445411 1.040732 0.000697 0.0
3.133143 1.312706 -0.002395 0.0
0.117124 1.238029 0.000040 0.0
1.073716 0.150173 -0.000808 0.0
0.136268 0.360258 -0.003653 0.0
0.485205 1.498063 -0.001587 0.0
0.360099 1.811703 0.003661 0.0
1.437727 1.290328 0.002179 0.0
3.469872 1.070052 -0.003327 0.0
0.577818 1.317822 -0.001492 0.0
3.811537 0.775463 -0.000036 0.0
0.252182 0.709401 0.004189 0.0
3.764778 0.859077 -0.005381 0.0
2.053924 0.408983 0.000921 0.0
3.697970 1.959076 -0.004339 0.0
3.996148 0.789340 -0.003321 0.0
0.441480 1.756993 -0.000413 0.0
0.300576 0.167949 0.001886 0.0
2.641289 1.190235 0.000231 0.0
1.957138 0.014142 0.004980 0.0
4.265632 1.578603 0.002099 0.0
0.691757 1.005278 0.001113 0.0
1.669023 1.632621 -0.001456 0.0
1.429997 0.923208 -0.001205 0.0
4.209450 0.112195 0.001012 0.0
0.414136 0.261060 -0.000413 0.0
1.915555 0.218935 -0.001146 0.0
2.881055 1.125820 0.001869 0.0
0.542820 0.491085 -0.001269 0.0
2.407381 0.664139 -0.002173 0.0
0.665383 1.127939 -0.002343 0.0
0.235093 1.279540 -0.004753 0.0
3.316317 1.379195 -0.000260 0.0
4.071611 0.501788 -0.000310 0.0
3.796212 1.125006 -0.000132 0.0
0.830154 1.686236 -0.000632 0.0
2.873265 0.707038 -0.000169 0.0
4.051367 1.618271 0.000365 0.0
0.885839 0.092852 -0.001665 0.0
4.157869 1.405706 0.002948 0.0
1.128422 0.814192 -0.001495 0.0
4.155932 1.364361 -0.003776 0.0
0.444846 1.577340 0.001358 0.0
3.605818 1.751252 0.002507 0.0
3.427833 1.177717 -0.002931 0.0
2.731484 0.289859 -0.000281 0.0
3.480057 1.124712 0.002478 0.0
3.712161 0.170525 0.000914 0.0
2.124634 0.634225 0.004352 0.0
3.599847 0.177282 0.002419 0.0
2.138432 2.022063 0.000877 0.0
3.511651 0.725754 0.002240 0.0
0.737074 0.678602 0.001999 0.0
1.369241 1.185556 0.002301 0.0
3.852776 1.637264 0.002562 0.0
4.180848 0.852156 -0.003358 0.0
3.306062 1.085437 -0.002789 0.0
2.523903 0.184053 -0.000647 0.0
2.593052 1.207930 -0.000590 0.0
3.046679 1.582314 -0.001219 0.0
4.255837 0.035599 0.000949 0.0
1.283673 0.465776 -0.001646 0.0
4.417222 0.497347 -0.000461 0.0
2.498125 1.872047 -0.004376 0.0
0.256420 1.610553 0.000590 0.0
3.328090 0.555085 -0.000964 0.0
3.219635 0.660534 0.002565 0.0
0.635600 0.079113 -0.001737 0.0
0.470853 2.023158 0.001027 0.0
0.824835 1.403953 -0.001742 0.0
1.135170 1.199643 -0.002085 0.0
2.489108 1.488600 0.002436 0.0
3.923156 2.020734 -0.002957 0.0
3.707239 0.127739 0.001532 0.0
2.909015 1.299570 -0.003004 0.0
3.852959 1.556013 0.001769 0.0
0.185103 1.453926 0.000766 0.0
3.513223 1.441879 -0.000490 0.0
4.267716 0.295154 0.002928 0.0
0.969262 1.238175 0.000581 0.0
0.938410 1.731455 0.003287 0.0
1.438090 0.726607 0.003571 0.0
4.496182 0.795080 -0.000694 0.0
3.804433 0.645208 -0.001525 0.0
4.233335 1.228295 -0.006172 0.0
1.496734 1.435132 -0.003196 0.0
0.207507 0.453266 -0.000917 0.0
3.148082 1.816013 0.002179 0.0
2.861091 1.559354 0.002200 0.0
3.681630 0.854723 -0.002297 0.0
3.066932 1.617225 0.002486 0.0
0.998306 1.752741 0.003493 0.0
0.640948 1.892272 -0.001121 0.0
2.922881 0.054381 0.002384 0.0
1.776704 1.196641 -0.000397 0.0
0.511918 1.666465 -0.003178 0.0
0.421124 0.728327 0.002519 0.0
0.930236 0.825996 0.003952 0.0
0.182355 0.129670 0.002278 0.0
4.054747 0.892996 -0.000075 0.0
3.317073 0.114825 0.002816 0.0
2.749812 0.550763 0.000212 0.0
2.951252 1.365174 -0.000920 0.0
2.930461 1.935557 -0.000804 0.0
2.526315 1.500243 -0.000191 0.0
4.327353 1.068525 -0.002533 0.0
1.358046 0.068169 0.001957 0.0
1.884749 0.564880 0.006665 0.0
1.311141 0.086500 0.002596 0.0
2.279240 1.337708 0.004416 0.0
1.346453 0.752603 0.003361 0.0
4.012427 1.483003 0.002732 0.0
0.599457 0.506572 -0.002386 0.0
0.315574 1.330536 -0.000250 0.0
0.958726 0.776460 -0.001751 0.0
0.011986 1.153222 -0.003003 0.0
0.606016 0.879511 -0.005013 0.0
3.813330 1.471604 0.002091 0.0
2.879312 1.689861 0.001389 0.0
0.878650 1.043909 0.000460 0.0
2.381702 1.747608 -0.001162 0.0
1.570130 0.449121 -0.001142 0.0
4.406907 1.579452 -0.006674 0.0
1.838572 1.663566 -0.000797 0.0
3.518645 1.446169 0.000920 0.0
3.141076 1.393176 -0.001873 0.0
1.734189 0.438339 -0.002912 0.0
1.884918 1.000789 -0.003908 0.0
4.551079 1.870065 0.001913 0.0
2.821902 0.681584 0.003277 0.0
3.950551 0.674194 0.000844 0.0
1.455230 0.462406 -0.000892 0.0
4.157545 0.643558 0.000885 0.0
0.556732 0.551716 -0.004272 0.0
3.517886 0.903754 -0.000523 0.0
3.033719 1.040017 0.000947 0.0
3.142139 1.725042 -0.002967 0.0
0.754987 0.602356 0.002280 0.0
2.555376 0.639322 0.000156 0.0
3.056268 0.594359 0.002420 0.0
3.246543 1.586770 -0.000607 0.0
1.871680 0.704001 -0.001563 0.0
3.504561 0.139428 -0.002757 0.0
2.683188 0.763866 -0.003669 0.0
2.749863 0.276604 0.001759 0.0
0.667030 1.403305 -0.003309 0.0
2.919585 0.623332 0.000702 0.0
3.189080 0.947557 0.004731 0.0
3.371475 2.032358 0.001205 0.0
3.794544 0.547674 -0.000405 0.0
3.057692 1.497549 -0.000897 0.0
2.220254 1.633307 -0.003128 0.0
3.545816 1.185248 0.005047 0.0
3.807963 1.877978 0.001863 0.0
0.102435 0.135372 0.000708 0.0
2.943572 1.615270 -0.001153 0.0
2.283019 1.239825 -0.002617 0.0
1.958238 0.888827 -0.003820 0.0
3.369492 2.020183 0.000369 0.0
1.677170 1.285577 0.001265 0.0
2.421567 1.323134 -0.001148 0.0
0.732834 1.431916 0.000342 0.0
1.349877 0.846780 0.001348 0.0
2.809862 1.808429 0.001261 0.0
2.691171 0.563338 -0.003297 0.0
1.766734 1.723653 0.000295 0.0
4.132146 0.790097 0.000307 0.0
4.299648 1.241631 0.001961 0.0
2.425140 0.931130 0.005862 0.0
4.310856 0.153098 -0.000555 0.0
1.151728 1.813558 -0.001065 0.0
2.682198 1.251123 -0.000463 0.0
2.140409 0.829014 0.000567 0.0
1.789760 1.041601 -0.004631 0.0
0.450923 1.826657 0.000495 0.0
1.763935 1.514041 -0.001838 0.0
0.220597 1.874053 -0.000816 0.0
0.929523 0.829691 -0.002420 0.0
0.799311 0.378518 -0.001576 0.0
4.561028 1.372396 0.003416 0.0
3.184193 1.111667 0.002201 0.0
0.740446 1.718953 0.001955 0.0
0.617162 0.308171 0.000698 0.0
3.776096 0.454955 0.001860 0.0
2.006598 1.135509 0.003969 0.0
0.584819 0.409506 0.005538 0.0
0.097548 1.494798 0.000077 0.0
3.924989 0.735323 0.001778 0.0
1.950398 1.769560 0.003398 0.0
4.520821 0.843566 -0.000024 0.0
3.562288 1.446947 0.005650 0.0
2.974991 0.915339 -0.004188 0.0
1.320755 1.821015 -0.002131 0.0
1.660282 1.465334 0.001471 0.0
1.887921 1.560411 0.004828 0.0
0.508903 0.432353 0.000194 0.0
1.964593 1.325378 0.000536 0.0
1.312922 1.291276 0.003490 0.0
2.932641 0.080649 -0.003415 0.0
3.271135 1.959979 -0.000967 0.0
1.709642 1.546602 0.007793 0.0
0.898837 0.673270 0.001585 0.0
1.461434 0.736570 -0.004087 0.0
4.404252 1.499913 0.003405 0.0
3.289632 1.603333 -0.000791 0.0
1.735897 0.620263 -0.001524 0.0
1.209798 0.446636 -0.001451 0.0
2.020876 0.773469 0.000680 0.0
1.772764 0.655720 -0.005225 0.0
3.456912 0.902166 0.000732 0.0
1.252712 0.371277 0.001821 0.0
3.131260 0.075429 -0.000713 0.0
4.434474 0.064806 -0.001451 0.0
1.855232 0.292512 -0.002370 0.0
3.471391 0.188341 0.000420 0.0
0.762961 0.599933 -0.000334 0.0
0.684735 1.666048 0.001855 0.0
4.151789 1.636719 0.001232 0.0
4.174695 1.202047 -0.001632 0.0
2.093419 1.973220 -0.001167 0.0
1.408291 1.993763 0.001420 0.0
2.106315 0.503454 -0.001493 0.0
0.063747 0.836208 0.000456 0.0
3.917374 1.839177 -0.001505 0.0
2.531450 1.701113 -0.001563 0.0
3.335502 1.045928 -0.000409 0.0
3.548761 0.484764 0.001221 0.0
0.952230 1.131744 -0.003967 0.0
2.951437 1.292008 0.002048 0.0
2.687836 0.773953 -0.000662 0.0
0.262733 1.155419 -0.002769 0.0
3.326616 1.055461 -0.004503 0.0
1.671233 0.760043 -0.000765 0.0
1.247653 0.944503 -0.001488 0.0
2.997089 1.004107 -0.001640 0.0
4.371797 0.155285 -0.001470 0.0
4.188230 0.810943 -0.002977 0.0
4.215078 1.133187 0.003607 0.0
1.760662 1.058892 -0.004167 0.0
4.598006 1.294402 -0.000137 0.0
3.710753 0.783084 0.004129 0.0
4.007666 0.660905 0.004210 0.0
1.400355 1.730144 0.000744 0.0
0.565382 1.819865 -0.002557 0.0
2.912216 0.445211 -0.000142 0.0
2.813357 0.769766 -0.003331 0.0
4.476479 0.895209 0.001897 0.0
1.683274 1.589519 0.002842 0.0
0.965061 0.247833 0.002836 0.0
0.261417 0.129508 -0.000842 0.0
1.077707 2.037754 0.002487 0.0
3.166389 0.863239 0.000887 0.0
0.811825 0.337479 0.003208 0.0
2.110568 0.315596 -0.000607 0.0
3.523427 0.856911 -0.000901 0.0
4.187837 0.121431 -0.000959 0.0
0.873148 1.303906 0.001447 0.0
0.106014 0.224466 0.000553 0.0
3.775394 1.791259 -0.001512 0.0
1.639016 0.244309 0.000135 0.0
4.419870 1.203260 -0.000048 0.0
4.602487 1.861427 0.001679 0.0
0.269858 1.861572 -0.004590 0.0
2.895876 0.146217 -0.000253 0.0
3.541438 1.930449 -0.004058 0.0
0.262663 1.515456 -0.002670 0.0
4.309515 1.240127 0.002524 0.0
3.917947 0.035442 -0.001361 0.0
2.775741 1.465565 -0.001445 0.0
1.692014 1.149711 -0.000604 0.0
2.972850 1.662305 -0.000733 0.0
3.850964 1.601882 -0.003441 0.0
0.876508 0.626870 -0.004342 0.0
1.939603 0.500305 -0.001345 0.0
3.268329 0.668198 -0.000732 0.0
1.141995 1.872981 -0.004436 0.0
0.025615 1.706218 0.003341 0.0
3.634406 0.171189 0.001070 0.0
1.909268 0.528312 0.004350 0.0
3.452356 1.153461 -0.001974 0.0
3.420702 0.571460 -0.002971 0.0
2.655982 2.033556 0.000761 0.0
4.150220 1.220619 0.002542 0.0
3.784505 1.486776 0.002907 0.0
1.694213 1.769726 -0.000031 0.0
3.963947 0.616927 0.000601 0.0
4.536115 1.053233 -0.000731 0.0
4.221022 1.789552 0.000333 0.0
0.267537 0.860559 -0.004929 0.0
2.583575 0.618266 0.002125 0.0
2.090160 1.810758 0.001060 0.0
4.022738 0.881564 0.001481 0.0
1.595092 0.854836 -0.006827 0.0
1.916580 1.134130 0.002546 0.0
0.887962 0.162215 -0.000255 0.0
1.123029 1.006864 0.000059 0.0
0.393280 0.361631 0.002640 0.0
0.918313 0.187211 0.000222 0.0
1.756438 1.132297 0.001646 0.0
4.118195 1.062640 0.000347 0.0
0.238338 0.228118 -0.000029 0.0
4.576412 1.405410 -0.001383 0.0
4.320598 0.572670 -0.001475 0.0
4.285663 0.403020 -0.000002 0.0
1.573480 0.779130 -0.002470 0.0
0.560067 0.704342 -0.004804 0.0
4.218848 0.875211 -0.002760 0.0
2.497185 0.798402 -0.002658 0.0
0.600468 1.297035 -0.002405 0.0
4.233061 0.920854 -0.002191 0.0
4.430104 0.463958 0.008271 0.0
0.309472 0.333508 0.000437 0.0
2.897854 0.067003 -0.003048 0.0
1.893523 0.290599 0.000421 0.0
2.247072 0.501468 0.004395 0.0
4.229152 1.223675 -0.001360 0.0
1.925806 0.143487 0.001860 0.0
1.315450 0.768219 -0.003826 0.0
1.797105 1.182180 0.004122 0.0
0.271934 0.176087 -0.000106 0.0
1.889654 1.024092 0.002185 0.0
1.332377 1.158331 -0.000252 0.0
1.947045 0.041806 0.002373 0.0
3.381628 1.856131 0.001733 0.0
4.373369 1.358174 -0.000539 0.0
0.288394 2.009113 -0.001385 0.0
0.009143 0.243731 -0.000231 0.0
2.023560 0.392605 0.000653 0.0
1.799451 1.693024 -0.000949 0.0
2.729559 1.627344 0.004091 0.0
1.862348 1.184382 0.004920 0.0
1.647665 1.817871 -0.003430 0.0
0.774863 1.425327 -0.001481 0.0
0.450407 0.507552 0.000447 0.0
4.156750 1.634478 -0.000901 0.0
3.853891 1.122261 0.000419 0.0
0.160839 1.613409 0.001041 0.0
1.126733 0.694770 0.000083 0.0
2.679190 0.736001 -0.000501 0.0
1.839462 0.430247 0.001743 0.0
0.946914 0.860716 -0.001602 0.0
2.211644 0.892639 -0.002215 0.0
0.929277 0.083325 -0.000297 0.0
2.848370 1.784740 0.003396 0.0
2.465693 0.986959 -0.000376 0.0
1.998516 1.402514 -0.002629 0.0
1.003869 0.457411 0.002626 0.0
3.010412 0.478828 0.002577 0.0
1.154902 1.821609 0.001927 0.0
0.183437 1.400143 -0.001981 0.0
0.431651 1.315144 -0.000413 0.0
1.856517 0.232540 -0.001022 0.0
1.438548 1.994163 0.002687 0.0
1.744015 1.740258 0.001610 0.0
0.854468 1.073911 -0.004422 0.0
0.980671 1.268446 -0.002158 0.0
0.584820 1.532851 0.004098 0.0
2.043796 1.889452 0.000201 0.0
1.420852 1.414149 0.001503 0.0
2.687674 1.136241 0.000395 0.0
1.114284 0.139117 -0.000037 0.0
0.992436 0.748083 0.003651 0.0
0.131818 0.574881 0.000389 0.0
3.076733 1.571851 0.000108 0.0
0.469615 0.539386 -0.003222 0.0
0.128436 1.939395 -0.000508 0.0
0.252590 0.680878 0.003597 0.0
3.684241 0.750117 -0.001244 0.0
0.501976 0.752755 0.000592 0.0
0.461502 0.448109 0.000053 0.0
1.625193 0.611002 0.000440 0.0
4.330939 1.659680 0.001591 0.0
1.240077 1.686544 0.000569 0.0
0.643577 0.677972 0.000253 0.0
2.970564 1.999454 -0.001374 0.0
1.652280 0.671549 -0.002188 0.0
2.027959 1.479210 0.000382 0.0
2.256566 0.992560 0.001453 0.0
2.204713 0.552338 -0.001332 0.0
0.290790 1.930811 0.001507 0.0
4.367264 0.366363 0.002614 0.0
1.761906 0.627461 0.003623 0.0
3.535865 1.565661 0.000371 0.0
2.494028 1.413422 -0.004032 0.0
3.291446 1.679735 -0.002147 0.0
4.293805 0.730885 -0.000374 0.0
1.606066 1.605020 -0.003009 0.0
3.574493 1.536278 0.001373 0.0
3.029227 1.399240 0.005176 0.0
1.528797 1.708983 -0.001956 0.0
2.953181 0.737789 0.001528 0.0
2.175898 0.864542 -0.002433 0.0
0.675285 0.394919 -0.001753 0.0
2.113871 2.030987 0.003083 0.0
3.225262 1.580257 -0.001908 0.0
1.306590 0.991115 0.001858 0.0
1.957659 1.867783 0.002654 0.0
2.537922 1.992761 0.002016 0.0
2.552562 0.347377 0.004776 0.0
0.168056 0.934968 0.001103 0.0
3.503685 1.535292 -0.000988 0.0
2.597921 0.455646 -0.000060 0.0
2.250257 1.727303 0.003228 0.0
0.026111 1.750175 -0.000263 0.0
1.862054 1.417899 0.004801 0.0
1.198541 0.434427 0.000019 0.0
0.530907 0.670582 0.002221 0.0
0.544877 0.186628 0.001800 0.0
3.169867 1.601288 -0.000248 0.0
1.396694 1.440907 -0.001131 0.0
2.571148 1.170073 0.000447 0.0
3.431615 0.573940 -0.003508 0.0
1.918159 0.031607 0.002901 0.0
1.950724 1.308017 0.000953 0.0
1.179088 1.411192 -0.000390 0.0
2.637202 0.586045 0.001297 0.0
1.336331 0.632489 0.000688 0.0
2.980724 1.229678 0.003320 0.0
3.254822 1.202925 -0.001582 0.0
2.435486 0.571796 -0.000223 0.0
2.148637 0.874674 -0.000816 0.0
0.229704 0.376372 0.002747 0.0
3.031481 0.062781 -0.002011 0.0
0.071385 1.452746 -0.001098 0.0
1.352019 0.562152 -0.000292 0.0
3.413393 0.834319 -0.001499 0.0
0.246602 0.931063 -0.003516 0.0
1.153112 1.500131 -0.000466 0.0
3.358297 1.634930 -0.001864 0.0
2.255853 0.768094 -0.000137 0.0
1.307156 0.124076 -0.000514 0.0
3.332102 1.988432 0.002078 0.0
1.214268 0.090504 0.003927 0.0
3.665654 0.113652 0.002219 0.0
1.640789 1.934187 -0.002041 0.0
3.758671 1.312425 0.004207 0.0
0.509164 0.276015 -0.002653 0.0
0.065254 1.051346 -0.000315 0.0
1.207154 1.189694 0.000248 0.0
0.939967 1.092010 -0.001865 0.0
2.384679 1.026776 0.000328 0.0
2.703911 0.444093 -0.000888 0.0
2.345274 1.161211 -0.001818 0.0
0.835070 0.301367 0.003741 0.0
1.981276 0.161004 0.000259 0.0
0.377367 1.686342 0.001271 0.0
0.194227 1.649048 -0.002312 0.0
2.431773 1.707605 0.002084 0.0
1.617964 1.390125 -0.000703 0.0
3.805101 1.932435 0.000198 0.0
2.219905 0.142935 -0.003256 0.0
0.793870 1.914303 -0.001370 0.0
1.072960 1.499353 0.001961 0.0
3.742020 0.970316 0.004224 0.0
3.452323 0.662573 0.000223 0.0
3.287948 1.601383 0.004636 0.0
0.882900 1.307115 -0.002767 0.0
0.144555 1.657412 -0.001871 0.0
2.439559 0.876130 -0.001105 0.0
4.178175 1.670242 -0.001105 0.0
0.817043 0.380927 0.002052 0.0
0.777796 1.303296 0.000129 0.0
3.038757 1.093105 0.000006 0.0
3.187787 1.420930 0.001074 0.0
3.240556 1.128578 -0.001530 0.0
3.392885 0.351269 -0.000584 0.0
1.599186 1.935253 0.005157 0.0
2.457803 0.689710 0.002703 0.0
4.400597 0.771312 -0.001441 0.0
4.344811 0.922078 0.003077 0.0
4.506447 0.849394 0.003397 0.0
2.913160 1.465171 -0.000923 0.0
3.759912 0.222072 -0.003379 0.0
2.054039 0.537339 0.000836 0.0
2.217588 1.950258 -0.000646 0.0
1.840101 1.418758 -0.002598 0.0
1.861269 1.476364 -0.000216 0.0
3.064503 0.758239 0.001199 0.0
4.490937 1.097590 0.000513 0.0
1.660311 1.600853 -0.000840 0.0
0.433147 0.006367 0.001548 0.0
3.717000 1.145356 0.000024 0.0
1.332275 0.860005 0.000312 0.0
4.453756 1.099866 0.000593 0.0
3.008909 0.125092 -0.001624 0.0
1.409736 1.976299 -0.002653 0.0
0.561667 1.691498 -0.003765 0.0
2.992637 0.781291 -0.002008 0.0
1.243320 0.767500 0.001794 0.0
2.894876 0.321113 -0.001721 0.0
4.097817 0.491327 0.000075 0.0
2.768110 1.392641 -0.001065 0.0
1.655151 1.513230 0.001358 0.0
1.940564 0.516720 0.001924 0.0
3.199632 1.425010 -0.002492 0.0
1.730963 1.552108 0.000783 0.0
2.533899 1.873393 -0.002461 0.0
0.381050 0.726845 -0.002987 0.0
0.542481 1.907022 0.002355 0.0
1.653295 0.719674 0.001337 0.0
2.671394 1.546173 -0.006303 0.0
0.237303 0.985294 0.002299 0.0
2.053986 0.837492 0.000956 0.0
2.944851 1.573296 0.000678 0.0
4.040451 1.083934 -0.001566 0.0
2.636054 0.254803 0.000038 0.0
4.510539 0.241489 -0.004646 0.0
1.298105 1.601024 -0.000523 0.0
0.789431 1.809814 0.002630 0.0
2.615130 2.005790 0.000823 0.0
4.582400 0.091842 -0.003339 0.0
1.363562 1.025338 -0.004896 0.0
3.603925 1.677726 -0.001616 0.0
4.364095 1.696328 0.004653 0.0
0.672113 1.966785 0.002934 0.0
4.011540 0.907366 -0.001045 0.0
0.610375 0.237586 0.001764 0.0
1.342995 1.997109 -0.000184 0.0
3.731662 0.572883 0.000513 0.0
0.507313 0.440837 0.000091 0.0
3.623705 1.310532 0.001873 0.0
4.330122 1.364155 0.002664 0.0
3.253844 1.174194 0.002934 0.0
3.229034 1.119773 -0.000351 0.0
4.543975 2.011522 0.003532 0.0
2.886906 0.938503 0.001035 0.0
1.392627 1.407440 -0.001977 0.0
3.660166 0.285483 -0.002982 0.0
3.876430 1.715511 -0.001100 0.0
4.396227 1.122179 -0.003246 0.0
1.513258 1.647233 -0.002477 0.0
1.669000 1.546757 -0.000636 0.0
4.184691 0.243285 0.004092 0.0
2.302114 1.771073 0.000980 0.0
1.400649 0.893431 0.003805 0.0
3.180403 1.505706 0.003717 0.0
3.533641 1.953261 -0.000512 0.0
3.158135 0.656042 -0.003280 0.0
0.142649 1.996665 0.001146 0.0
2.166303 1.246427 -0.001411 0.0
4.102108 1.758986 -0.002853 0.0
2.188065 0.129326 -0.001426 0.0
3.271106 1.790642 -0.000543 0.0
0.948224 1.977591 0.003753 0.0
2.821251 2.024875 0.001603 0.0
0.220211 0.163537 0.000283 0.0
4.331370 1.270064 0.000368 0.0
3.562961 0.390480 -0.001841 0.0
1.018712 0.081194 0.005171 0.0
1.952327 0.038488 -0.000707 0.0
2.688775 0.749392 -0.003038 0.0
3.827031 0.153107 -0.001728 0.0
3.300389 0.526184 -0.000668 0.0
1.572117 1.864697 -0.002974 0.0
0.182984 0.686068 -0.000064 0.0
0.106650 1.878650 0.002781 0.0
4.298717 0.904415 0.000218 0.0
3.893556 1.123921 -0.002881 0.0
3.276043 0.067773 -0.004449 0.0
3.826767 0.510045 -0.000856 0.0
2.494248 1.082011 0.003213 0.0
1.091122 0.473710 0.003898 0.0
0.577354 0.031444 -0.005842 0.0
0.793269 0.614438 -0.001128 0.0
3.448179 0.920178 0.003587 0.0
3.137650 2.032427 -0.003195 0.0
0.398611 1.780144 -0.001885 0.0
0.444580 0.531593 -0.000601 0.0
1.138391 0.378481 0.002263 0.0
2.819470 1.887970 -0.003042 0.0
1.633466 0.962007 -0.000075 0.0
2.203566 1.836454 0.000147 0.0
0.015579 0.502362 0.000059 0.0
1.352059 0.395374 0.003718 0.0
3.323030 0.771760 -0.004678 0.0
0.524941 0.526064 0.001391 0.0
1.210578 1.989381 0.000290 0.0
2.827576 0.940871 -0.005005 0.0
0.924083 0.297556 0.000427 0.0
1.699782 1.894943 -0.000606 0.0
2.219457 1.551438 0.001627 0.0
2.984392 0.597779 -0.002722 0.0
2.900304 0.801643 0.002977 0.0
3.420555 1.633575 -0.000721 0.0
0.641140 1.910641 0.002174 0.0
1.579031 1.134710 0.001578 0.0
0.514677 1.153370 -0.000526 0.0
0.429149 1.836540 0.000764 0.0
0.585222 1.124229 -0.002086 0.0
3.370542 0.759568 -0.000643 0.0
4.303734 1.415961 -0.001112 0.0
2.376141 1.589858 0.000773 0.0
1.344393 0.738993 0.005362 0.0
1.375725 1.421376 0.000991 0.0
0.947689 1.338133 -0.001464 0.0
0.567861 1.772869 0.000738 0.0
2.492032 1.162825 0.003906 0.0
2.212446 1.570668 0.002177 0.0
2.187429 0.392308 0.004023 0.0
1.766635 0.224875 0.002681 0.0
1.809417 1.310937 -0.000778 0.0
1.058984 1.009331 0.001970 0.0
2.857190 0.175413 0.006273 0.0
2.953152 2.004749 -0.000979 0.0
3.847818 1.866755 -0.002220 0.0
1.980309 0.253725 -0.003082 0.0
1.209647 1.577453 0.002083 0.0
4.440347 1.806454 -0.001143 0.0
0.354261 0.031160 0.000525 0.0
4.520424 0.779105 0.001824 0.0
2.629147 1.325101 0.002816 0.0
0.106746 0.671832 -0.000104 0.0
1.217453 1.283325 -0.001900 0.0
4.178261 0.821732 -0.003723 0.0
2.450349 1.784622 -0.001963 0.0
3.450913 0.361178 0.001399 0.0
3.062474 1.126899 -0.004025 0.0
2.905717 1.533062 0.004060 0.0
3.034599 1.726178 -0.001011 0.0
0.313951 0.533242 -0.003147 0.0
2.520014 1.803378 -0.001461 0.0
2.260229 1.053350 -0.000426 0.0
2.046548 0.173175 -0.000005 0.0
0.407048 1.844861 0.001355 0.0
4.519425 1.559188 -0.001488 0.0
3.201534 1.163020 0.001429 0.0
1.606346 0.154580 0.000596 0.0
1.771227 0.807940 0.003199 0.0
0.267752 1.508359 -0.001892 0.0
0.228593 1.181413 0.001437 0.0
2.240142 1.684911 0.002561 0.0
3.373769 1.320665 -0.000783 0.0
0.683932 0.337414 -0.005551 0.0
0.734746 0.681880 0.000178 0.0
0.537230 0.166634 -0.000037 0.0
2.629290 0.608132 0.000328 0.0
1.309161 1.439752 0.001922 0.0
2.102137 1.787682 0.000920 0.0
0.688334 0.571907 0.001531 0.0
3.243835 1.567850 0.005963 0.0
1.172806 1.116622 -0.000094 0.0
1.412278 1.449204 0.003204 0.0
4.092169 0.755269 0.002809 0.0
3.504177 0.704366 0.004578 0.0
2.731313 1.405469 0.002992 0.0
1.983662 1.797589 0.000061 0.0
2.149836 0.294743 0.000632 0.0
4.357455 1.246780 0.002705 0.0
2.787080 1.905534 0.000762 0.0
2.858983 1.078039 0.000766 0.0
2.045174 1.143206 0.002239 0.0
2.406583 1.286754 0.003361 0.0
1.265075 1.615886 -0.000699 0.0
4.541839 1.716064 -0.001524 0.0
1.108181 0.086351 0.000571 0.0
3.100085 0.877532 -0.000058 0.0
1.844853 1.662863 -0.000472 0.0
2.354391 1.221331 0.000241 0.0
1.207895 1.771005 0.001383 0.0
2.984498 0.336134 0.002386 0.0
2.429831 1.340328 -0.000500 0.0
0.377423 1.428267 0.000674 0.0
3.340486 1.028275 -0.000338 0.0
1.752188 0.369712 0.003347 0.0
2.378523 0.593062 -0.000010 0.0
1.617185 0.458481 0.000605 0.0
1.714824 1.965144 -0.000676 0.0
2.151068 0.036936 0.003374 0.0
2.992389 0.682049 0.000894 0.0
2.411334 0.482877 -0.003205 0.0
1.739962 0.626830 -0.001856 0.0
1.218713 2.042777 -0.003566 0.0
0.922929 1.365455 -0.003093 0.0
2.420933 0.783079 -0.001924 0.0
2.661741 0.272671 0.000207 0.0
1.050070 0.904422 0.002251 0.0
0.754077 0.910693 -0.002025 0.0
0.139077 0.897210 -0.001851 0.0
3.871155 1.169190 -0.001981 0.0
0.633859 1.124107 -0.000172 0.0
0.618890 1.478259 -0.000914 0.0
1.862670 1.846480 0.000148 0.0
0.196547 0.058854 -0.005213 0.0
1.148277 0.528051 -0.002292 0.0
2.941252 1.223420 -0.001096 0.0
3.249044 1.278000 0.001709 0.0
3.431724 0.123087 0.002468 0.0
1.620524 1.950109 -0.002917 0.0
3.168791 1.244748 0.004978 0.0
3.901754 0.790080 -0.001968 0.0
0.740984 0.540619 -0.002233 0.0
1.176603 1.387404 0.000439 0.0
1.767278 1.650604 -0.000439 0.0
0.808569 1.958830 0.004185 0.0
2.645897 1.361884 0.000715 0.0
3.798580 0.548138 -0.002651 0.0
3.841871 1.259599 -0.001603 0.0
2.304450 2.032056 -0.001324 0.0
3.971460 1.408372 -0.001238 0.0
0.898414 1.146142 -0.003827 0.0
4.121760 1.492593 -0.000191 0.0
2.660966 0.536003 -0.004099 0.0
0.703610 0.320256 -0.001960 0.0
2.386019 1.179535 0.001261 0.0
1.137471 0.753657 0.003534 0.0
0.607563 0.691581 -0.001722 0.0
2.353382 0.608694 0.002893 0.0
3.248893 1.002908 -0.002038 0.0
2.401668 1.381168 -0.000166 0.0
1.116201 1.179710 0.005617 0.0
1.743456 1.666323 -0.002968 0.0
2.302147 0.230997 -0.000521 0.0
0.357809 1.390629 -0.000595 0.0
1.704596 1.315389 0.000830 0.0
0.162225 0.350301 0.002261 0.0
0.258685 2.043429 -0.000007 0.0
0.085565 1.730015 0.001922 0.0
4.488399 1.189453 -0.001769 0.0
3.223766 1.176723 -0.002467 0.0
3.296259 1.870433 0.000579 0.0
1.995993 1.602652 0.001749 0.0
4.577506 1.863072 -0.001135 0.0
2.253105 0.653673 -0.000833 0.0
3.147804 1.256079 -0.000592 0.0
4.550939 1.821953 0.001316 0.0
2.721817 0.954540 0.004590 0.0
3.326662 0.994514 -0.000337 0.0
2.827340 0.447806 0.001162 0.0
1.519844 1.363910 0.000051 0.0
0.504558 0.044519 -0.001432 0.0
3.661788 1.857130 0.000141 0.0
3.883180 0.315745 0.003642 0.0
0.334117 1.648572 0.001654 0.0
0.451611 0.267808 -0.000581 0.0
1.738563 1.462073 -0.002869 0.0
4.409477 1.079462 -0.003332 0.0
2.196387 1.663645 -0.000318 0.0
0.310083 0.869617 -0.006820 0.0
3.848588 0.398446 -0.003130 0.0
2.138316 0.898363 0.003307 0.0
1.564934 1.233783 0.004427 0.0
3.104557 1.747745 0.003781 0.0
1.754542 0.030485 0.001224 0.0
2.543945 0.424463 -0.000219 0.0
2.766465 1.077631 -0.001752 0.0
2.530311 0.991811 -0.002039 0.0
0.510701 1.292018 -0.000031 0.0
3.191855 0.281128 -0.000506 0.0
2.032885 0.723454 0.001796 0.0
3.829360 0.020635 0.002648 0.0
0.305970 1.196355 0.001666 0.0
4.306598 0.675215 0.000497 0.0
1.193498 1.969188 0.000035 0.0
4.391914 1.966919 -0.001329 0.0
0.836513 1.313984 -0.006342 0.0
3.102288 0.329365 -0.001438 0.0
4.397068 1.784057 0.001491 0.0
3.522956 0.722806 0.002204 0.0
3.884235 1.397963 0.004939 0.0
4.585356 0.470382 -0.001659 0.0
0.028838 0.465016 -0.000029 0.0
4.143388 1.829921 -0.003369 0.0
1.030414 0.572093 0.000460 0.0
3.893140 1.402448 -0.003239 0.0
3.131117 1.168978 0.001787 0.0
2.630167 0.980283 0.001674 0.0
3.130002 0.451476 0.003017 0.0
1.178351 1.620194 -0.003294 0.0
2.849924 1.841317 -0.002598 0.0
3.979449 0.884770 -0.002806 0.0
3.126431 0.675527 0.000415 0.0
2.865135 1.374185 0.001041 0.0
0.144699 1.539224 -0.005237 0.0
4.067759 1.207824 0.001219 0.0
4.455107 1.888542 0.001903 0.0
1.777144 1.274363 0.000076 0.0
2.274917 1.866609 0.003006 0.0
1.493651 0.689110 -0.005149 0.0
0.073335 0.344042 -0.002534 0.0
1.166552 1.020524 -0.001261 0.0
1.099109 1.465339 -0.001441 0.0
1.183398 1.008193 0.001013 0.0
1.284354 1.185609 0.004372 0.0
0.164527 1.673058 0.000689 0.0
1.596806 1.439308 -0.004206 0.0
0.713687 1.346013 0.002561 0.0
3.670693 1.135093 0.001191 0.0
3.911902 1.536813 0.000838 0.0
3.866344 1.652935 -0.001951 0.0
2.920069 0.069700 -0.000231 0.0
2.787018 0.253751 -0.000123 0.0
0.890779 0.014457 0.004977 0.0
4.220423 1.706374 -0.000413 0.0
4.521707 0.356008 0.004408 0.0
0.169924 1.285187 0.000369 0.0
0.494430 0.698960 0.000719 0.0
1.657009 0.345862 0.004529 0.0
0.559855 1.666638 -0.001388 0.0
2.773600 0.402886 0.000205 0.0
2.028853 0.365102 0.002141 0.0
0.248481 0.624014 0.004903 0.0
4.588043 1.119900 0.003488 0.0
0.880658 0.474800 0.000921 0.0
2.235375 0.659289 0.003912 0.0
3.097945 1.613618 -0.000783 0.0
3.883740 1.701483 -0.000276 0.0
1.154567 1.222517 -0.001660 0.0
0.390071 1.363537 -0.001446 0.0
0.392023 1.123626 0.000338 0.0
1.000923 1.891138 -0.002963 0.0
3.107802 0.416110 -0.003761 0.0
2.070009 0.441061 -0.001919 0.0
4.300055 0.445984 0.005896 0.0
3.256499 1.336472 -0.000874 0.0
4.084499 0.751150 -0.001861 0.0
1.264826 1.080316 0.001538 0.0
0.757864 1.754992 0.002207 0.0
0.123363 0.627396 0.000752 0.0
4.040509 1.160897 -0.004257 0.0
1.099218 0.133136 0.004598 0.0
1.209427 1.395509 -0.001785 0.0
2.213344 0.265448 0.002629 0.0
1.676027 0.627790 -0.000189 0.0
2.581782 1.268755 0.001435 0.0
0.935445 1.393927 -0.003589 0.0
1.937132 0.784118 -0.005126 0.0
3.150723 1.791154 -0.006044 0.0
2.036873 1.918843 0.000717 0.0
3.228034 0.820622 0.005818 0.0
2.989087 0.628426 0.001443 0.0
1.370178 1.501953 0.000419 0.0
0.370945 1.100093 0.002277 0.0
1.026081 1.555472 -0.001114 0.0
1.749511 1.608029 -0.000317 0.0
3.622806 0.043907 -0.001795 0.0
4.306917 1.617793 -0.002656 0.0
4.093712 1.064829 0.001145 0.0
1.415229 0.482108 -0.001664 0.0
4.108340 1.379467 -0.000751 0.0
2.775496 2.032964 0.003121 0.0
3.281198 1.270032 -0.000813 0.0
4.563833 2.017554 -0.002732 0.0
0.601417 0.644102 0.000958 0.0
0.439788 1.689527 0.003126 0.0
0.511036 0.096648 0.002596 0.0
2.741155 0.389110 -0.000845 0.0
4.598559 0.435283 -0.003144 0.0
3.758627 0.534688 -0.002801 0.0
1.866466 0.788840 -0.001213 0.0
0.389218 1.079239 0.000510 0.0
2.899797 0.507473 0.001005 0.0
0.409197 0.146864 -0.002146 0.0
2.851522 0.544468 0.002837 0.0
3.781976 1.583224 -0.001379 0.0
1.392651 1.520739 0.000965 0.0
1.564492 1.040409 -0.004826 0.0
2.958814 1.593354 0.000959 0.0
1.659660 1.295060 -0.000145 0.0
1.640626 0.443939 -0.000827 0.0
1.511021 0.856231 -0.001609 0.0
1.081085 1.562168 -0.000891 0.0
0.014735 1.767687 -0.004595 0.0
1.750666 1.190667 0.000426 0.0
4.184789 1.695154 0.001228 0.0
4.278302 1.897298 -0.002434 0.0
1.682730 1.265363 -0.002417 0.0
1.539710 1.813793 -0.002223 0.0
3.387158 1.086539 0.001874 0.0
1.860270 0.123416 0.000014 0.0
3.139456 1.360413 0.000736 0.0
3.477844 0.371506 -0.001692 0.0
3.792127 1.199132 -0.003290 0.0
2.704235 1.298793 0.001454 0.0
1.142654 1.669692 0.005028 0.0
3.263566 0.140094 0.003974 0.0
3.560912 1.958740 -0.001850 0.0
4.306795 0.795640 -0.000977 0.0
4.265244 0.580241 -0.002755 0.0
3.622606 0.968927 -0.002079 0.0
2.530354 0.263572 -0.001518 0.0
2.595462 0.143720 -0.001590 0.0
3.993271 1.861615 0.000144 0.0
2.103679 0.663363 0.001168 0.0
2.036383 0.830423 0.000471 0.0
3.305826 1.373162 -0.002517 0.0
3.206170 1.044805 0.001072 0.0
2.051411 1.476638 -0.001739 0.0
2.536144 0.472744 -0.001375 0.0
3.333943 0.172547 0.001913 0.0
3.768106 0.031394 -0.001675 0.0
0.094663 0.887472 0.001989 0.0
4.113526 1.962822 -0.000967 0.0
1.640235 0.981564 -0.002098 0.0
2.525743 1.949220 -0.001906 0.0
4.103484 0.910595 -0.002699 0.0
2.508410 1.246247 -0.004112 0.0
4.053903 1.912374 -0.000090 0.0
0.652040 0.708258 -0.001235 0.0
4.372256 0.093591 -0.003604 0.0
4.138670 1.406337 0.000643 0.0
2.001651 0.109048 -0.002371 0.0
0.101290 0.695158 0.001443 0.0
3.832484 1.579044 -0.000649 0.0
0.682381 0.204098 0.002935 0.0
2.034073 2.038280 -0.001578 0.0
3.891752 1.636626 0.003543 0.0
1.704756 1.759935 -0.000270 0.0
3.165892 1.566576 0.001327 0.0
3.781156 1.773705 0.002394 0.0
1.465845 0.751550 -0.002926 0.0
3.519274 0.777635 0.000275 0.0
2.905732 0.601501 0.000993 0.0
1.924324 1.691284 0.001451 0.0
0.994944 0.506467 -0.003746 0.0
2.107448 1.421393 -0.000415 0.0
4.501530 1.398387 -0.004593 0.0
3.957979 1.402156 0.002717 0.0
2.274914 0.333494 -0.004194 0.0
0.664925 1.111184 0.003904 0.0
2.465565 1.768208 -0.000021 0.0
2.860944 0.161951 0.000378 0.0
1.659467 1.305407 0.003950 0.0
2.689059 1.465843 0.000272 0.0
1.646419 0.250606 0.001069 0.0
2.410736 1.011535 -0.003867 0.0
1.147614 0.769394 0.000338 0.0
2.030565 0.498069 0.005287 0.0
0.551186 0.716609 0.003882 0.0
1.427141 0.078351 0.002191 0.0
1.649738 0.028501 -0.000873 0.0
1.679819 0.928793 -0.001867 0.0
1.124520 0.680434 0.005417 0.0
0.794658 1.828446 -0.002734 0.0
4.212591 1.252525 -0.000496 0.0
1.608627 1.772168 0.001601 0.0
2.979162 0.316261 0.001671 0.0
2.118413 0.923419 0.001368 0.0
3.198448 1.130823 0.003964 0.0
1.669525 0.234340 -0.002712 0.0
3.392992 0.259659 -0.001871 0.0
2.793208 1.025076 -0.001881 0.0
4.304972 0.693643 0.003001 0.0
2.442767 0.211830 -0.001413 0.0
2.910660 0.848108 -0.000624 0.0
0.960133 1.915738 -0.003647 0.0
4.548821 1.671170 0.000094 0.0
4.459603 1.801356 0.002893 0.0
2.643975 0.993981 -0.002630 0.0
0.145595 2.030331 0.001377 0.0
1.729395 1.022461 0.000978 0.0
2.721010 0.060662 0.000685 0.0
3.934033 0.833721 -0.001727 0.0
1.449353 0.959359 0.002088 0.0
2.712920 1.918280 0.000356 0.0
4.204360 1.668247 0.001127 0.0
0.573841 0.352685 -0.000781 0.0
2.596456 0.191283 -0.002633 0.0
1.981443 2.016124 0.004129 0.0
2.571408 1.002904 0.004931 0.0
1.186885 0.669137 -0.002617 0.0
1.985701 0.160074 0.002182 0.0
2.917878 1.063726 0.002282 0.0
3.041177 0.665243 -0.003467 0.0
3.400102 0.639579 0.002231 0.0
4.205789 0.739431 0.000896 0.0
3.162234 0.685539 -0.001216 0.0
2.417994 1.087290 -0.000991 0.0
2.503587 0.217969 0.004507 0.0
4.247512 1.798388 -0.005203 0.0
3.432651 1.103701 -0.001639 0.0
0.447512 1.240656 0.000857 0.0
4.151589 0.741484 -0.001647 0.0
2.411355 1.030232 0.000069 0.0
1.676509 0.911136 0.000025 0.0
2.967697 0.745941 -0.000293 0.0
2.480260 1.249367 -0.000956 0.0
2.331967 1.081082 -0.001566 0.0
1.864661 1.572016 -0.002901 0.0
3.255673 0.619728 -0.002533 0.0
1.246089 0.253447 -0.002089 0.0
4.530675 0.755677 -0.001585 0.0
0.472230 1.221535 -0.000939 0.0
2.707743 0.379878 -0.000857 0.0
0.156055 1.715480 -0.001409 0.0
2.558472 1.200629 0.003019 0.0
1.342532 1.429438 -0.002488 0.0
2.546005 0.974177 0.000185 0.0
3.767410 1.113959 0.000466 0.0
4.416549 0.960943 -0.002981 0.0
4.268348 0.731034 0.001678 0.0
2.759433 1.331563 -0.001594 0.0
3.907247 0.827722 -0.000217 0.0
0.909245 0.366450 -0.001417 0.0
0.848036 0.106941 0.003156 0.0
3.032434 0.720092 0.003342 0.0
2.033834 0.323009 0.005042 0.0
0.369378 1.889430 0.002411 0.0
1.579149 0.736698 -0.004866 0.0
0.579716 1.991031 0.000467 0.0
2.652471 1.738743 -0.000644 0.0
1.384254 1.488920 0.003909 0.0
0.245938 0.767234 -0.001295 0.0
2.053975 1.268295 -0.002222 0.0
2.796901 0.584618 0.002715 0.0
0.772221 1.466573 -0.002208 0.0
2.821663 1.816861 -0.000597 0.0
2.705050 1.401192 0.002976 0.0
3.695452 0.870704 -0.000603 0.0
1.065660 0.516253 -0.001009 0.0
3.206386 0.776689 0.005436 0.0
3.870518 1.490982 0.000551 0.0
2.052358 0.853594 -0.003351 0.0
1.903908 1.230112 0.003001 0.0
0.309826 1.843084 0.003316 0.0
0.430213 0.521709 0.000435 0.0
4.169663 0.383415 0.004428 0.0
2.155995 0.773588 0.003596 0.0
0.588595 0.979162 -0.000408 0.0
2.735662 1.489217 -0.000372 0.0
4.495765 1.809080 -0.000927 0.0
3.080595 1.836311 0.000207 0.0
3.684943 0.556790 0.000891 0.0
-0.001382 0.401570 -0.004317 0.0
3.339064 1.750676 0.001417 0.0
1.772568 1.538427 0.000957 0.0
0.668515 1.440613 -0.001684 0.0
2.013028 0.664332 -0.005552 0.0
0.369699 1.506829 -0.000141 0.0
0.484199 1.618017 -0.003147 0.0
2.738284 1.133013 -0.003091 0.0
0.183051 1.689014 -0.002299 0.0
0.422158 1.094611 -0.001298 0.0
2.587857 0.283074 -0.003351 0.0
0.723741 0.156086 0.002427 0.0
0.088147 0.044951 -0.000938 0.0
2.374777 1.886853 -0.000389 0.0
3.098322 0.688410 0.000567 0.0
2.682677 0.377243 0.000732 0.0
2.792202 0.977974 -0.003233 0.0
0.288469 1.751194 -0.000124 0.0
1.691653 1.852293 0.001333 0.0
3.164571 1.756226 0.002500 0.0
3.865702 1.249474 0.000680 0.0
2.674667 1.887123 -0.001395 0.0
3.690527 1.164074 -0.003505 0.0
1.441058 0.315887 0.001005 0.0
0.637758 1.561845 -0.004543 0.0
2.485489 1.432733 0.002915 0.0
1.964353 0.003865 0.000925 0.0
3.011373 1.816283 -0.001775 0.0
0.267148 1.808423 0.000976 0.0
3.538989 1.428713 -0.000517 0.0
0.601013 0.985396 -0.002770 0.0
3.297035 1.832733 -0.001795 0.0
1.553838 0.813133 -0.000028 0.0
1.388130 0.782289 0.004944 0.0
0.861609 1.914760 0.000142 0.0
3.382847 0.442931 0.007016 0.0
3.217817 0.952135 0.004842 0.0
4.362520 1.031849 0.000042 0.0
0.030125 1.732880 -0.001497 0.0
2.474035 1.201931 0.005040 0.0
3.993863 1.798741 0.002613 0.0
1.693513 0.549806 0.000997 0.0
0.198993 1.820238 0.000153 0.0
3.847669 1.682958 -0.003695 0.0
3.976188 0.795476 -0.001726 0.0
4.113728 0.061078 0.000153 0.0
1.236223 0.568060 0.000830 0.0
0.163562 0.774819 0.003956 0.0
2.334797 2.043756 -0.000621 0.0
4.305633 1.019102 0.004515 0.0
1.145510 0.386487 -0.003379 0.0
3.851482 1.465965 -0.002044 0.0
0.043900 1.368472 -0.003322 0.0
3.725521 1.677263 -0.000760 0.0
1.577622 0.934831 0.003463 0.0
1.000166 0.714452 0.003181 0.0
3.951620 1.538729 -0.002326 0.0
2.047042 0.551928 0.006399 0.0
3.166036 0.536388 -0.002503 0.0
0.411291 1.399428 -0.001088 0.0
3.860268 0.600641 -0.001979 0.0
3.137246 0.764408 -0.002449 0.0
1.609487 0.732467 0.000847 0.0
2.016148 0.217358 -0.002295 0.0
2.555222 1.435891 -0.003609 0.0
2.157391 0.377635 -0.001328 0.0
0.520176 1.379197 -0.004223 0.0
4.143675 0.807327 0.000535 0.0
0.026742 1.949864 -0.001822 0.0
1.752404 1.755295 0.001659 0.0
2.746798 1.289361 -0.000013 0.0
2.593117 0.543873 0.004876 0.0
3.279035 1.873821 0.000128 0.0
3.421463 0.199386 0.000248 0.0
1.764233 0.742060 -0.000207 0.0
1.676374 0.667735 -0.002033 0.0
1.301388 0.578455 0.003751 0.0
0.165018 0.615089 -0.000286 0.0
1.601692 1.314790 -0.001408 0.0
3.285560 1.587796 -0.002260 0.0
3.757000 1.014161 -0.005474 0.0
2.425674 0.605802 -0.003336 0.0
0.996416 1.945400 -0.002340 0.0
2.280800 1.219040 0.001605 0.0
1.252142 0.370947 -0.001585 0.0
2.233644 0.929082 0.002458 0.0
2.581863 0.149713 -0.000631 0.0
0.354003 1.119014 0.002088 0.0
1.941154 1.323242 -0.000248 0.0
3.175410 0.395296 0.002111 0.0
0.468223 1.372952 -0.000140 0.0
4.421671 0.106348 0.002888 0.0
1.904665 1.302004 -0.002477 0.0
1.375068 1.445216 -0.002670 0.0
1.737925 1.248577 0.003613 0.0
2.019708 0.006274 0.002566 0.0
2.701252 0.578832 0.001181 0.0
4.271111 0.190941 0.001278 0.0
1.859120 1.779740 -0.001262 0.0
0.046940 0.590943 -0.002298 0.0
0.113515 1.004279 -0.000760 0.0
1.189743 1.074032 0.001562 0.0
1.489717 0.802784 0.001393 0.0
4.057737 1.532954 -0.000128 0.0
1.141795 0.874511 0.000435 0.0
2.152996 1.504145 -0.003395 0.0
2.993942 1.213154 0.000776 0.0
1.664316 0.727343 0.002718 0.0
1.202375 0.483632 -0.001471 0.0
0.693867 1.460200 0.002055 0.0
0.870430 0.620089 -0.002702 0.0
3.324970 1.402093 0.000131 0.0
4.550091 1.658140 -0.003287 0.0
4.463999 1.402719 -0.002163 0.0
4.236353 0.066648 0.002697 0.0
4.357675 1.591154 -0.000989 0.0
3.965720 0.372222 0.000238 0.0
3.787579 1.398522 -0.000011 0.0
3.627424 1.472322 -0.002409 0.0
0.686140 0.956909 0.001093 0.0
3.490450 1.162592 -0.001591 0.0
1.862453 1.386399 0.000385 0.0
0.684877 1.631658 0.002579 0.0
1.355359 1.246296 -0.000056 0.0
3.623286 0.382178 0.003280 0.0
0.325264 0.262777 0.001366 0.0
3.897502 1.799731 0.004133 0.0
1.495840 0.292756 0.002645 0.0
2.684355 0.290568 0.001296 0.0
3.255559 1.902676 -0.001851 0.0
