0.56179218 1.46477164 0.00183041 0.00000000
2.02389306 0.86589569 0.00320395 0.00000000
4.07468502 0.98093944 -0.00158612 0.00000000
4.20549666 1.23491188 -0.00022759 0.00000000
2.51139261 0.62146665 -0.00052038 0.00000000
4.05780515 0.55817169 -0.00304342 0.00000000
1.56065344 1.20035108 -0.00182297 0.00000000
1.52082969 0.84811608 0.00038443 0.00000000
0.41129352 1.70527285 -0.00001602 0.00000000
3.53798162 1.59164649 -0.00172879 0.00000000
1.45492176 0.20975412 -0.00439384 0.00000000
3.63305399 0.43367750 0.00482947 0.00000000
2.95122231 1.74126378 -0.00026651 0.00000000
1.73263555 0.07828987 -0.00094686 0.00000000
2.53610166 0.24658308 -0.00394973 0.00000000
3.46756247 1.78001698 -0.00235668 0.00000000
1.64311875 1.54814081 0.00209870 0.00000000
0.56376984 0.02627378 0.00222402 0.00000000
1.79923925 0.55265826 -0.00644363 0.00000000
1.58602257 0.76625753 0.00563565 0.00000000
0.41278166 0.26060641 0.00168780 0.00000000
1.08865683 1.43363165 0.00003670 0.00000000
3.32392651 1.53356996 0.00016134 0.00000000
1.37430471 0.89666738 0.00125497 0.00000000
1.44628508 0.90335406 0.00045440 0.00000000
3.94309798 0.48863813 0.00233943 0.00000000
3.38273938 0.43899722 0.00022673 0.00000000
0.51053705 1.07125683 0.00097918 0.00000000
2.42447692 0.02674851 0.00453529 0.00000000
0.66104232 0.31612414 -0.00256913 0.00000000
0.86615040 0.29940908 0.00307879 0.00000000
2.47363193 1.45256833 0.00286707 0.00000000
0.43229408 1.60595964 0.00122879 0.00000000
1.77200718 0.19392642 0.00066510 0.00000000
1.26118991 0.62569977 0.00211682 0.00000000
0.60679941 1.06690331 0.00004714 0.00000000
1.47492541 0.07500635 -0.00333513 0.00000000
0.73745077 0.66497609 0.00042141 0.00000000
3.86784712 0.01929474 -0.00002781 0.00000000
0.94905573 0.91899204 0.00280175 0.00000000
2.01143440 0.36400312 -0.00259726 0.00000000
2.14738359 0.79139706 0.00119533 0.00000000
1.48769801 0.56064565 0.00238113 0.00000000
0.43793941 1.54671560 -0.00147239 0.00000000
1.63413166 0.63881048 -0.00309288 0.00000000
4.18973262 0.96132072 0.00261662 0.00000000
1.86026808 0.24769707 -0.00238781 0.00000000
1.98687404 1.46868980 -0.00136089 0.00000000
0.57812313 0.01850153 0.00325126 0.00000000
3.70604916 0.50445003 -0.00170413 0.00000000
1.78585039 0.86741835 -0.00312949 0.00000000
2.14926272 1.56734548 -0.00234419 0.00000000
3.58832756 0.02924963 -0.00634637 0.00000000
3.70824528 1.74194779 0.00262895 0.00000000
2.74699633 0.77386875 -0.00064123 0.00000000
4.07603769 1.72861060 -0.00285584 0.00000000
3.33788390 1.17793817 0.00541103 0.00000000
2.97236092 0.01325761 0.00184833 0.00000000
2.45774978 1.04303202 0.00293083 0.00000000
0.01886237 0.61885498 0.00123849 0.00000000
3.74274584 0.72072097 -0.00221396 0.00000000
4.08135160 1.38046250 -0.00095762 0.00000000
1.07342748 1.81798883 0.00088688 0.00000000
2.78731471 0.27489495 -0.00016405 0.00000000
0.28335730 0.41475503 0.00326030 0.00000000
1.51075215 1.56935189 0.00110049 0.00000000
1.97822086 1.28571735 0.00372022 0.00000000
0.80151595 0.73623280 -0.00295417 0.00000000
1.70181814 0.15325301 -0.00155300 0.00000000
0.49853100 0.17278055 -0.00440036 0.00000000
1.42874191 0.81859199 -0.00111191 0.00000000
0.18514974 0.24909388 0.00167439 0.00000000
0.74841493 1.41870617 -0.00575842 0.00000000
2.46046131 0.21208401 0.00095730 0.00000000
1.93873296 0.24450700 -0.00372526 0.00000000
1.21662583 1.20686798 0.00461886 0.00000000
3.84355625 1.65051346 0.00143375 0.00000000
3.19608912 1.32399053 -0.00066287 0.00000000
1.20482460 0.76116991 -0.00353457 0.00000000
0.87192673 1.46737424 -0.00002549 0.00000000
0.54095004 0.09843951 0.00156705 0.00000000
1.89042645 0.57273097 0.00161465 0.00000000
2.17415637 1.19184314 0.00283518 0.00000000
2.80624985 1.67190127 0.00348952 0.00000000
1.14703684 1.67687153 -0.00312971 0.00000000
1.69937995 0.91219144 -0.00026993 0.00000000
2.44474424 1.78588986 -0.00142103 0.00000000
1.70933680 0.14770341 0.00172404 0.00000000
4.19996217 1.78928903 -0.00325509 0.00000000
1.27171026 0.51789911 -0.00012191 0.00000000
2.97295546 0.67494586 0.00095843 0.00000000
2.21019155 0.99475498 -0.00071280 0.00000000
1.07275948 0.76224400 -0.00011706 0.00000000
2.87030909 1.33524655 0.00221926 0.00000000
2.46244244 0.89341043 0.00244077 0.00000000
0.29313774 0.08901798 0.00025900 0.00000000
0.13649008 1.22611109 0.00231757 0.00000000
0.03836631 0.91929225 -0.00075108 0.00000000
2.73233423 1.13926907 0.00539829 0.00000000
0.37400343 0.57424321 -0.00020558 0.00000000
1.58243678 0.07318045 -0.00407785 0.00000000
2.66942020 1.62099165 0.00244739 0.00000000
0.00040736 1.67026473 -0.00104045 0.00000000
3.92082534 1.74027522 0.00119240 0.00000000
1.41032599 1.26246157 0.00658058 0.00000000
0.26702524 0.21176588 -0.00165489 0.00000000
3.04370714 1.50879102 -0.00028398 0.00000000
2.53460283 1.66320116 -0.00068770 0.00000000
4.13068165 0.44161821 0.00456744 0.00000000
0.13744799 0.16430854 0.00552673 0.00000000
3.99514934 0.97887994 0.00036697 0.00000000
4.21026880 0.77580194 -0.00231381 0.00000000
2.62117069 0.26866664 -0.00092388 0.00000000
2.13691158 0.86565555 -0.00108654 0.00000000
1.24649474 1.31136939 0.00563284 0.00000000
2.44596823 1.06729782 0.00228105 0.00000000
0.12484489 0.26789207 0.00067702 0.00000000
4.08401529 0.29236612 0.00321363 0.00000000
4.06056433 0.79269652 0.00329137 0.00000000
4.21293236 1.04967867 -0.00378819 0.00000000
0.37912073 0.48265122 -0.00168116 0.00000000
2.48545397 1.36663890 0.00220385 0.00000000
0.00617579 1.18010462 0.00119833 0.00000000
3.50216048 1.45861110 -0.00119853 0.00000000
1.14000643 1.27996814 0.00400842 0.00000000
3.68501072 1.05346854 -0.00216439 0.00000000
0.39549540 1.55136966 0.00064031 0.00000000
0.01605977 0.19824288 0.00399327 0.00000000
0.91910139 0.06229379 0.00126277 0.00000000
0.65468772 0.96992111 -0.00112150 0.00000000
1.94659743 1.25684329 0.00368919 0.00000000
2.63252356 0.39679320 0.00049716 0.00000000
0.19700013 0.49215132 -0.00232703 0.00000000
2.34655364 1.11704515 0.00209918 0.00000000
0.77616493 1.67294741 -0.00259920 0.00000000
1.23600832 0.83439560 -0.00198677 0.00000000
3.55735946 0.69631056 -0.00220452 0.00000000
0.75205582 0.89529268 -0.00027970 0.00000000
4.20540372 0.16929278 0.00218434 0.00000000
0.00268956 0.62926319 -0.00228777 0.00000000
0.64382795 1.35064945 -0.00041548 0.00000000
0.17126028 0.00085484 -0.00149181 0.00000000
0.02745491 1.28336381 0.00152048 0.00000000
1.99646511 1.10337828 0.00167122 0.00000000
1.90938153 1.12824918 0.00048876 0.00000000
2.91421643 1.07299740 -0.00056390 0.00000000
2.50311544 1.58230989 0.00183147 0.00000000
0.96024264 0.09427761 -0.00158344 0.00000000
3.78450008 1.48502308 0.00343505 0.00000000
2.51549837 0.87242758 -0.00153622 0.00000000
2.06262806 0.88537422 0.00080149 0.00000000
3.53656025 1.21433267 -0.00273234 0.00000000
2.24750110 0.17465396 0.00207898 0.00000000
3.30834554 0.25461029 -0.00309644 0.00000000
2.13212776 1.20608523 -0.00228600 0.00000000
3.99147191 1.09678949 0.00466027 0.00000000
3.29136973 0.88266036 0.00030106 0.00000000
3.21809605 0.93456056 0.00190411 0.00000000
1.94450933 0.05416560 -0.00250558 0.00000000
2.23717067 0.11281954 -0.00141347 0.00000000
3.86411154 1.67357087 0.00285632 0.00000000
0.00398154 0.87843226 0.00124647 0.00000000
3.96816749 1.48483875 -0.00119906 0.00000000
1.58141520 0.65340311 0.00183449 0.00000000
1.06565970 1.31038688 -0.00349422 0.00000000
2.14222684 0.47155458 -0.00058744 0.00000000
0.80351441 0.71658788 0.00325309 0.00000000
0.17419568 0.01333988 0.00240565 0.00000000
0.99024496 1.27850172 -0.00420110 0.00000000
1.03124627 0.76497009 -0.00509953 0.00000000
2.68791238 1.54732296 -0.00212342 0.00000000
2.19581305 0.55775173 0.00278617 0.00000000
0.42431603 0.36927281 0.00166373 0.00000000
2.32430540 0.20893549 0.00529764 0.00000000
3.27791203 1.09520007 -0.00363443 0.00000000
1.97698071 1.10703571 0.00627159 0.00000000
2.06941310 1.39918386 -0.00359743 0.00000000
2.46488386 0.91153694 -0.00108243 0.00000000
1.31532917 0.16899872 0.00014559 0.00000000
4.15313741 0.43420326 0.00120512 0.00000000
1.66236252 0.62759948 -0.00298480 0.00000000
0.29294894 0.97358902 -0.00124096 0.00000000
0.58826693 1.55441209 -0.00316823 0.00000000
1.09204972 1.80353793 -0.00191330 0.00000000
1.79533296 0.05615716 -0.00101247 0.00000000
3.89734241 0.13322735 0.00147496 0.00000000
0.77862753 0.00306545 -0.00054015 0.00000000
3.79245399 1.05602415 0.00015457 0.00000000
0.86123908 0.43180848 -0.00293916 0.00000000
1.65848229 0.59533287 0.00320730 0.00000000
0.22100660 0.06432049 0.00002186 0.00000000
3.01794187 1.19693910 0.00055116 0.00000000
1.79225373 1.45500280 -0.00168627 0.00000000
2.39147726 1.33142578 0.00358396 0.00000000
3.55974249 0.29014264 -0.00054114 0.00000000
0.36509898 1.12666166 0.00161690 0.00000000
0.95233237 1.09918791 -0.00304808 0.00000000
1.09145122 0.00009189 0.00097525 0.00000000
1.19526678 0.37036445 -0.00144266 0.00000000
2.54660281 1.08443007 -0.00376179 0.00000000
1.01423758 1.38216322 -0.00391758 0.00000000
0.21731960 0.48678604 0.00205272 0.00000000
2.00274841 0.34817579 -0.00307385 0.00000000
1.52376236 0.64529401 -0.00061792 0.00000000
0.86431270 0.99675665 -0.00297285 0.00000000
4.10924799 1.34370280 -0.00010124 0.00000000
3.12531998 0.05935569 0.00289366 0.00000000
0.15776809 1.75194265 -0.00140452 0.00000000
1.83729985 0.83406928 -0.00121075 0.00000000
1.14187798 0.21619618 -0.00291879 0.00000000
3.31951308 0.18774714 -0.00148440 0.00000000
2.69144011 1.36889035 0.00169203 0.00000000
2.05357345 0.57677253 0.00554545 0.00000000
0.61565409 0.86214336 -0.00447125 0.00000000
1.17053519 1.27631946 -0.00406549 0.00000000
0.90217915 1.40304754 -0.00034903 0.00000000
2.77129586 1.72590841 -0.00123003 0.00000000
0.25957377 0.57376460 -0.00214501 0.00000000
1.06898864 1.29930707 0.00202202 0.00000000
3.38787277 0.40212877 0.00064197 0.00000000
0.23495662 0.32346059 -0.00060404 0.00000000
3.46413193 0.15246192 -0.00319748 0.00000000
0.85756215 1.17028192 -0.00113426 0.00000000
0.78487519 1.34364665 -0.00242974 0.00000000
2.09683953 1.71004193 -0.00228019 0.00000000
2.67041860 0.74571233 0.00308073 0.00000000
1.12430459 0.46587759 0.00007514 0.00000000
0.68687761 0.01312219 0.00355286 0.00000000
3.62505582 0.45663586 0.00178640 0.00000000
2.28008279 1.64287954 -0.00151091 0.00000000
1.49649031 0.23884206 0.00119265 0.00000000
3.88005869 0.71161303 0.00014813 0.00000000
1.68947253 0.39448416 0.00256190 0.00000000
3.20920057 0.97415646 0.00108019 0.00000000
0.29025994 0.68912522 -0.00402807 0.00000000
2.18011299 0.76056338 0.00153170 0.00000000
2.44515978 1.54198834 0.00229040 0.00000000
2.76556315 1.46284419 -0.00470854 0.00000000
3.71480962 0.62133366 -0.00272264 0.00000000
0.81861457 1.32140276 -0.00279740 0.00000000
2.12143339 0.42245678 -0.00334391 0.00000000
3.39456012 0.26917024 -0.00127523 0.00000000
1.69544480 0.25566659 -0.00065799 0.00000000
1.44391941 0.14325482 -0.00160387 0.00000000
2.06683089 1.25109627 -0.00047551 0.00000000
3.35112539 1.14177015 0.00300142 0.00000000
1.56482472 0.18037562 -0.00453605 0.00000000
2.90489170 0.25363717 0.00280429 0.00000000
0.30659043 0.63531161 0.00123148 0.00000000
4.18281184 1.64352011 0.00132715 0.00000000
3.29633563 1.06570072 -0.00131694 0.00000000
2.11672317 0.49023123 -0.00460890 0.00000000
0.98171673 0.57168237 0.00253513 0.00000000
2.29441066 0.53050586 0.00375351 0.00000000
0.90431265 1.34177225 -0.00170247 0.00000000
3.76232737 1.46951987 -0.00304764 0.00000000
0.06730235 0.87911028 -0.00044800 0.00000000
1.93564263 1.69898797 0.00368803 0.00000000
1.42928049 1.18177581 -0.00031286 0.00000000
0.96082444 1.77619010 0.00742597 0.00000000
2.04712411 0.05665043 -0.00044690 0.00000000
1.90549020 0.70398345 0.00183009 0.00000000
3.71125443 0.36539651 0.00310011 0.00000000
2.04633864 1.12344074 -0.00654621 0.00000000
0.85874051 0.81085051 -0.00460247 0.00000000
0.30366000 1.08458525 -0.00283863 0.00000000
2.89204148 0.50450501 0.00005077 0.00000000
4.12527617 1.23768241 -0.00172727 0.00000000
0.57746028 1.49461500 -0.00038572 0.00000000
2.05447471 1.43398047 0.00265073 0.00000000
3.06670813 0.31895470 -0.00096528 0.00000000
3.71799731 0.24266561 -0.00129538 0.00000000
2.03123001 1.19732188 0.00481412 0.00000000
4.15004856 0.51806287 0.00111024 0.00000000
0.79338440 1.64937901 -0.00213147 0.00000000
0.71562816 1.74746316 0.00122098 0.00000000
3.28902750 1.55880473 -0.00187515 0.00000000
0.84320569 1.80883375 0.00583651 0.00000000
0.69704121 0.65662335 -0.00345926 0.00000000
0.67688897 1.15928050 0.00630023 0.00000000
0.70440206 0.26972707 -0.00250891 0.00000000
2.53743390 0.13156576 0.00014099 0.00000000
4.10341841 0.63067400 -0.00129215 0.00000000
1.28019962 1.19794021 0.00208848 0.00000000
2.00599914 1.09526332 -0.00307059 0.00000000
1.84522412 1.00193155 -0.00388408 0.00000000
2.32423756 0.34423128 -0.00353493 0.00000000
0.33413622 0.58886711 -0.00088253 0.00000000
0.71503526 1.08453253 0.00069173 0.00000000
1.76307363 0.17645995 -0.00040412 0.00000000
2.37411119 0.73590982 0.00010728 0.00000000
2.27709917 1.61492549 0.00174399 0.00000000
3.61005362 1.61621887 0.00290644 0.00000000
2.27913920 0.79960205 -0.00008906 0.00000000
0.40918657 1.48743275 0.00467191 0.00000000
0.40009728 0.10248600 0.00024965 0.00000000
2.17519692 0.74989336 0.00332207 0.00000000
2.45117136 0.45926709 0.00097680 0.00000000
0.50505732 0.89446361 0.00288860 0.00000000
3.75516811 0.74352447 0.00072816 0.00000000
1.22016968 0.47609436 -0.00162420 0.00000000
4.05309546 1.75453183 0.00147990 0.00000000
3.85980146 0.32328314 -0.00325511 0.00000000
0.42781771 1.78696860 -0.00056257 0.00000000
0.05598870 0.26458698 -0.00071058 0.00000000
3.56884133 0.17410489 0.00026472 0.00000000
3.60734579 1.07973375 -0.00003771 0.00000000
3.18990270 0.74163600 -0.00111863 0.00000000
2.18634765 0.72431400 0.00007989 0.00000000
1.21597054 0.21225127 0.00337773 0.00000000
1.19067506 1.68307565 0.00077747 0.00000000
1.76062542 0.28358793 0.00150922 0.00000000
2.66896534 1.57206515 -0.00034014 0.00000000
0.10167896 1.07809763 -0.00113456 0.00000000
2.69358465 0.06122288 0.00296117 0.00000000
3.64634862 0.15490673 -0.00174554 0.00000000
3.36190768 1.82404254 -0.00005591 0.00000000
0.93590634 0.72332802 0.00047090 0.00000000
0.35597650 0.80477774 0.00006505 0.00000000
3.65872293 0.18402755 0.00105082 0.00000000
1.97879640 1.14276051 0.00051165 0.00000000
3.01929078 0.51028134 0.00262409 0.00000000
2.34356526 1.44055833 -0.00150349 0.00000000
0.29869381 1.01250328 -0.00420381 0.00000000
3.98188286 0.00181561 -0.00111557 0.00000000
0.64451296 0.41963935 -0.00514194 0.00000000
3.31899196 0.88639835 -0.00189369 0.00000000
2.31141164 1.67769938 -0.00121954 0.00000000
0.81691003 1.75815228 0.00128882 0.00000000
2.43179018 0.26334898 0.00109726 0.00000000
0.44008155 0.53841567 0.00070893 0.00000000
2.62054178 1.40671192 0.00007208 0.00000000
2.47784210 0.99353071 0.00098801 0.00000000
3.13583354 1.59756097 -0.00337829 0.00000000
1.01219132 0.59601254 0.00261760 0.00000000
1.31761655 0.32325423 -0.00261039 0.00000000
3.61303232 1.06622324 -0.00222556 0.00000000
0.12090492 1.67272419 0.00238305 0.00000000
1.03812952 0.45809388 -0.00135124 0.00000000
3.43246210 1.71794860 -0.00031801 0.00000000
2.76180427 1.61720618 -0.00213909 0.00000000
2.56469754 0.55760460 -0.00005214 0.00000000
2.64691575 0.38922832 -0.00035617 0.00000000
0.59872191 0.14699228 -0.00065512 0.00000000
2.63550421 0.20208257 0.00275907 0.00000000
1.02197985 0.73703251 0.00621108 0.00000000
3.09809331 0.94065207 0.00294383 0.00000000
1.85490298 0.06551874 0.00384448 0.00000000
3.17898965 0.04401800 0.00023400 0.00000000
0.05056301 0.60459594 0.00045670 0.00000000
4.19209176 0.04769426 -0.00166645 0.00000000
2.48525782 0.73939433 -0.00150270 0.00000000
4.09460852 0.62433599 0.00355536 0.00000000
1.01853092 0.13535310 -0.00045378 0.00000000
2.90743404 1.14796988 0.00045223 0.00000000
3.59514112 0.83011433 0.00464227 0.00000000
3.86029694 0.97606401 0.00116891 0.00000000
2.31417896 0.37198965 -0.00283161 0.00000000
3.58761040 0.83761182 0.00239041 0.00000000
2.53486932 0.21140423 0.00137494 0.00000000
2.94971614 1.60479153 -0.00031838 0.00000000
3.37731725 1.66584637 0.00294252 0.00000000
1.61295901 0.99613589 -0.00081076 0.00000000
0.75246165 1.55502753 -0.00281707 0.00000000
4.06309603 0.32762830 -0.00083355 0.00000000
0.11922466 0.56227556 -0.00030056 0.00000000
2.88752061 1.45133569 0.00217365 0.00000000
2.57883252 1.62927054 0.00247151 0.00000000
3.74619558 0.58485199 0.00318794 0.00000000
3.26491227 0.54320804 0.00143205 0.00000000
1.08116684 0.89316402 -0.00266100 0.00000000
1.21576865 0.04997557 0.00137306 0.00000000
0.31923473 1.56373277 -0.00452240 0.00000000
2.06977956 0.09123633 -0.00229204 0.00000000
2.39300439 1.11793128 -0.00134869 0.00000000
3.00863884 0.10504163 0.00224368 0.00000000
2.79272737 1.62533417 0.00111044 0.00000000
1.20385434 0.50116408 0.00045015 0.00000000
3.44347511 0.89263456 -0.00519171 0.00000000
3.45012981 1.78681797 0.00145634 0.00000000
3.15822273 0.63800898 -0.00322335 0.00000000
1.15070058 0.04500440 0.00064562 0.00000000
2.41179224 0.05025785 0.00258404 0.00000000
1.85872700 1.40125118 0.00041390 0.00000000
4.17988582 0.77843005 0.00047558 0.00000000
3.83304646 1.83521391 0.00078492 0.00000000
1.83713671 0.59590524 0.00030915 0.00000000
0.55540695 0.20093922 0.00106380 0.00000000
2.50855640 0.59302358 0.00159392 0.00000000
2.38710807 0.22666134 -0.00176407 0.00000000
0.09194224 1.79843142 -0.00428189 0.00000000
1.05848486 1.39588632 -0.00071271 0.00000000
0.52541016 1.28386607 -0.00090032 0.00000000
2.50695822 0.80119785 0.00234049 0.00000000
0.68155333 0.33214069 -0.00547844 0.00000000
1.97343270 1.80942220 -0.00087645 0.00000000
0.70687122 0.40855656 -0.00155905 0.00000000
3.73902235 0.06940204 -0.00173039 0.00000000
2.04705498 0.09223963 0.00023419 0.00000000
4.10849734 1.06792098 -0.00207312 0.00000000
0.52204883 0.99866589 -0.00038415 0.00000000
1.22471773 0.28502528 -0.00202986 0.00000000
1.23828907 1.61404239 0.00244960 0.00000000
0.98606824 1.78486262 -0.00094575 0.00000000
2.28039803 1.28109607 -0.00257567 0.00000000
3.19306957 1.65782173 -0.00253537 0.00000000
3.11482925 0.76555876 0.00192877 0.00000000
3.66993713 1.26276328 0.00224634 0.00000000
1.07959779 0.27655972 -0.00215269 0.00000000
3.61212067 1.09900439 -0.00259371 0.00000000
1.71660238 0.04915332 -0.00051361 0.00000000
0.61045009 1.65127155 0.00102882 0.00000000
2.92387178 1.35665857 -0.00286199 0.00000000
3.68418953 1.05187780 -0.00135291 0.00000000
3.02785452 1.69494449 -0.00186477 0.00000000
1.49790093 0.04274051 -0.00055587 0.00000000
3.79083538 0.28011214 0.00218968 0.00000000
3.90233100 1.67983287 0.00018260 0.00000000
0.87726606 0.78974719 -0.00027234 0.00000000
1.18308770 0.29257176 -0.00204614 0.00000000
2.97493806 0.59775772 0.00210671 0.00000000
3.36403288 1.19349217 -0.00265666 0.00000000
2.08547098 0.14679540 0.00081515 0.00000000
1.86885378 0.50642222 -0.00082063 0.00000000
2.82021950 1.25672691 -0.00046196 0.00000000
2.20581803 1.34653441 -0.00263336 0.00000000
3.16448010 0.19704380 -0.00303528 0.00000000
3.24279853 0.86217353 -0.00642661 0.00000000
1.05640214 0.93789135 -0.00072896 0.00000000
3.46624597 0.26874442 -0.00290158 0.00000000
0.28902446 0.26021560 0.00371517 0.00000000
1.41440015 1.63243250 -0.00240866 0.00000000
4.04118896 1.32650862 -0.00743541 0.00000000
3.68918658 1.33732244 0.00140448 0.00000000
2.86002530 0.64439072 0.00420875 0.00000000
1.90871934 1.37006184 -0.00078795 0.00000000
1.35401395 1.70852839 0.00544616 0.00000000
2.08544404 1.41088946 0.00239831 0.00000000
3.37766498 1.48071261 0.00083563 0.00000000
3.18040247 0.57144348 -0.00267721 0.00000000
1.38704107 1.71167895 -0.00129520 0.00000000
0.94066539 0.82046112 -0.00181993 0.00000000
1.11144098 1.46825692 -0.00628781 0.00000000
1.66167187 1.63989512 0.00369976 0.00000000
2.42521662 1.77101503 0.00050106 0.00000000
0.96928957 1.29381062 -0.00459433 0.00000000
2.85864620 1.08072209 -0.00064507 0.00000000
2.71474881 0.65702431 -0.00222377 0.00000000
1.32470433 0.95212060 0.00296552 0.00000000
2.05082470 0.39913228 -0.00197387 0.00000000
3.37505476 0.95571435 -0.00097827 0.00000000
3.12582083 1.54514741 0.00047740 0.00000000
1.48740472 0.63029319 -0.00073407 0.00000000
3.72824849 1.75858836 -0.00338082 0.00000000
3.18589538 0.85275699 -0.00044529 0.00000000
0.03762338 1.67302948 0.00186827 0.00000000
2.37395207 1.38641067 0.00081729 0.00000000
0.91019167 1.15353700 0.00010678 0.00000000
2.39040389 0.33690927 0.00422142 0.00000000
0.93983695 0.20342078 0.00392453 0.00000000
2.54881051 0.08901195 -0.00171138 0.00000000
2.51863058 0.48478096 0.00183699 0.00000000
3.64032239 0.40780195 -0.00314275 0.00000000
0.60452685 1.18071485 0.00026823 0.00000000
2.42020550 1.30057261 0.00143161 0.00000000
0.90389663 0.57309028 0.00429788 0.00000000
1.90902531 1.24085279 0.00208626 0.00000000
2.10302846 1.11497288 0.00032658 0.00000000
3.54202165 0.95914114 0.00195178 0.00000000
4.14297484 1.21476306 -0.00191405 0.00000000
1.40134410 0.63748528 -0.00090447 0.00000000
3.56445320 0.62610139 -0.00249329 0.00000000
2.58400579 1.13759062 0.00167473 0.00000000
1.95253030 0.68706001 -0.00160159 0.00000000
2.68655227 1.74402766 0.00515767 0.00000000
3.35928316 1.09061323 0.00276145 0.00000000
1.29383713 1.19078407 0.00302595 0.00000000
1.58428223 0.59010471 -0.00414137 0.00000000
2.60854444 0.63705940 0.00092464 0.00000000
2.63211978 1.28398281 -0.00134115 0.00000000
2.16903915 0.23085911 0.00214114 0.00000000
0.20404342 0.62904447 0.00158567 0.00000000
3.27398343 0.70638411 0.00037471 0.00000000
1.75060119 1.42827364 -0.00155089 0.00000000
2.11084391 1.59373627 0.00221744 0.00000000
0.30352405 0.06272519 -0.00429858 0.00000000
2.65170877 0.22787659 -0.00048766 0.00000000
2.94993801 0.32495621 0.00373717 0.00000000
0.33712719 1.74525177 0.00026589 0.00000000
1.36848343 1.27398731 -0.00013107 0.00000000
0.68360458 1.75001190 -0.00753736 0.00000000
3.13676354 1.12168149 0.00037782 0.00000000
0.39301722 1.28962806 -0.00502169 0.00000000
1.83655780 0.00931517 0.00224864 0.00000000
3.92031573 0.81721783 0.00164316 0.00000000
2.42437399 0.91449236 -0.00077803 0.00000000
2.53429229 1.33832784 0.00139791 0.00000000
2.57850397 0.34103022 0.00066266 0.00000000
0.40962842 0.76052029 0.00016097 0.00000000
2.90159839 0.99566399 -0.00212650 0.00000000
0.11256350 0.35088554 0.00603473 0.00000000
4.07046943 0.65358819 0.00283865 0.00000000
3.92227670 0.11532141 -0.00393119 0.00000000
1.07973351 1.00006353 -0.00007132 0.00000000
0.66425042 1.45597660 0.00000335 0.00000000
4.19871044 1.68008019 -0.00152840 0.00000000
1.02100309 0.00620575 0.00059665 0.00000000
2.98991272 0.11132612 -0.00035829 0.00000000
4.11128858 1.39152605 -0.00121070 0.00000000
2.06930922 0.01567683 0.00068284 0.00000000
1.90640214 1.14128302 -0.00378967 0.00000000
3.13657789 1.78242752 0.00249326 0.00000000
3.96654452 0.04702843 -0.00077424 0.00000000
1.28696652 0.30174591 -0.00027800 0.00000000
1.67292775 1.49326037 0.00195947 0.00000000
3.94360988 0.71003108 -0.00060391 0.00000000
1.99031772 1.60429225 0.00312979 0.00000000
2.73603245 1.71013027 -0.00061178 0.00000000
3.01687340 0.50684191 0.00118049 0.00000000
3.74188770 0.90867910 0.00041293 0.00000000
0.43956369 1.48980474 -0.00003269 0.00000000
1.61542874 1.38474209 -0.00010777 0.00000000
3.17088857 0.99733711 -0.00388172 0.00000000
1.03393491 0.80885318 -0.00059369 0.00000000
2.20146090 1.40723121 0.00045648 0.00000000
0.30013315 1.66234445 0.00417594 0.00000000
3.76866267 0.31552558 0.00212920 0.00000000
3.22243774 1.19606894 -0.00137771 0.00000000
2.26436123 1.55966730 0.00005357 0.00000000
3.52567570 0.24151581 0.00560797 0.00000000
0.78160084 1.25470147 -0.00186794 0.00000000
4.01534374 0.16953431 -0.00447176 0.00000000
1.68326247 1.28681364 0.00089474 0.00000000
4.15326809 0.79350017 0.00421450 0.00000000
2.03293773 0.10100104 0.00317944 0.00000000
2.23908095 1.57151875 -0.00070737 0.00000000
1.90153345 0.28323292 0.00045398 0.00000000
3.40596320 0.11308448 -0.00079875 0.00000000
1.24505388 0.62677713 -0.00177490 0.00000000
0.76298212 1.61341648 -0.00375643 0.00000000
1.40971206 0.94036247 0.00366371 0.00000000
2.44614344 1.32389431 0.00180622 0.00000000
0.76285543 1.57277433 -0.00518038 0.00000000
0.23873801 0.91630906 -0.00618211 0.00000000
0.58740200 1.38143235 -0.00140216 0.00000000
1.83224864 0.31715337 0.00341949 0.00000000
0.40370346 1.40944512 -0.00068063 0.00000000
0.63422148 0.92208695 -0.00457203 0.00000000
3.00909672 0.25733737 0.00093101 0.00000000
3.09862171 1.53723278 0.00360412 0.00000000
0.98243234 0.15899431 0.00166744 0.00000000
4.07670923 0.04019700 0.00297103 0.00000000
1.99388947 1.61626181 -0.00155609 0.00000000
2.78436826 0.77321563 -0.00142717 0.00000000
0.89133362 0.29292322 0.00094190 0.00000000
0.91765739 0.39826889 -0.00083827 0.00000000
0.17348850 1.01071108 -0.00001563 0.00000000
2.91211395 1.20913800 -0.00056102 0.00000000
0.43393594 1.33025092 -0.00476538 0.00000000
0.76529239 1.46603258 -0.00066219 0.00000000
1.70612669 1.81671066 -0.00114940 0.00000000
0.06746684 1.07696263 0.00152187 0.00000000
2.91250452 0.29130648 -0.00502117 0.00000000
1.93720348 1.64682243 0.00163306 0.00000000
0.43314239 0.63030580 0.00250871 0.00000000
1.18604224 1.63690337 0.00293042 0.00000000
3.52880251 0.56283398 -0.00049496 0.00000000
0.38131879 0.29414934 -0.00278140 0.00000000
1.87279404 1.38536928 0.00102718 0.00000000
2.08473379 1.53326665 0.00105812 0.00000000
3.74392303 0.89580896 -0.00076481 0.00000000
0.32726327 1.30657814 0.00211966 0.00000000
1.34129368 1.82870681 0.00304713 0.00000000
1.14358531 0.15752145 0.00029381 0.00000000
3.91903269 0.26138350 0.00110065 0.00000000
1.67827007 1.53616000 -0.00016251 0.00000000
1.58390574 1.42388483 0.00292768 0.00000000
2.85897936 0.81387577 0.00472338 0.00000000
3.12261374 0.21973016 -0.00124826 0.00000000
3.17565769 0.50031966 0.00020969 0.00000000
0.85008346 0.59109960 -0.00099975 0.00000000
0.30738738 1.47580627 -0.00016057 0.00000000
2.28110987 0.60739136 0.00317803 0.00000000
1.98406298 0.25133467 -0.00232755 0.00000000
0.16623501 1.10526014 0.00077643 0.00000000
1.43750879 1.40900433 0.00148605 0.00000000
0.02777701 0.09072562 -0.00065210 0.00000000
1.54107046 1.14531803 0.00065024 0.00000000
1.51670385 0.85729954 0.00314475 0.00000000
3.59403560 0.07100418 0.00345402 0.00000000
4.14636352 0.93884198 -0.00013490 0.00000000
1.96737458 1.40619856 -0.00006040 0.00000000
1.04255411 0.49193103 -0.00072666 0.00000000
2.19166935 0.01710174 -0.00192645 0.00000000
2.81976073 0.05602989 -0.00157515 0.00000000
1.30854941 0.89950319 -0.00526645 0.00000000
0.96687852 0.77257441 0.00136019 0.00000000
2.30846568 1.08950509 -0.00238424 0.00000000
3.74667826 1.54268177 0.00329276 0.00000000
1.81429443 1.19272818 0.00061992 0.00000000
1.61814958 1.19713998 -0.00298512 0.00000000
2.25397004 1.53367903 -0.00244445 0.00000000
0.45434192 0.62901518 0.00072461 0.00000000
3.16835839 1.40478247 -0.00162569 0.00000000
1.25855238 0.36755924 0.00368315 0.00000000
3.00645958 1.64279653 0.00226230 0.00000000
3.72595044 0.05933273 -0.00208730 0.00000000
3.01370288 0.41975777 -0.00264001 0.00000000
3.10809399 0.99257796 -0.00066014 0.00000000
1.87642097 1.14340402 0.00363287 0.00000000
3.50147900 1.61495251 0.00261936 0.00000000
0.60899533 0.84022791 -0.00130319 0.00000000
4.08650506 1.11456077 0.00108730 0.00000000
4.19209712 1.63884845 -0.00242703 0.00000000
0.77096077 0.80687364 0.00234694 0.00000000
3.04534656 0.25007061 -0.00315039 0.00000000
0.11198145 0.84499922 -0.00104280 0.00000000
0.81215023 1.57886392 -0.00195601 0.00000000
2.77989603 0.53880556 0.00021375 0.00000000
1.64627680 0.88252114 -0.00371059 0.00000000
0.55546386 1.81104087 -0.00115099 0.00000000
0.64588478 0.37511254 0.00144081 0.00000000
1.75390799 1.01199213 0.00279081 0.00000000
1.24681587 1.45665218 -0.00144486 0.00000000
1.06172073 1.46340728 -0.00288218 0.00000000
2.22210924 0.02915665 0.00258662 0.00000000
2.40806352 0.75593475 -0.00229016 0.00000000
2.98938447 0.08598255 -0.00153757 0.00000000
3.66069217 0.86529741 0.00326611 0.00000000
3.13217672 1.15448149 0.00336126 0.00000000
3.02584553 1.51917227 -0.00161267 0.00000000
0.88202568 0.11775924 0.00007554 0.00000000
1.17381825 1.66903295 -0.00072942 0.00000000
3.14819401 0.16731545 0.00065994 0.00000000
1.26573762 1.33149592 0.00405237 0.00000000
2.44504525 1.60809965 0.00261457 0.00000000
3.95045663 1.27316086 0.00050662 0.00000000
2.02885934 0.90861721 -0.00280579 0.00000000
2.17305015 0.52291352 -0.00055409 0.00000000
3.89093935 1.81694764 -0.00123650 0.00000000
1.43592951 1.01288768 -0.00061949 0.00000000
0.63089097 0.19375871 -0.00176931 0.00000000
4.15849730 1.70239970 -0.00298146 0.00000000
0.81570147 0.66683199 0.00115378 0.00000000
3.16893380 0.60325350 -0.00315848 0.00000000
0.24398713 0.11414106 -0.00238225 0.00000000
2.77384068 1.76126624 0.00298186 0.00000000
3.22427469 1.04290231 0.00268492 0.00000000
2.53565609 0.84365970 -0.00378777 0.00000000
2.76972414 1.13754931 -0.00274362 0.00000000
1.14561331 1.35001006 -0.00293075 0.00000000
3.18881664 1.47171810 0.00283114 0.00000000
2.08270296 1.50174545 -0.00167821 0.00000000
3.77653401 1.51782602 -0.00045491 0.00000000
2.66466311 1.52128886 0.00030758 0.00000000
3.60448734 0.72039450 -0.00052761 0.00000000
0.08678781 0.73884696 -0.00369653 0.00000000
1.15935479 1.81388374 0.00159774 0.00000000
3.17807727 1.68411732 0.00610947 0.00000000
0.09938295 0.45717788 0.00229424 0.00000000
2.42859138 0.61617884 0.00035149 0.00000000
3.86717944 1.55394087 -0.00069407 0.00000000
1.44668873 0.28149418 0.00016335 0.00000000
1.55415453 0.89367348 0.00082633 0.00000000
2.57363030 1.63255170 -0.00096493 0.00000000
3.71825905 1.66737390 0.00052248 0.00000000
3.07410631 0.33426762 -0.00011866 0.00000000
1.55186471 0.37204616 0.00316575 0.00000000
0.22539923 0.89920240 0.00216969 0.00000000
2.00484165 0.61863876 -0.00022405 0.00000000
2.61955701 0.93166255 -0.00244401 0.00000000
3.23351811 1.33301622 0.00094657 0.00000000
2.61312987 1.49358567 -0.00007042 0.00000000
0.45990778 1.40217726 0.00065723 0.00000000
0.60039268 0.71038629 -0.00062740 0.00000000
3.84114625 0.46429000 0.00177172 0.00000000
1.94786028 1.38703175 0.00048560 0.00000000
3.32161774 1.77693205 0.00050334 0.00000000
3.33029383 1.60091520 0.00028293 0.00000000
4.11901548 1.45114093 0.00230442 0.00000000
3.70055400 0.71493614 -0.00431825 0.00000000
1.50502142 1.13101716 -0.00242146 0.00000000
2.95276023 0.39906481 -0.00754451 0.00000000
4.16346074 0.78844074 0.00194187 0.00000000
4.15080423 1.34229312 -0.00415690 0.00000000
2.94050201 1.11950919 -0.00113506 0.00000000
3.81828215 0.37496623 0.00343165 0.00000000
3.53644205 0.80566687 0.00387589 0.00000000
1.69417327 1.47216126 0.00140306 0.00000000
1.17769640 1.34951394 0.00116356 0.00000000
1.42276269 0.69996925 -0.00102085 0.00000000
1.67443423 1.37211839 0.00086634 0.00000000
0.51003002 0.64341403 0.00098384 0.00000000
2.07825048 1.68799759 -0.00075258 0.00000000
1.41220428 0.69705729 -0.00160517 0.00000000
0.27885026 0.51783667 -0.00435472 0.00000000
3.52683302 1.01764198 -0.00198687 0.00000000
2.72447304 1.77934440 -0.00159501 0.00000000
2.57609088 0.64761122 0.00145661 0.00000000
2.06842448 0.06325208 -0.00135857 0.00000000
2.87116114 0.41676446 0.00312940 0.00000000
3.55904421 1.56066598 0.00140247 0.00000000
2.98660940 0.54450140 -0.00212188 0.00000000
0.65047014 1.69569280 -0.00038582 0.00000000
1.18184142 0.86040765 0.00025827 0.00000000
3.00132263 1.34674291 0.00066958 0.00000000
3.50708597 0.64298906 -0.00054195 0.00000000
0.29962069 0.39469143 0.00316104 0.00000000
1.67229354 0.64872446 0.00258184 0.00000000
0.99966937 0.35367765 -0.00341619 0.00000000
3.36108768 0.84202610 0.00149688 0.00000000
2.66165172 0.30136027 0.00388321 0.00000000
0.76104750 0.18934859 0.00093687 0.00000000
2.14620977 1.13725727 -0.00073242 0.00000000
2.45718657 1.61335799 0.00252509 0.00000000
1.89732694 0.73668978 -0.00185931 0.00000000
0.69549470 0.20334080 0.00264145 0.00000000
1.12102592 0.34651663 -0.00042830 0.00000000
2.62205591 0.63206335 0.00007651 0.00000000
0.07764131 1.83339923 -0.00144957 0.00000000
2.23282758 0.03670492 0.00595659 0.00000000
1.50628222 0.29724893 -0.00063094 0.00000000
3.65013437 1.22658248 -0.00412327 0.00000000
1.13443833 0.02189725 0.00320862 0.00000000
2.09247233 0.95311071 0.00306647 0.00000000
0.89848443 1.21251506 0.00201320 0.00000000
1.40051701 0.04737016 0.00238540 0.00000000
2.84118829 0.10250869 -0.00341040 0.00000000
1.49210220 1.47997632 0.00142216 0.00000000
1.15903737 0.54087880 0.00343275 0.00000000
1.62809274 0.34776741 -0.00467028 0.00000000
1.18474760 0.93115501 -0.00015361 0.00000000
0.88168244 0.07597906 -0.00279935 0.00000000
0.55896931 0.70187743 0.00047308 0.00000000
2.68148364 0.69828909 -0.00249852 0.00000000
3.55028952 0.57056872 0.00362528 0.00000000
0.82135089 0.62350098 -0.00403135 0.00000000
2.26967018 1.32421541 0.00534782 0.00000000
1.29422868 0.53763455 -0.00167025 0.00000000
0.30577167 0.70558972 0.00195823 0.00000000
2.92148068 1.10852456 0.00002409 0.00000000
3.30977938 1.53754030 -0.00075285 0.00000000
4.13018488 1.08919404 -0.00198663 0.00000000
0.83425354 1.21321768 0.00155364 0.00000000
4.15774943 0.35342041 0.00048832 0.00000000
1.57776388 1.75675239 -0.00270919 0.00000000
2.01367585 1.67645376 -0.00189361 0.00000000
2.69339925 1.50779721 -0.00104374 0.00000000
1.89731930 1.41082222 0.00293162 0.00000000
2.62673601 0.18455443 0.00349096 0.00000000
2.92836978 0.86587093 -0.00062389 0.00000000
4.07378159 1.03842796 0.00163498 0.00000000
1.94188411 1.82635472 0.00076932 0.00000000
4.17869489 0.50982713 0.00119959 0.00000000
2.15816830 1.00128371 -0.00299153 0.00000000
3.82829980 1.56619479 -0.00175538 0.00000000
2.58388571 0.04036059 -0.00386072 0.00000000
0.79234896 0.58878701 0.00291808 0.00000000
0.51534726 1.76289976 -0.00015798 0.00000000
3.04467403 0.93315066 0.00278189 0.00000000
2.54740382 0.84745388 -0.00009893 0.00000000
3.60692142 0.88643686 -0.00481988 0.00000000
3.25585681 0.74891692 0.00029902 0.00000000
0.82818444 1.54330490 0.00063712 0.00000000
2.81146233 1.74677132 -0.00057387 0.00000000
2.89641216 1.80172586 -0.00017273 0.00000000
0.32641428 1.00687077 -0.00188858 0.00000000
4.11478443 0.00811548 0.00013019 0.00000000
3.11521745 0.02076217 -0.00063034 0.00000000
0.78999383 0.14029780 0.00036363 0.00000000
1.51940287 0.71959036 -0.00601976 0.00000000
1.52545262 0.27840826 -0.00266637 0.00000000
0.71698926 1.58248923 -0.00349542 0.00000000
3.07058213 0.98605138 -0.00023551 0.00000000
2.37457718 1.61455540 -0.00117787 0.00000000
1.36800651 0.00817906 0.00251663 0.00000000
0.08543254 0.22418979 0.00206850 0.00000000
0.87281588 0.48302171 -0.00051253 0.00000000
0.39465514 0.68231469 -0.00084452 0.00000000
2.52155012 0.60074507 0.00535175 0.00000000
0.94455886 1.50452539 0.00209218 0.00000000
1.21853189 0.73112518 0.00294389 0.00000000
2.66983661 1.13516440 0.00425959 0.00000000
3.43437507 0.53083024 0.00006181 0.00000000
2.15852820 0.46212135 -0.00237670 0.00000000
2.00125586 0.52764690 -0.00275180 0.00000000
0.31066390 1.16682228 0.00055976 0.00000000
2.77118490 1.51067446 -0.00064485 0.00000000
3.03861688 1.76554831 -0.00222109 0.00000000
2.74636923 1.15166496 -0.00333108 0.00000000
1.90660726 0.99011963 0.00244541 0.00000000
1.34258541 1.44409775 0.00012889 0.00000000
0.03540614 0.68393191 0.00286748 0.00000000
0.45918637 1.45310194 0.00620376 0.00000000
0.51197595 1.78923242 0.00547949 0.00000000
1.64245049 0.52799249 0.00056427 0.00000000
2.59580590 1.50357821 0.00265617 0.00000000
2.03268509 1.24924274 -0.00030598 0.00000000
4.02762411 0.08949384 -0.00060057 0.00000000
0.12575265 0.82142286 0.00198265 0.00000000
0.60911216 1.44375765 -0.00090722 0.00000000
2.41287230 1.67136516 0.00302807 0.00000000
2.52420901 1.42960096 -0.00280481 0.00000000
2.26683048 0.21703968 0.00092999 0.00000000
4.18007696 1.54836839 0.00110284 0.00000000
3.22535489 1.73485679 0.00360829 0.00000000
3.55677535 1.27863808 -0.00084930 0.00000000
0.19102149 1.53231962 -0.00176896 0.00000000
1.20481227 0.49625923 -0.00026212 0.00000000
3.28654201 0.64749958 0.00402715 0.00000000
3.86009617 1.34221283 -0.00219866 0.00000000
3.43552251 1.04155806 -0.00195612 0.00000000
1.78788439 0.56874181 0.00013095 0.00000000
1.86753235 0.33411434 0.00175606 0.00000000
3.11962732 0.95488983 -0.00295307 0.00000000
3.72994754 0.16611031 -0.00169436 0.00000000
0.78143146 0.83144589 -0.00075867 0.00000000
1.93473189 0.03143154 -0.00303238 0.00000000
4.11531630 0.29209440 0.00161253 0.00000000
2.20327724 0.41872909 -0.00099911 0.00000000
1.38097397 0.09853905 -0.00158530 0.00000000
2.97509860 1.47455101 0.00011939 0.00000000
2.77653230 0.71118118 0.00580666 0.00000000
3.40754472 0.37909125 0.00228678 0.00000000
2.49856650 0.77462470 0.00131291 0.00000000
2.02988990 0.45159316 0.00146310 0.00000000
0.07735056 1.48058708 -0.00201864 0.00000000
3.77448084 0.58415536 0.00145581 0.00000000
3.03068245 0.04638216 0.00093365 0.00000000
2.02861535 0.97902807 0.00339592 0.00000000
0.39703422 1.70492344 0.00110631 0.00000000
3.16863140 0.90160777 -0.00055960 0.00000000
1.44354074 0.98736640 0.00048602 0.00000000
3.24636755 0.23244012 0.00106551 0.00000000
1.20193849 1.23545546 0.00048549 0.00000000
2.35584702 0.50418605 -0.00285673 0.00000000
3.93393221 0.29508490 0.00135195 0.00000000
1.52614128 0.96852794 0.00345428 0.00000000
2.29643796 1.09670940 -0.00086312 0.00000000
1.37741560 1.58053151 -0.00351324 0.00000000
0.35970291 1.19691765 -0.00272396 0.00000000
0.14769682 0.42042718 -0.00074972 0.00000000
2.40202173 1.45571931 0.00206606 0.00000000
0.78139560 1.01602601 0.00200940 0.00000000
4.19025512 0.19694531 -0.00223546 0.00000000
3.31139757 0.87257685 0.00042073 0.00000000
1.46748786 1.75351280 -0.00212160 0.00000000
2.11627509 1.47362907 -0.00180753 0.00000000
1.47963999 0.46107698 0.00169827 0.00000000
2.22981122 1.48138517 -0.00454405 0.00000000
2.21053455 0.28791256 0.00086012 0.00000000
0.99477219 1.26624028 -0.00010871 0.00000000
3.13431612 0.14629713 0.00195525 0.00000000
2.64285187 1.09297821 -0.00323130 0.00000000
1.70836519 0.70274334 -0.00268157 0.00000000
2.60197696 0.83230208 -0.00067013 0.00000000
1.04131032 1.33925197 -0.00273692 0.00000000
3.21733432 0.95432065 0.00142421 0.00000000
1.15115820 1.15425275 -0.00131734 0.00000000
2.35648955 0.86230166 -0.00043257 0.00000000
4.01030293 0.23197214 -0.00496512 0.00000000
4.05306037 1.47989057 0.00023354 0.00000000
2.25941549 1.72675172 0.00507439 0.00000000
2.90792774 0.24534442 0.00431076 0.00000000
1.11878544 0.57018085 0.00071109 0.00000000
3.11222466 1.55312158 -0.00099701 0.00000000
2.08361450 0.86113588 0.00167877 0.00000000
1.10000601 1.26048009 -0.00470704 0.00000000
0.35680398 0.26646167 -0.00448773 0.00000000
1.65024718 0.93161723 -0.00085435 0.00000000
0.62318494 0.17251152 -0.00049309 0.00000000
1.54742242 1.19749385 0.00075433 0.00000000
4.07346456 0.82057575 -0.00095572 0.00000000
0.87593588 1.37867378 -0.00234259 0.00000000
1.89620901 0.40120821 -0.00144560 0.00000000
2.61691726 0.73172053 -0.00251694 0.00000000
0.16130489 0.85921247 0.00404348 0.00000000
3.33248770 0.75982408 0.00119817 0.00000000
1.89109779 1.21733863 0.00162231 0.00000000
2.78638024 1.15253777 0.00215253 0.00000000
1.25736317 0.24358458 -0.00127910 0.00000000
1.82914803 0.12128320 0.00065727 0.00000000
0.02443524 0.48678555 0.00162868 0.00000000
3.92212082 1.20800881 0.00005616 0.00000000
1.87317531 1.31118027 0.00369830 0.00000000
0.45277258 0.49110723 0.00448592 0.00000000
0.40805874 0.88155573 0.00029686 0.00000000
3.39460777 0.30952493 0.00282849 0.00000000
2.75270556 0.60596683 -0.00041508 0.00000000
0.17893996 0.07267019 -0.00043766 0.00000000
2.31805174 1.47148251 -0.00043223 0.00000000
3.22829756 0.96456135 -0.00487329 0.00000000
2.63160456 0.42559229 -0.00158066 0.00000000
3.96937134 0.66830976 -0.00471827 0.00000000
2.38110203 1.46682030 0.00302677 0.00000000
0.61408824 1.43913791 0.00226809 0.00000000
0.48243831 1.13979379 -0.00264331 0.00000000
0.42369500 0.45765374 -0.00473289 0.00000000
3.85500343 1.26327245 0.00413378 0.00000000
0.61943164 1.79872818 0.00061329 0.00000000
0.43546176 0.55901508 -0.00150116 0.00000000
4.20502923 0.48846501 0.00363964 0.00000000
0.93481202 1.02484375 0.00468370 0.00000000
1.29295781 0.44657002 0.00114468 0.00000000
0.48975914 0.38727431 -0.00206240 0.00000000
3.96476784 1.16972970 -0.00441525 0.00000000
1.28972762 1.00558318 0.00157273 0.00000000
0.10555941 1.45340745 -0.00020919 0.00000000
3.66974026 1.30069883 0.00144075 0.00000000
3.50623170 0.76098402 -0.00194744 0.00000000
1.25998659 1.35394041 0.00655556 0.00000000
1.63464080 0.39249752 -0.00028355 0.00000000
3.29467877 0.05885170 -0.00625739 0.00000000
3.73397066 1.39140390 0.00103436 0.00000000
2.14852662 0.83229768 -0.00116840 0.00000000
1.26870499 1.52423519 -0.00167102 0.00000000
0.62632776 1.32093639 0.00204991 0.00000000
3.44443671 1.37639692 -0.00078026 0.00000000
2.10501995 1.40845197 0.00069991 0.00000000
0.93031085 1.24771074 0.00233251 0.00000000
1.60620888 1.76776477 0.00190807 0.00000000
4.11297326 0.19509941 0.00029260 0.00000000
3.82722035 1.33908575 -0.00204423 0.00000000
0.24622911 1.62669889 -0.00097973 0.00000000
0.10829133 1.14812032 -0.00066253 0.00000000
0.02980977 0.56948978 -0.00018786 0.00000000
1.50439882 0.38936997 -0.00554261 0.00000000
1.22186842 1.35960223 0.00062439 0.00000000
0.36038801 0.51568673 0.00116697 0.00000000
1.63608822 0.66134634 0.00093592 0.00000000
1.31932896 0.75235891 -0.00255850 0.00000000
2.05650818 1.45280829 -0.00086893 0.00000000
2.37024083 0.91065776 0.00157443 0.00000000
1.73952139 0.32975612 0.00203657 0.00000000
0.56672046 1.17653351 0.00229974 0.00000000
1.40347199 0.30379113 -0.00301682 0.00000000
2.22379050 0.81212778 0.00037781 0.00000000
0.97810324 1.66112701 0.00147140 0.00000000
0.28574166 0.13482019 -0.00056934 0.00000000
1.32003961 0.79495178 0.00314773 0.00000000
2.83855230 1.41229467 -0.00470936 0.00000000
1.46629443 1.44366360 0.00294525 0.00000000
3.40582018 0.41655889 0.00079577 0.00000000
0.24791839 1.61804392 0.00008666 0.00000000
2.69515796 1.22313431 0.00396655 0.00000000
2.00631311 0.22201348 0.00260386 0.00000000
0.52350680 1.13692296 0.00255220 0.00000000
1.12617237 1.34496393 0.00436910 0.00000000
3.36818635 0.77596714 0.00437758 0.00000000
0.06966801 0.38338672 0.00172960 0.00000000
3.21186488 1.50616260 0.00103374 0.00000000
1.82351671 0.37022938 0.00268450 0.00000000
2.32324806 0.48233417 -0.00157319 0.00000000
3.90638887 0.89738477 -0.00137241 0.00000000
1.00095155 1.59477655 0.00450841 0.00000000
3.11646488 0.82940802 -0.00155748 0.00000000
1.41396583 0.86820710 0.00543153 0.00000000
2.29278656 0.25876080 -0.00083490 0.00000000
0.00167326 1.62802653 0.00343549 0.00000000
1.89855410 0.59014362 -0.00020648 0.00000000
2.60224740 1.11791240 -0.00168337 0.00000000
2.20735078 0.14586933 -0.00079605 0.00000000
3.69834718 0.49322448 0.00188155 0.00000000
4.21306995 0.19571784 -0.00058740 0.00000000
1.03248948 0.23157164 -0.00537114 0.00000000
1.21486784 0.75583588 -0.00137010 0.00000000
2.02068455 1.20501184 -0.00126187 0.00000000
2.33446344 1.44494277 -0.00748085 0.00000000
0.82866548 0.61267839 0.00057047 0.00000000
1.59578532 0.25950971 0.00062824 0.00000000
3.53661058 0.95766323 -0.00013556 0.00000000
0.06881435 0.42783143 0.00123164 0.00000000
4.03402273 0.45466322 -0.00503115 0.00000000
1.51675319 0.50890912 -0.00361147 0.00000000
1.49763716 0.42164929 0.00100769 0.00000000
2.39276996 1.50881251 -0.00414035 0.00000000
2.49898614 1.00593745 -0.00174525 0.00000000
0.94262694 1.04353149 -0.00474233 0.00000000
2.42885219 0.06866676 -0.00191177 0.00000000
3.10742086 1.35445228 -0.00129101 0.00000000
1.27121702 1.43810416 0.00393445 0.00000000
0.36905715 1.76421064 -0.00344990 0.00000000
2.59760577 0.15816097 -0.00089839 0.00000000
2.12522305 0.25846229 0.00365912 0.00000000
1.53250526 0.32230226 -0.00227306 0.00000000
2.48950678 0.26194514 0.00002625 0.00000000
2.57311641 0.48928387 -0.00363176 0.00000000
0.19482438 1.34718465 0.00126984 0.00000000
1.48654425 0.33532968 0.00037295 0.00000000
0.49392527 1.23463649 0.00353847 0.00000000
3.03195842 0.90591786 -0.00324533 0.00000000
1.70576402 0.18065577 -0.00073340 0.00000000
3.04859613 1.63406960 0.00195966 0.00000000
3.84368574 0.84452342 -0.00010010 0.00000000
1.26388983 0.25646643 0.00199385 0.00000000
3.67055543 0.37694291 -0.00039596 0.00000000
0.75843573 0.94661250 0.00248802 0.00000000
0.64178017 1.53978181 -0.00334278 0.00000000
1.12240575 0.96423675 -0.00507516 0.00000000
0.87908287 0.73117892 0.00031773 0.00000000
1.97747459 1.64805549 -0.00014686 0.00000000
2.22192218 1.38328105 -0.00344024 0.00000000
2.60039269 0.59418852 -0.00154145 0.00000000
0.05866033 0.49666433 -0.00221463 0.00000000
2.86219827 0.07810639 -0.00287958 0.00000000
3.46643963 1.04874859 0.00460639 0.00000000
1.92856852 1.02438298 -0.00237803 0.00000000
3.46647970 0.52214744 -0.00001799 0.00000000
0.38407458 0.82762950 0.00034159 0.00000000
2.61421916 0.66512814 -0.00167640 0.00000000
3.97688456 1.05751560 0.00108913 0.00000000
0.28539439 1.15423937 -0.00278653 0.00000000
3.72365824 1.36097253 -0.00324190 0.00000000
0.71519719 0.66288785 0.00222658 0.00000000
0.88028333 1.26744215 -0.00417168 0.00000000
2.82681932 0.35314320 0.00096357 0.00000000
3.14880148 1.44645782 0.00181711 0.00000000
2.42475723 1.19210023 0.00283243 0.00000000
0.04259894 0.87695285 0.00224711 0.00000000
3.27270573 0.14525003 0.00196111 0.00000000
0.03772469 0.35016893 -0.00055248 0.00000000
3.00108498 0.16519548 0.00103771 0.00000000
3.80881403 0.27825024 -0.00308270 0.00000000
3.60206481 0.37099547 0.00020975 0.00000000
0.83920680 0.60836049 0.00407291 0.00000000
1.75959024 1.82608642 0.00379547 0.00000000
1.72395080 1.38838019 0.00041335 0.00000000
0.44155911 1.83918837 0.00129793 0.00000000
3.12259130 1.59351035 -0.00152342 0.00000000
1.93313916 1.71914484 -0.00142457 0.00000000
0.53511401 1.60797223 -0.00133766 0.00000000
0.14558675 1.79620976 -0.00049784 0.00000000
0.90554723 1.24614365 0.00591479 0.00000000
0.55257381 0.08787896 0.00178270 0.00000000
2.57627633 1.74586927 0.00115250 0.00000000
3.22236984 0.53968652 -0.00137773 0.00000000
2.90143704 1.55436729 -0.00032527 0.00000000
2.09716558 1.31975961 0.00247720 0.00000000
1.22492268 1.28242677 0.00048912 0.00000000
1.95444780 0.50598480 0.00176696 0.00000000
0.66991746 0.99709210 -0.00141369 0.00000000
3.03545885 1.35476225 -0.00008056 0.00000000
3.03728923 1.16150727 0.00275516 0.00000000
2.83110853 0.10533031 0.00005316 0.00000000
1.62789512 1.18327311 -0.00054059 0.00000000
0.04771037 0.11476863 -0.00319895 0.00000000
3.77250074 0.58268178 -0.00228400 0.00000000
3.19531039 0.54672534 0.00088659 0.00000000
0.40272222 0.03892068 -0.00491680 0.00000000
0.64534201 0.94331830 -0.00010076 0.00000000
2.38694314 1.70875759 0.00135059 0.00000000
3.82150259 0.19568639 -0.00087207 0.00000000
0.98891526 1.00577223 -0.00085797 0.00000000
0.60482546 1.56306580 0.00108691 0.00000000
2.02367722 1.82528652 0.00070563 0.00000000
0.36663754 1.71331592 -0.00411928 0.00000000
0.31781427 0.63452555 -0.00158403 0.00000000
3.00750219 1.10913091 0.00140930 0.00000000
2.23904371 1.51158946 -0.00029958 0.00000000
2.74285309 1.61188868 0.00273525 0.00000000
2.33600327 1.53806073 -0.00191224 0.00000000
0.51448214 0.41834283 -0.00094826 0.00000000
3.00951744 0.39338140 -0.00169661 0.00000000
0.18654815 0.38769584 -0.00555448 0.00000000
0.69298931 0.05028137 -0.00020821 0.00000000
2.39245837 0.61083681 0.00130262 0.00000000
2.34713194 0.89438860 0.00303945 0.00000000
1.69605155 0.71282374 -0.00144242 0.00000000
2.80651110 0.12942392 0.00289854 0.00000000
4.06834013 0.85277894 0.00172358 0.00000000
4.14849951 0.76505793 -0.00345451 0.00000000
2.14878067 1.71441591 0.00239151 0.00000000
3.97099576 1.79276558 0.00086578 0.00000000
3.78997075 0.85843657 -0.00116363 0.00000000
3.89113505 1.78992458 -0.00260831 0.00000000
0.95251693 1.32332024 0.00109413 0.00000000
1.65487777 0.02510172 0.00101522 0.00000000
0.02040305 1.48207990 0.00372585 0.00000000
