0.88654643 1.17728194 0.00306147 0.00000000
2.81591650 1.39134413 0.00246444 0.00000000
0.11041341 1.13376867 0.00173550 0.00000000
0.65255422 0.00739675 0.00167981 0.00000000
0.85913555 1.91561325 -0.00142355 0.00000000
3.93687253 1.80878154 -0.00314427 0.00000000
1.05535213 0.48265244 0.00173798 0.00000000
1.31996641 1.95940992 0.00060691 0.00000000
1.47746906 1.45580627 0.00275420 0.00000000
0.27947420 0.77912958 -0.00088565 0.00000000
2.34249113 1.85948227 0.00036879 0.00000000
2.05284306 2.06864584 0.00023575 0.00000000
0.25268308 1.51580413 -0.00114291 0.00000000
1.43738682 1.25744009 0.00035893 0.00000000
1.41480840 0.50257262 -0.00367370 0.00000000
0.60662936 1.96686133 0.00243001 0.00000000
0.47356647 1.31619326 0.00114995 0.00000000
2.59682923 1.47876251 -0.00348483 0.00000000
2.85892799 0.92179477 -0.00476520 0.00000000
1.59254889 2.40171725 -0.00098397 0.00000000
4.00586728 0.25223440 0.00006998 0.00000000
4.01019379 0.39036715 0.00421551 0.00000000
1.88581742 1.27312125 0.00175465 0.00000000
1.46440556 1.30143399 -0.00182733 0.00000000
3.03141628 1.71958779 0.00048905 0.00000000
0.98758862 0.05988230 0.00274545 0.00000000
0.97347876 1.54302695 -0.00145211 0.00000000
3.14553464 0.70696756 -0.00469462 0.00000000
2.42401815 0.28569142 -0.00332160 0.00000000
3.36148513 0.25026608 -0.00005827 0.00000000
3.17330482 0.23603147 0.00039237 0.00000000
1.26652254 1.19791595 -0.00031476 0.00000000
2.72948475 1.96664098 0.00166237 0.00000000
0.77222591 0.46033032 -0.00031080 0.00000000
3.77099292 0.62235246 -0.00262455 0.00000000
1.04242358 1.75834803 0.00063033 0.00000000
0.27430325 0.92988075 0.00328455 0.00000000
1.06776174 2.32164000 0.00186114 0.00000000
0.75225752 0.16016949 0.00346137 0.00000000
2.23408701 1.76668638 0.00328344 0.00000000
1.14137282 0.07074200 -0.00252719 0.00000000
3.10290798 1.23439578 -0.00130681 0.00000000
0.54679458 0.24906702 0.00022921 0.00000000
4.20668421 1.69817444 0.00503602 0.00000000
3.20122948 0.82969091 -0.00055415 0.00000000
3.52298273 0.72491560 0.00004949 0.00000000
2.05827372 2.39534423 -0.00115637 0.00000000
2.88723331 1.40292146 0.00079401 0.00000000
4.10344143 0.82197676 -0.00264367 0.00000000
1.23000398 0.83262435 0.00055818 0.00000000
2.86993292 1.31218590 -0.00012594 0.00000000
2.42914093 1.59504928 -0.00120926 0.00000000
1.35009921 1.86402520 0.00154771 0.00000000
2.39508113 2.21369024 0.00121244 0.00000000
2.79640663 1.41311817 0.00255446 0.00000000
2.29246990 0.27920150 -0.00223548 0.00000000
4.19800072 0.71105261 -0.00185672 0.00000000
1.82060396 0.14755735 0.00276458 0.00000000
2.34308572 2.12447986 -0.00271958 0.00000000
2.14001662 0.12510053 -0.00136384 0.00000000
1.18940631 0.92024317 0.00042427 0.00000000
3.32885330 1.51441315 -0.00266012 0.00000000
0.59538012 2.38768573 0.00013452 0.00000000
3.40608790 2.26722145 -0.00284135 0.00000000
2.09155273 1.64981672 -0.00273289 0.00000000
0.55850765 0.27114241 0.00201482 0.00000000
1.80018922 0.08379443 -0.00132819 0.00000000
2.14656697 0.68253684 -0.00198492 0.00000000
1.52616833 0.27533764 -0.00195725 0.00000000
0.72220812 0.89903244 0.00115402 0.00000000
0.34129206 0.05010280 0.00507692 0.00000000
1.88584713 2.28947854 0.00029263 0.00000000
1.64056641 1.72097238 -0.00132301 0.00000000
0.00549717 0.42985112 0.00081720 0.00000000
1.30313100 0.85003556 0.00226485 0.00000000
1.46078556 2.21255578 0.00163034 0.00000000
3.19696580 1.26589994 -0.00076259 0.00000000
1.33230571 1.35874445 -0.00256939 0.00000000
0.40616533 0.78770227 -0.00070727 0.00000000
2.81737896 1.15973606 0.00235700 0.00000000
1.69471358 1.27978913 -0.00273457 0.00000000
1.73658943 2.05078328 -0.00164285 0.00000000
0.83956756 0.07174896 0.00249757 0.00000000
0.54142334 1.70592673 0.00299533 0.00000000
4.25806222 0.67703143 0.00174874 0.00000000
0.78892196 0.49307793 -0.00101335 0.00000000
1.57639996 1.51915917 -0.00019229 0.00000000
3.70522832 1.50188733 -0.00330981 0.00000000
0.44715662 1.90052180 -0.00309326 0.00000000
3.47870485 0.73714589 0.00340477 0.00000000
1.33610628 1.89282730 -0.00473010 0.00000000
0.49829224 1.88060330 -0.00160947 0.00000000
4.37605468 1.07936499 0.00044310 0.00000000
2.17098909 1.27839484 -0.00306006 0.00000000
3.93176379 1.26242498 -0.00270309 0.00000000
1.12866251 1.90610932 -0.00109981 0.00000000
2.19204861 1.62352429 0.00125507 0.00000000
2.86734535 2.16743856 -0.00045135 0.00000000
3.22078884 1.74655040 -0.00333813 0.00000000
1.93499633 1.56834949 0.00025707 0.00000000
1.31434235 1.24384983 0.00479285 0.00000000
0.83010738 1.44747881 0.00229115 0.00000000
2.74869018 0.88692701 -0.00072014 0.00000000
4.34701102 1.09789237 -0.00256772 0.00000000
0.72060729 1.69603954 0.00228841 0.00000000
3.84722672 0.52145930 0.00068491 0.00000000
4.05798675 1.22371709 -0.00149717 0.00000000
1.23819144 1.12769857 0.00035076 0.00000000
1.88088209 1.99277315 -0.00026170 0.00000000
2.03354952 1.18550671 0.00528822 0.00000000
1.85119670 1.27834134 -0.00283571 0.00000000
0.52448807 1.95920209 -0.00075188 0.00000000
1.76581664 2.13676386 0.00197768 0.00000000
1.66521477 0.08304940 -0.00357320 0.00000000
1.33626690 2.26882821 0.00194810 0.00000000
2.25288006 2.25327949 0.00226976 0.00000000
1.71996387 1.55972406 -0.00032951 0.00000000
0.49719629 1.11383659 0.00337751 0.00000000
1.84689048 0.94271384 0.00643381 0.00000000
0.36982387 1.99358308 0.00234504 0.00000000
0.20057847 0.82193787 0.00093557 0.00000000
2.57772499 1.75568727 -0.00074788 0.00000000
1.95477096 0.52305125 -0.00238451 0.00000000
0.70696773 0.50120782 0.00044852 0.00000000
0.63354570 2.17269546 0.00323221 0.00000000
3.02504185 1.06878379 -0.00514812 0.00000000
1.07826973 1.85633691 0.00038603 0.00000000
3.75855574 1.70378568 0.00767219 0.00000000
3.16783296 0.55392017 0.00066481 0.00000000
3.70254411 2.27595833 0.00067376 0.00000000
0.53051379 0.56117679 -0.00077658 0.00000000
1.57288582 1.26160339 -0.00024097 0.00000000
3.12816245 0.45131713 0.00172233 0.00000000
2.31010062 0.13411072 -0.00275878 0.00000000
1.56388785 1.26688146 -0.00420054 0.00000000
0.19316520 0.81214944 -0.00065008 0.00000000
3.64396983 2.29124014 0.00241462 0.00000000
2.75639334 2.36743387 0.00337921 0.00000000
1.82016396 1.49021016 -0.00217356 0.00000000
0.19311245 0.03879314 -0.00024918 0.00000000
3.21982433 1.48952681 0.00327041 0.00000000
0.97326808 0.92304716 0.00190501 0.00000000
4.31936793 1.93588730 -0.00078193 0.00000000
2.40507806 1.31831698 -0.00072928 0.00000000
1.85404109 1.94599775 0.00110042 0.00000000
0.30388197 2.16640652 -0.00002241 0.00000000
3.62664518 1.35356921 0.00036948 0.00000000
0.82277258 1.03782320 -0.00059176 0.00000000
0.83159550 2.03616695 -0.00085925 0.00000000
3.82283198 2.31200498 0.00006934 0.00000000
1.43435599 2.38812188 -0.00290980 0.00000000
1.53690396 0.72073101 0.00304818 0.00000000
3.65450471 0.39677626 0.00039533 0.00000000
3.24531865 0.78229739 -0.00027625 0.00000000
0.20410848 1.32759889 0.00214085 0.00000000
3.83546900 1.96249180 0.00199006 0.00000000
1.83298902 1.30200356 -0.00293156 0.00000000
2.24839881 1.12186445 0.00357813 0.00000000
1.81797554 1.42085611 -0.00515105 0.00000000
4.01832016 0.25569615 -0.00449046 0.00000000
0.64693687 2.42041579 -0.00203955 0.00000000
0.60105255 1.90071421 -0.00626142 0.00000000
2.12306434 2.01865430 -0.00098590 0.00000000
0.78763272 2.16416107 0.00139915 0.00000000
3.64246397 0.60588658 -0.00243211 0.00000000
2.58465174 1.80241914 0.00112256 0.00000000
3.86942214 1.13167643 -0.00131870 0.00000000
3.79487495 1.58941965 -0.00105495 0.00000000
0.60458800 0.66795007 -0.00153158 0.00000000
0.21659361 1.70087590 -0.00012384 0.00000000
3.27477680 0.66734081 -0.00090502 0.00000000
0.06620344 1.03944217 0.00200208 0.00000000
2.91576070 0.65544403 0.00155267 0.00000000
2.72398720 0.27588437 0.00210041 0.00000000
0.38648708 1.63410716 -0.00006412 0.00000000
1.36240965 0.94290180 -0.00044834 0.00000000
3.72144551 2.08289061 0.00286159 0.00000000
3.24436423 1.12402144 -0.00128378 0.00000000
0.28746214 0.01992840 0.00524750 0.00000000
1.55811357 0.96498775 0.00306210 0.00000000
0.67617726 1.68003770 0.00336816 0.00000000
3.74188046 0.84035664 0.00525695 0.00000000
2.89017077 0.50920516 0.00054384 0.00000000
2.12622602 1.37818679 -0.00380308 0.00000000
1.79704570 1.66330303 0.00467791 0.00000000
3.05110280 0.14540935 -0.00022970 0.00000000
3.52650715 2.01522994 -0.00010688 0.00000000
4.01827617 0.07112149 0.00303857 0.00000000
1.73099728 1.49881348 0.00456814 0.00000000
1.39051116 2.03418780 0.00090626 0.00000000
2.34927382 0.35855084 -0.00035793 0.00000000
1.27480642 1.82703674 0.00123041 0.00000000
2.50123734 1.06242963 -0.00268876 0.00000000
3.86445451 0.63213346 0.00239753 0.00000000
3.79697534 0.20485484 -0.00227714 0.00000000
3.36393333 0.56458459 -0.00017209 0.00000000
1.22644348 0.18386072 -0.00156912 0.00000000
0.45072554 1.20409696 0.00105462 0.00000000
2.35715058 2.36714326 0.00602301 0.00000000
3.08511496 1.01897359 0.00116120 0.00000000
1.87660292 1.69025637 0.00008809 0.00000000
0.50143121 1.82323160 -0.00064041 0.00000000
3.89366390 1.75788712 0.00275156 0.00000000
3.41817101 2.16421101 -0.00194452 0.00000000
3.54556859 1.34717092 0.00104342 0.00000000
1.09165212 2.41831065 -0.00287260 0.00000000
2.64739341 1.57365982 -0.00075508 0.00000000
0.13899222 2.37228286 0.00026459 0.00000000
1.27944889 1.62601779 -0.00305599 0.00000000
0.88347278 0.85247986 -0.00314949 0.00000000
1.29557972 1.32759584 0.00037988 0.00000000
3.28595545 0.32710353 -0.00028366 0.00000000
1.06395645 0.63370967 -0.00004269 0.00000000
3.27551743 0.54221224 -0.00127780 0.00000000
3.27399119 1.15940507 0.00134592 0.00000000
0.25993899 0.71905517 -0.00121057 0.00000000
3.32604578 0.74175596 0.00011813 0.00000000
4.28902098 1.59033195 -0.00075162 0.00000000
1.00388493 0.84775610 0.00516365 0.00000000
1.13768931 2.02055475 -0.00049579 0.00000000
3.34109139 1.13265769 0.00142759 0.00000000
0.04955569 2.23377821 -0.00383772 0.00000000
4.08378504 0.23649230 0.00297474 0.00000000
3.46815704 1.25098980 -0.00038135 0.00000000
1.78360691 0.00745374 0.00205657 0.00000000
0.49661188 1.74430528 0.00221469 0.00000000
1.92603030 0.20273773 0.00112780 0.00000000
1.26123150 0.64250021 -0.00305839 0.00000000
4.22954337 0.34173108 0.00164417 0.00000000
3.02465914 0.21856446 0.00259396 0.00000000
2.61965665 0.11589200 0.00112742 0.00000000
3.33066043 2.01520533 -0.00141523 0.00000000
4.28047457 2.06343284 -0.00059052 0.00000000
3.48934888 0.56119102 0.00074042 0.00000000
4.02885571 2.36226110 0.00075339 0.00000000
0.32721389 0.84363016 -0.00368056 0.00000000
0.77668282 0.18963696 -0.00119248 0.00000000
1.51844898 2.34816360 -0.00193410 0.00000000
2.99875413 0.72004721 -0.00121157 0.00000000
1.74689622 2.16226074 0.00279685 0.00000000
4.09163901 1.88051872 -0.00075645 0.00000000
2.72075748 0.83600746 0.00315210 0.00000000
0.82586240 0.50881406 -0.00135331 0.00000000
2.37690500 1.55579924 -0.00073644 0.00000000
4.27795201 0.94051745 0.00125240 0.00000000
2.96807556 0.38093687 -0.00128007 0.00000000
1.33869320 0.89209789 0.00124158 0.00000000
2.05396666 0.39689433 0.00252236 0.00000000
1.63472713 1.86206362 -0.00190004 0.00000000
0.54340729 0.96477094 0.00286764 0.00000000
4.30374709 0.89534415 -0.00282232 0.00000000
0.66977585 0.26874211 0.00052358 0.00000000
0.87208530 0.89145092 0.00082952 0.00000000
3.91421130 1.34805935 0.00206602 0.00000000
4.07537745 1.01968282 0.00200172 0.00000000
3.19483386 1.72404836 0.00174357 0.00000000
4.04131676 2.20474513 0.00345567 0.00000000
4.41081260 1.64625439 0.00087630 0.00000000
3.19394423 0.50952078 -0.00007686 0.00000000
1.57199984 0.21611512 -0.00539729 0.00000000
2.21036977 2.14780995 -0.00062543 0.00000000
3.35264189 1.82152946 0.00060262 0.00000000
1.70069607 1.39248060 -0.00148808 0.00000000
0.45715999 0.16000937 0.00327432 0.00000000
3.52263660 1.74631465 -0.00167381 0.00000000
2.28695480 1.22980766 0.00114356 0.00000000
4.01475363 2.33201917 -0.00267516 0.00000000
0.55053324 1.42775934 -0.00063496 0.00000000
4.26361898 1.45056555 -0.00104019 0.00000000
3.15705496 0.98062524 0.00017837 0.00000000
1.45584418 0.31177574 0.00003626 0.00000000
1.70705737 0.48413196 -0.00139006 0.00000000
0.54829735 1.69254853 0.00445049 0.00000000
1.76512664 2.41653054 -0.00045554 0.00000000
1.83306500 0.46411548 -0.00184424 0.00000000
3.32097271 2.30961438 -0.00020166 0.00000000
2.41268617 2.13935382 -0.00309683 0.00000000
3.05421287 0.60229874 0.00314817 0.00000000
3.75685634 2.18814459 0.00125805 0.00000000
1.78484490 0.57094068 0.00226279 0.00000000
4.35526267 2.07653415 -0.00243666 0.00000000
1.98509635 0.71178236 0.00421657 0.00000000
3.30812745 0.91521769 0.00410508 0.00000000
2.76370728 2.01770154 -0.00103247 0.00000000
0.88717390 1.33247088 -0.00090992 0.00000000
3.39697668 2.38533024 0.00374542 0.00000000
1.24992346 2.17230190 0.00060589 0.00000000
1.08039118 1.57617196 0.00045042 0.00000000
0.90358643 0.90500135 0.00298538 0.00000000
4.07526409 0.91265513 -0.00145148 0.00000000
3.44068280 2.31300845 0.00586448 0.00000000
3.79049193 1.54841589 -0.00109631 0.00000000
4.19167748 0.18318894 -0.00198870 0.00000000
3.21861325 1.99386007 -0.00073792 0.00000000
3.81155198 1.94420633 0.00147199 0.00000000
1.84679285 0.81456597 0.00085528 0.00000000
1.17565284 2.30228273 -0.00362978 0.00000000
2.90961261 0.42245734 0.00232017 0.00000000
1.32062776 2.21737930 0.00048689 0.00000000
1.37253584 0.29405883 -0.00062537 0.00000000
2.99329754 2.32876459 0.00220328 0.00000000
1.35698462 1.50910166 0.00355670 0.00000000
2.85747648 0.50903065 -0.00235997 0.00000000
1.50300364 0.49802755 -0.00170388 0.00000000
0.70446840 1.03668535 0.00375633 0.00000000
2.99833886 1.00951310 0.00312559 0.00000000
3.42592992 1.56871920 0.00257776 0.00000000
0.07586822 0.39814617 -0.00088529 0.00000000
1.92378945 1.54110896 0.00159256 0.00000000
0.47673093 1.57911033 0.00193562 0.00000000
2.14498160 1.44645116 -0.00401191 0.00000000
4.06033918 1.56140702 -0.00317522 0.00000000
2.20632575 1.86228824 0.00137128 0.00000000
1.37100904 2.00489216 -0.00107663 0.00000000
1.18972187 0.41497638 -0.00458672 0.00000000
1.82191978 2.06761681 0.00325799 0.00000000
2.62242212 0.87774375 0.00302563 0.00000000
2.39515936 0.92965265 0.00134070 0.00000000
1.11701717 1.10985403 0.00190846 0.00000000
4.06220234 0.11068994 -0.00033128 0.00000000
3.07146691 1.26729638 -0.00097645 0.00000000
1.17050746 0.42279585 0.00086522 0.00000000
2.58528443 2.23073992 0.00130624 0.00000000
2.70310028 1.75266915 -0.00049102 0.00000000
3.46554555 1.98520818 -0.00572534 0.00000000
3.36269151 0.01882960 -0.00185963 0.00000000
1.22059504 0.75189004 0.00388399 0.00000000
0.74817873 1.52674921 -0.00125176 0.00000000
1.90567899 0.09801112 0.00057749 0.00000000
0.28994125 0.30510348 0.00051927 0.00000000
1.72001697 0.12279936 0.00230424 0.00000000
2.98910246 0.65975446 -0.00254306 0.00000000
4.20737389 1.06601770 -0.00607980 0.00000000
1.50699765 1.97125706 -0.00113615 0.00000000
3.41193320 1.89620938 -0.00008855 0.00000000
4.33413857 1.22581679 -0.00070443 0.00000000
3.27258539 1.94200790 -0.00223344 0.00000000
4.21006119 2.08080364 0.00154016 0.00000000
4.33577743 1.39114170 -0.00411168 0.00000000
2.07519449 1.01810342 0.00075593 0.00000000
2.37407000 0.75451582 -0.00034717 0.00000000
1.25390160 0.74082611 0.00258163 0.00000000
1.43840567 1.91001677 -0.00335362 0.00000000
0.42021240 0.66790859 -0.00001783 0.00000000
1.88762928 1.04880784 -0.00184776 0.00000000
2.63202315 0.63037750 0.00193995 0.00000000
4.26139768 0.47443321 -0.00302596 0.00000000
2.39605321 0.91676114 0.00101364 0.00000000
3.29592523 0.14608307 -0.00354236 0.00000000
1.13702027 1.82539606 -0.00252288 0.00000000
2.87546898 1.78671235 0.00119396 0.00000000
1.15102432 0.71696776 0.00101071 0.00000000
1.63502092 0.44643722 -0.00079108 0.00000000
3.34771370 1.70040701 0.00096444 0.00000000
1.22134565 1.74794085 -0.00180136 0.00000000
2.66369510 0.01617860 0.00606870 0.00000000
1.91017943 1.32831084 -0.00651769 0.00000000
3.70003997 0.41091959 0.00081857 0.00000000
4.14633028 0.67093998 0.00053329 0.00000000
2.50608024 2.16436989 -0.00179574 0.00000000
1.50530393 0.96421288 0.00100878 0.00000000
3.44926246 0.87616475 0.00289335 0.00000000
4.28517723 2.14795646 0.00483705 0.00000000
4.30263251 1.11429292 -0.00096559 0.00000000
3.58110546 1.18884182 -0.00169196 0.00000000
1.47407214 0.33284458 -0.00047997 0.00000000
3.62894504 1.96549372 -0.00410624 0.00000000
3.22331474 1.84144096 -0.00120315 0.00000000
0.24064355 1.98558353 -0.00412565 0.00000000
1.97144447 0.51454590 -0.00165919 0.00000000
2.64195431 1.29211144 -0.00348266 0.00000000
3.29645121 0.76762642 -0.00381123 0.00000000
1.85812672 1.62963456 0.00102200 0.00000000
0.81971153 0.18563653 -0.00204458 0.00000000
2.57470640 1.76790936 -0.00477067 0.00000000
4.04680093 0.17857683 -0.00184469 0.00000000
2.68151509 1.86578268 0.00225700 0.00000000
2.89730084 1.42380097 -0.00062822 0.00000000
4.40299748 1.78632127 -0.00038986 0.00000000
2.37880714 0.64909377 -0.00130772 0.00000000
1.05440741 1.59015542 0.00150337 0.00000000
2.40597808 0.79404908 -0.00186487 0.00000000
0.29096688 0.72038208 0.00080989 0.00000000
0.73990654 2.30643815 -0.00233452 0.00000000
0.34956083 0.39227990 0.00238572 0.00000000
0.27946894 1.85436055 0.00450320 0.00000000
4.23095602 1.73616610 -0.00015415 0.00000000
2.38138373 1.54286722 0.00093568 0.00000000
4.32363167 2.12901310 -0.00050361 0.00000000
0.94245087 1.46683841 0.00542995 0.00000000
2.89681266 2.39278955 -0.00085753 0.00000000
3.54412474 2.05320583 0.00183563 0.00000000
1.05965580 2.11494332 0.00087926 0.00000000
3.53597192 1.05662464 0.00210763 0.00000000
3.95785218 1.78936681 0.00186580 0.00000000
1.79877770 1.04704822 -0.00259117 0.00000000
1.11995139 0.85269976 0.00171411 0.00000000
3.06364627 0.78239986 -0.00206125 0.00000000
0.45789588 0.04461952 -0.00210043 0.00000000
3.92246289 1.50372909 -0.00371466 0.00000000
0.83707144 2.24727292 0.00265814 0.00000000
4.04454970 0.09619344 0.00005877 0.00000000
4.30493734 0.33269944 -0.00052274 0.00000000
1.00371242 1.53268165 -0.00104477 0.00000000
1.76220438 1.93073367 -0.00022779 0.00000000
0.80134123 0.09532119 -0.00014171 0.00000000
3.61657868 0.66346009 -0.00186280 0.00000000
3.49413236 1.75379698 -0.00066134 0.00000000
1.17440366 0.14547114 0.00627936 0.00000000
3.88986859 0.79023283 -0.00175320 0.00000000
1.73919094 1.01919656 -0.00028691 0.00000000
3.99023794 0.80659400 -0.00329877 0.00000000
3.09728872 1.34980593 -0.00001769 0.00000000
2.31621474 1.18465587 0.00429701 0.00000000
0.27558079 2.03475059 -0.00182085 0.00000000
1.29469996 1.03938279 -0.00649461 0.00000000
0.77838450 0.46921851 -0.00247820 0.00000000
4.37392469 1.36493584 0.00172958 0.00000000
0.87831781 0.87251947 -0.00278872 0.00000000
0.15920167 2.27172392 0.00131433 0.00000000
2.75419524 2.32623098 -0.00285418 0.00000000
2.95574755 2.05389630 -0.00398510 0.00000000
1.34577389 1.79699800 -0.00066078 0.00000000
0.49657031 0.96407666 0.00224584 0.00000000
0.90730165 1.16600558 -0.00729782 0.00000000
0.65580856 0.24259148 -0.00031803 0.00000000
3.75487145 1.11159564 -0.00020334 0.00000000
1.06387088 1.52098358 0.00036416 0.00000000
2.61257170 0.96423486 0.00022509 0.00000000
2.77421358 0.98924453 0.00031702 0.00000000
1.37539605 2.26017679 -0.00170918 0.00000000
3.33173788 1.33830729 -0.00046581 0.00000000
4.13585992 1.32354261 0.00419782 0.00000000
3.88202616 0.45774028 0.00501771 0.00000000
2.34705561 0.93601088 0.00257804 0.00000000
2.04114599 0.46840352 -0.00208733 0.00000000
4.21969368 2.22092632 -0.00009462 0.00000000
0.88613832 2.18454526 -0.00186701 0.00000000
0.41313288 1.56118044 -0.00105374 0.00000000
2.56708546 1.79503918 0.00020899 0.00000000
2.91846968 1.78486715 -0.00063731 0.00000000
1.64701447 1.97824297 -0.00058103 0.00000000
3.25321425 1.34288582 -0.00029749 0.00000000
2.73444311 0.21075517 0.00244355 0.00000000
3.58290855 0.80709449 0.00549397 0.00000000
4.38062708 0.10589128 -0.00195381 0.00000000
0.82563248 1.08748383 0.00168139 0.00000000
4.22295771 2.20301928 -0.00046508 0.00000000
3.73405644 0.88666215 -0.00464217 0.00000000
0.82202048 1.90697419 0.00092557 0.00000000
1.30555943 0.57153496 -0.00226748 0.00000000
2.88293345 0.89417423 -0.00080478 0.00000000
0.23230462 1.21423629 -0.00117910 0.00000000
0.02107877 0.75540524 -0.00180492 0.00000000
2.07593532 1.82483224 -0.00067994 0.00000000
2.72042311 1.67640690 0.00301624 0.00000000
1.96367465 0.04337396 -0.00398288 0.00000000
2.61749013 1.69840955 0.00075333 0.00000000
1.27653152 0.77186470 0.00349946 0.00000000
1.66049513 0.10420385 -0.00097871 0.00000000
1.63361366 1.86003852 -0.00064838 0.00000000
1.72717122 2.31292280 0.00132016 0.00000000
1.32184878 0.42672508 0.00351149 0.00000000
1.42555110 2.38949477 0.00043990 0.00000000
3.26134791 1.83736975 0.00016082 0.00000000
0.38319679 1.04614644 -0.00021980 0.00000000
2.87343420 1.80978248 0.00106105 0.00000000
1.82536848 1.00179090 -0.00126415 0.00000000
1.70433771 0.99809267 -0.00167446 0.00000000
0.53713688 1.39568632 0.00065279 0.00000000
1.08473314 2.29889001 0.00434057 0.00000000
4.24930066 1.52755732 0.00437858 0.00000000
2.64998080 0.12723729 -0.00085479 0.00000000
0.79874647 0.32613770 -0.00449564 0.00000000
2.20578189 1.57450415 0.00245887 0.00000000
1.37122722 1.88110636 0.00169550 0.00000000
4.32851367 2.38552427 -0.00187408 0.00000000
2.18124659 1.15755490 0.00261660 0.00000000
1.65324419 1.71133522 0.00027819 0.00000000
2.88938902 1.52141744 -0.00168234 0.00000000
4.38123821 0.38758566 0.00316792 0.00000000
0.45548733 2.42035688 -0.00453136 0.00000000
0.89372163 0.30481959 -0.00455644 0.00000000
2.41891853 1.88603152 0.00253256 0.00000000
2.66701149 0.75337741 -0.00089445 0.00000000
0.79771706 0.98659023 0.00023763 0.00000000
3.52387582 0.65416335 0.00361902 0.00000000
3.70305543 1.11936529 -0.00028321 0.00000000
2.54632676 1.46401809 -0.00250122 0.00000000
3.30604356 0.09467253 0.00025483 0.00000000
2.38632350 1.17085649 -0.00457282 0.00000000
3.11285275 0.51899319 0.00023157 0.00000000
0.36361526 1.63092097 0.00034669 0.00000000
1.36480146 1.53122022 0.00312068 0.00000000
0.50500899 1.15115117 -0.00224551 0.00000000
0.56446460 0.44208977 0.00270263 0.00000000
3.96182554 0.27073276 -0.00035972 0.00000000
1.67097485 1.66969574 0.00156526 0.00000000
2.07128352 0.42074182 0.00065301 0.00000000
1.10404796 2.26430000 0.00538099 0.00000000
0.49244877 0.70198273 0.00062923 0.00000000
3.65886250 2.41958640 -0.00397181 0.00000000
1.04926718 0.33006908 0.00280086 0.00000000
3.22566465 0.84698320 0.00100801 0.00000000
2.26224474 0.99522180 0.00032963 0.00000000
0.09298819 1.49046604 -0.00251648 0.00000000
1.89076918 1.93412696 -0.00126926 0.00000000
4.00883741 2.33184493 -0.00196392 0.00000000
1.50703676 0.94259990 -0.00361520 0.00000000
3.69783474 2.11707517 0.00020485 0.00000000
2.14440933 0.05774755 -0.00071513 0.00000000
0.21996898 2.28549878 0.00189789 0.00000000
3.87276486 1.29677018 -0.00053981 0.00000000
1.59830064 0.40388117 -0.00022608 0.00000000
3.59809242 0.66479226 -0.00278761 0.00000000
0.39672160 1.37875008 0.00068277 0.00000000
1.68696152 1.06753142 0.00285948 0.00000000
4.35981997 2.15078965 0.00042618 0.00000000
4.27998290 0.05157293 0.00241117 0.00000000
1.71105828 0.40355128 0.00333409 0.00000000
0.49247145 0.38115659 0.00129396 0.00000000
2.22353754 1.13759791 -0.00105200 0.00000000
1.79569374 1.98623882 -0.00194417 0.00000000
1.91564233 1.74789791 -0.00116734 0.00000000
3.05823995 0.61340730 -0.00398032 0.00000000
3.93827637 0.41386713 0.00121467 0.00000000
2.23724660 1.74969316 0.00084160 0.00000000
3.86225339 0.73679556 0.00124244 0.00000000
1.85667875 2.36240670 0.00071684 0.00000000
0.19872174 0.95794820 0.00254704 0.00000000
1.15344171 0.19960268 -0.00229165 0.00000000
1.75654123 2.38584181 -0.00245980 0.00000000
2.82683420 0.42552710 -0.00453461 0.00000000
4.19836773 1.75952895 0.00285897 0.00000000
1.52343128 2.27638239 -0.00244787 0.00000000
0.81815315 2.06239377 -0.00030443 0.00000000
3.59432779 1.09297188 0.00377498 0.00000000
2.61358721 2.04883581 -0.00089960 0.00000000
0.01899648 0.87232764 -0.00270471 0.00000000
1.46727658 1.74894284 0.00136812 0.00000000
1.88196802 2.10273980 -0.00094155 0.00000000
1.63387814 1.29709741 -0.00310938 0.00000000
2.14509369 1.52181654 -0.00142149 0.00000000
0.69864654 0.83381631 0.00009843 0.00000000
1.60920104 2.08320470 -0.00099432 0.00000000
1.01393298 2.01927187 -0.00042664 0.00000000
4.11538008 1.91406926 0.00006244 0.00000000
4.33181707 0.21431234 0.00090045 0.00000000
2.97161974 2.39222925 0.00241553 0.00000000
4.09808990 1.48095324 -0.00105941 0.00000000
4.05640383 1.06137912 -0.00143878 0.00000000
0.54951509 0.10305188 0.00018643 0.00000000
3.26841257 0.75627367 0.00010237 0.00000000
3.78417133 2.06076826 -0.00062651 0.00000000
2.92013565 0.92145435 -0.00059036 0.00000000
1.23669770 0.73515038 -0.00182216 0.00000000
1.08521665 2.25003288 -0.00034029 0.00000000
3.29329125 1.39424932 0.00098807 0.00000000
3.45181385 1.57918059 -0.00006241 0.00000000
4.06728655 2.40350811 -0.00175666 0.00000000
3.03157276 0.85218767 -0.00210994 0.00000000
0.51943779 0.10379982 0.00186671 0.00000000
3.75781743 2.36892505 -0.00130717 0.00000000
2.77793320 0.18887394 -0.00227916 0.00000000
0.82509841 0.81767783 -0.00289427 0.00000000
3.50312145 0.15347661 -0.00063033 0.00000000
2.35008695 2.38906329 -0.00209875 0.00000000
2.70502529 1.73697493 -0.00014581 0.00000000
3.47486616 0.37410867 0.00128509 0.00000000
0.75280902 0.55385817 -0.00261185 0.00000000
2.72453954 0.60667988 -0.00429772 0.00000000
2.22328803 1.97109071 -0.00204261 0.00000000
1.92739472 0.15545774 -0.00025686 0.00000000
2.51679100 0.25286452 0.00082196 0.00000000
4.12067047 1.13165482 -0.00034271 0.00000000
2.75878544 1.52312008 -0.00074179 0.00000000
3.37794677 0.22910997 0.00206943 0.00000000
3.16249440 0.86549868 0.00095188 0.00000000
2.82018933 1.10630169 0.00086354 0.00000000
0.25291296 2.15417395 -0.00079580 0.00000000
0.10018966 1.29776549 0.00073666 0.00000000
1.76083345 0.19239822 0.00092931 0.00000000
0.77086210 1.10873966 0.00022528 0.00000000
1.88290129 0.06162084 -0.00611823 0.00000000
4.13407823 0.62609608 0.00177413 0.00000000
0.91884272 1.07561314 -0.00125541 0.00000000
1.63181334 0.05333071 -0.00115451 0.00000000
2.86729597 1.66216079 0.00146195 0.00000000
3.53774555 0.07041649 0.00100816 0.00000000
3.27063780 1.22254059 -0.00179903 0.00000000
0.73354812 0.15592388 0.00177724 0.00000000
0.07409849 0.56130372 -0.00232001 0.00000000
0.57095881 1.79184107 0.00379982 0.00000000
0.11207746 1.88536536 -0.00189682 0.00000000
1.54730884 0.66679701 0.00178726 0.00000000
1.42050287 0.44433150 0.00099759 0.00000000
3.98554250 0.68030133 0.00285891 0.00000000
2.20824367 0.18369660 0.00209735 0.00000000
3.78913999 0.97907085 -0.00217765 0.00000000
4.13571622 2.18584770 -0.00654947 0.00000000
2.93106449 0.04724543 -0.00204668 0.00000000
2.12243673 2.19138548 0.00280060 0.00000000
1.02857594 1.98212512 -0.00062060 0.00000000
1.42993365 2.30602745 -0.00188446 0.00000000
0.77412159 0.52723275 -0.00033051 0.00000000
2.10571392 2.37979553 -0.00413395 0.00000000
2.87750634 0.69431636 -0.00075504 0.00000000
2.39000051 1.76435093 -0.00058266 0.00000000
1.72680243 0.98672614 0.00200879 0.00000000
3.98108097 0.14843240 0.00210177 0.00000000
4.07050308 1.59027712 0.00102932 0.00000000
0.71970736 1.99160335 -0.00094014 0.00000000
3.94830835 2.31433446 -0.00171680 0.00000000
3.59857418 0.48636062 -0.00271089 0.00000000
2.59332447 0.21282119 0.00159022 0.00000000
2.31196093 1.18319089 0.00196700 0.00000000
3.81650906 0.44143602 0.00284750 0.00000000
0.38184256 0.41923773 0.00002519 0.00000000
4.35997359 0.36921271 -0.00376567 0.00000000
1.96312778 2.34811564 0.00123574 0.00000000
4.24794851 1.54069591 -0.00030440 0.00000000
3.17929051 1.51873199 -0.00082581 0.00000000
3.62666285 0.29704719 0.00267793 0.00000000
2.59822275 1.75205823 0.00059599 0.00000000
0.41125216 0.27014292 -0.00183455 0.00000000
1.81510146 1.29124654 -0.00365839 0.00000000
1.13372062 0.46064920 -0.00483974 0.00000000
0.68143685 1.29873893 -0.00097689 0.00000000
1.76290989 2.32721086 0.00094407 0.00000000
4.01897438 0.49269559 -0.00170533 0.00000000
0.04398240 1.55751072 -0.00063082 0.00000000
3.56402380 1.83672225 -0.00344960 0.00000000
1.35202309 1.94060739 0.00470530 0.00000000
3.14872622 0.24596435 -0.00134324 0.00000000
2.61214671 1.16516822 0.00377111 0.00000000
1.04166319 0.94007871 0.00371165 0.00000000
2.76797220 1.65528906 -0.00232202 0.00000000
3.72833730 0.18919065 -0.00010571 0.00000000
2.09023946 1.65033630 0.00450844 0.00000000
2.09064716 1.84251957 0.00102349 0.00000000
4.11808667 2.20613414 -0.00275801 0.00000000
0.27450730 0.93047249 -0.00000597 0.00000000
0.05213773 1.86576680 0.00217868 0.00000000
0.45780195 0.92178949 0.00071034 0.00000000
3.04249137 1.67808099 -0.00207162 0.00000000
2.51206215 0.73265980 -0.00305523 0.00000000
3.30184248 1.46461579 -0.00383372 0.00000000
3.59803559 0.88781901 -0.00256610 0.00000000
1.92751153 0.19779435 -0.00224856 0.00000000
3.65962001 2.38833120 -0.00369909 0.00000000
1.70789725 1.83534810 0.00189682 0.00000000
0.55899407 0.06998169 -0.00217599 0.00000000
3.07266067 1.73152519 0.00197246 0.00000000
3.20163728 1.40501834 0.00213336 0.00000000
3.56686510 0.81848894 -0.00194097 0.00000000
3.09098238 2.11571829 0.00141763 0.00000000
0.27629298 1.36429653 -0.00122682 0.00000000
2.26780785 0.16593025 0.00069723 0.00000000
3.60923583 0.39373470 -0.00156845 0.00000000
3.61556697 1.83869167 -0.00288370 0.00000000
1.32642947 1.70660736 0.00011285 0.00000000
1.83886260 2.15077567 -0.00069102 0.00000000
1.99982934 1.57608696 -0.00184957 0.00000000
3.26233099 1.69344275 0.00046158 0.00000000
1.14297877 1.15822498 -0.00286281 0.00000000
0.36971246 0.78666960 -0.00124512 0.00000000
1.38796793 0.61544907 -0.00204701 0.00000000
3.12987627 1.90771851 -0.00071942 0.00000000
3.24981448 0.60171956 0.00229091 0.00000000
2.41033625 0.18489014 -0.00300191 0.00000000
1.10542077 2.31195024 -0.00476528 0.00000000
2.41280072 1.32657698 0.00370392 0.00000000
2.07702071 0.29149012 -0.00033253 0.00000000
3.32036091 0.60216121 -0.00175177 0.00000000
3.24119540 1.05980001 0.00004847 0.00000000
2.12694298 0.68911177 0.00355033 0.00000000
4.20799934 0.35044177 0.00094476 0.00000000
1.84338420 1.36456629 -0.00124956 0.00000000
4.29511111 1.95654999 0.00258552 0.00000000
3.22367106 1.36809553 0.00301593 0.00000000
3.05753219 0.92417098 -0.00047643 0.00000000
2.04546163 1.03643160 -0.00205832 0.00000000
0.78063786 2.29081025 -0.00105068 0.00000000
1.68854611 0.60794454 0.00189000 0.00000000
0.45594411 1.01082423 -0.00337933 0.00000000
0.14302732 1.46568113 0.00308278 0.00000000
4.20065852 1.37009811 0.00056445 0.00000000
3.56077411 1.08235549 -0.00011729 0.00000000
3.37437275 1.47399675 0.00008205 0.00000000
0.37034524 0.09378828 0.00410286 0.00000000
1.94130167 2.35190325 -0.00348985 0.00000000
3.47200543 0.32860536 -0.00185969 0.00000000
2.03009898 2.06720341 -0.00154335 0.00000000
0.41805567 0.42983331 0.00122600 0.00000000
0.18486922 2.17666036 0.00045657 0.00000000
1.97789952 0.34677418 -0.00219175 0.00000000
2.24400279 0.23318695 0.00006624 0.00000000
1.48084586 1.95908644 -0.00596480 0.00000000
3.65874572 0.91847639 0.00040627 0.00000000
4.36377033 1.03981857 -0.00050871 0.00000000
3.56656857 0.88431062 0.00109698 0.00000000
3.14356768 2.19611387 0.00055903 0.00000000
1.22059510 1.22482185 0.00339603 0.00000000
1.47194805 0.54315320 -0.00255995 0.00000000
2.36992610 2.21050777 0.00234575 0.00000000
1.13178898 1.08817887 -0.00370540 0.00000000
3.48291315 0.01237838 0.00021882 0.00000000
1.97972834 1.00935500 0.00157052 0.00000000
1.66539963 0.76307635 0.00085790 0.00000000
1.87046676 0.89916780 0.00128532 0.00000000
1.52433132 0.71638833 0.00025287 0.00000000
0.51441052 1.32986780 -0.00027275 0.00000000
3.19710185 0.29526477 -0.00138942 0.00000000
0.95247575 1.68974173 0.00294905 0.00000000
2.42154465 0.91895864 0.00087387 0.00000000
1.47241807 2.08238661 0.00156836 0.00000000
1.03196237 0.45967086 -0.00344603 0.00000000
3.70917205 1.01352923 0.00356042 0.00000000
2.74995490 1.64450878 0.00201247 0.00000000
0.48670566 1.81704208 -0.00142845 0.00000000
2.26997709 2.35441671 -0.00000972 0.00000000
0.06707213 0.31626839 0.00054674 0.00000000
0.41325232 1.53124988 0.00043994 0.00000000
0.63870856 1.53136663 -0.00285521 0.00000000
2.95061799 0.33526923 -0.00008650 0.00000000
3.34471901 1.43370628 0.00065053 0.00000000
2.45447292 1.29626256 0.00056390 0.00000000
4.24562155 2.32505456 -0.00643493 0.00000000
0.09068514 0.47645924 -0.00363907 0.00000000
1.69861737 1.66643983 0.00131366 0.00000000
1.59706160 1.58228443 0.00397746 0.00000000
0.09003480 0.43180436 -0.00206037 0.00000000
3.62927052 1.65712182 -0.00000031 0.00000000
4.17916787 0.85732012 -0.00253224 0.00000000
0.76452266 1.85567259 -0.00173678 0.00000000
0.39683971 0.70578426 -0.00114857 0.00000000
0.98959198 0.60491767 -0.00340847 0.00000000
2.75119739 0.85102103 0.00310075 0.00000000
1.84467780 0.89900675 -0.00094941 0.00000000
3.79722802 1.84511760 0.00353244 0.00000000
1.03564325 0.74476974 -0.00079193 0.00000000
4.18991080 0.54982024 -0.00013153 0.00000000
1.42911881 1.90478464 0.00060076 0.00000000
2.75807481 0.64741624 0.00209904 0.00000000
2.61850537 0.39718291 -0.00342873 0.00000000
2.59577776 0.32383446 0.00466259 0.00000000
3.84852799 1.34279445 -0.00333207 0.00000000
3.50581513 1.10330607 0.00215271 0.00000000
1.80533262 1.77185581 0.00399114 0.00000000
1.68185887 1.38203918 -0.00091892 0.00000000
0.40690223 0.84056137 0.00123216 0.00000000
2.19876360 1.33127551 -0.00227724 0.00000000
0.08634186 0.92073743 0.00248730 0.00000000
4.06813011 1.92889890 -0.00003829 0.00000000
4.02218540 0.40185234 -0.00025420 0.00000000
0.99342314 2.21966530 0.00128109 0.00000000
0.93185835 1.99289565 0.00375678 0.00000000
2.83589232 1.40971514 0.00309300 0.00000000
0.41016693 0.91913486 -0.00086464 0.00000000
3.12178628 0.43300016 -0.00325604 0.00000000
2.61977703 1.16998938 0.00099225 0.00000000
0.90751138 0.91675512 0.00086365 0.00000000
3.29816815 1.13357176 -0.00028417 0.00000000
2.95030109 0.97725987 -0.00182469 0.00000000
4.17438281 1.66069434 0.00307159 0.00000000
0.04338745 0.49499007 -0.00032257 0.00000000
0.49058659 0.96925012 -0.00120400 0.00000000
3.83468688 1.26256256 -0.00029075 0.00000000
1.52835940 2.12244379 0.00186355 0.00000000
0.92526127 1.68164761 -0.00217463 0.00000000
3.53454628 1.03327014 0.00620766 0.00000000
4.09550045 1.88013795 0.00239092 0.00000000
1.14889040 2.24523807 0.00218762 0.00000000
3.67461224 0.44670374 0.00323458 0.00000000
1.13800895 0.56244521 0.00241431 0.00000000
0.75630861 1.94868350 0.00215293 0.00000000
3.03814084 2.02737502 -0.00128570 0.00000000
2.36675382 2.11920755 0.00173370 0.00000000
2.28533761 0.27367164 -0.00406419 0.00000000
0.08667005 0.95478808 0.00092194 0.00000000
3.20043010 0.10506227 0.00008553 0.00000000
2.04443747 1.65488403 0.00228926 0.00000000
0.60219177 1.23289408 -0.00169649 0.00000000
0.96014310 1.26038943 -0.00021084 0.00000000
3.26621014 0.41168087 -0.00236576 0.00000000
2.16402090 2.39591080 0.00282043 0.00000000
2.35752098 0.82282175 0.00061341 0.00000000
1.87463466 2.04605288 -0.00325486 0.00000000
4.27854655 0.28188724 -0.00359075 0.00000000
0.46673407 0.13646824 -0.00500741 0.00000000
2.78847481 0.34026973 0.00303134 0.00000000
0.11269041 0.40866003 0.00194327 0.00000000
2.42611975 2.01793507 0.00225918 0.00000000
1.42076367 1.26038707 -0.00152348 0.00000000
4.38181049 0.38324220 -0.00073463 0.00000000
1.69078680 1.49471619 0.00195809 0.00000000
4.40130588 0.41049424 0.00163707 0.00000000
3.31867939 0.62637616 0.00082515 0.00000000
2.41394614 0.01080172 -0.00147490 0.00000000
0.39663296 0.64799075 -0.00189900 0.00000000
1.70188126 2.17830052 0.00223929 0.00000000
3.73675868 2.05260405 0.00045259 0.00000000
1.84408785 2.23797661 -0.00240484 0.00000000
3.82619964 1.71621075 -0.00257807 0.00000000
1.99204720 1.78767340 -0.00160363 0.00000000
4.22796565 1.52021384 -0.00206252 0.00000000
2.27789481 1.14963733 0.00027936 0.00000000
4.31872643 1.06976207 0.00013852 0.00000000
3.54451010 1.38785818 0.00208562 0.00000000
4.14363811 0.32020909 0.00193192 0.00000000
2.50598083 1.02420337 -0.00069113 0.00000000
0.42093259 0.84201147 -0.00188413 0.00000000
1.35511921 0.62310874 -0.00166924 0.00000000
1.47702593 1.63545229 -0.00230939 0.00000000
2.31068474 1.20374750 0.00017458 0.00000000
1.77492075 0.75226617 -0.00133740 0.00000000
2.48480258 2.26135220 -0.00370009 0.00000000
2.53882979 0.68955310 0.00066143 0.00000000
0.59921597 2.37255926 -0.00259743 0.00000000
0.44283695 0.54366128 0.00049307 0.00000000
0.73394819 0.12330346 0.00162795 0.00000000
3.91797097 1.24392933 0.00137866 0.00000000
3.97651772 1.31760456 0.00464347 0.00000000
0.78474110 1.44165818 0.00011238 0.00000000
3.96707604 1.97882619 -0.00208296 0.00000000
4.23519263 1.45242373 -0.00154038 0.00000000
3.64818172 2.27896450 -0.00143555 0.00000000
1.13115083 0.62232417 0.00522892 0.00000000
2.79433108 0.47761755 -0.00295262 0.00000000
3.84390273 0.90423194 0.00037176 0.00000000
3.41569086 1.07435129 -0.00169761 0.00000000
2.23775053 0.66422654 -0.00504108 0.00000000
4.31466594 1.43799616 -0.00196314 0.00000000
1.45598930 0.28209215 0.00075776 0.00000000
1.16370060 1.96893854 0.00131926 0.00000000
0.19967330 0.99945512 0.00099846 0.00000000
3.93850827 2.01078827 -0.00147828 0.00000000
2.79266412 1.21576316 -0.00126671 0.00000000
2.33917144 1.88565190 0.00050068 0.00000000
3.44149718 1.65918361 -0.00145541 0.00000000
0.71845677 0.73157881 0.00317538 0.00000000
1.68687016 2.28972256 -0.00283046 0.00000000
1.25947357 2.09825767 0.00069165 0.00000000
3.39801491 1.15860379 0.00101052 0.00000000
1.23713652 1.78629189 -0.00217450 0.00000000
4.27175219 0.97170944 0.00207071 0.00000000
3.17283438 2.23142061 -0.00346017 0.00000000
1.27493700 1.56807063 -0.00070574 0.00000000
0.95920521 2.15671085 0.00609252 0.00000000
2.97318971 2.00960925 0.00061963 0.00000000
3.22623166 2.10158319 -0.00284782 0.00000000
0.06546900 1.20129560 0.00403430 0.00000000
0.84211278 0.08735868 -0.00519732 0.00000000
1.59354366 2.24379261 0.00026355 0.00000000
1.52259269 0.35682046 0.00322016 0.00000000
1.51974364 2.40120980 -0.00037382 0.00000000
3.94272246 0.80007843 0.00014761 0.00000000
0.06214672 0.91292188 0.00083750 0.00000000
1.22313864 0.98746395 -0.00035715 0.00000000
1.72534341 1.01936368 -0.00191389 0.00000000
1.00218034 2.15147155 -0.00162087 0.00000000
1.38963185 1.73207990 0.00421080 0.00000000
0.86512837 0.36142269 -0.00022473 0.00000000
0.84493150 0.67256053 0.00058487 0.00000000
1.87342633 0.53331614 0.00156110 0.00000000
0.13368279 0.28442470 -0.00042897 0.00000000
3.27525545 0.05904244 0.00276499 0.00000000
1.36887932 1.68292846 0.00063512 0.00000000
0.01102171 0.47394254 0.00205987 0.00000000
0.41185898 0.34549608 -0.00126072 0.00000000
2.82847390 0.32771694 0.00077145 0.00000000
3.05740666 0.56831018 0.00448092 0.00000000
1.95876863 1.96705743 -0.00144850 0.00000000
2.40638056 1.40247227 -0.00089966 0.00000000
1.25444167 0.13472064 -0.00218388 0.00000000
1.33374537 0.93823791 0.00038013 0.00000000
1.88712121 0.76846274 -0.00081829 0.00000000
4.25905574 1.86602151 -0.00278544 0.00000000
1.22913250 2.04647401 -0.00050967 0.00000000
1.14360693 0.70698732 -0.00520670 0.00000000
1.29241190 1.98853766 0.00158130 0.00000000
0.81297835 1.35366911 -0.00057406 0.00000000
1.09450355 0.07386739 -0.00262630 0.00000000
1.62432218 1.90290307 0.00302164 0.00000000
2.96093559 0.76884068 0.00311558 0.00000000
3.44655209 2.04032231 0.00214858 0.00000000
3.19172476 0.39842623 0.00022434 0.00000000
0.56030309 1.36513841 -0.00092760 0.00000000
3.65237802 1.07330815 -0.00209262 0.00000000
1.99447573 2.06657462 0.00052236 0.00000000
3.04995985 0.44489786 0.00384699 0.00000000
0.83684143 1.69047755 -0.00158539 0.00000000
4.25310553 1.33499133 -0.00215855 0.00000000
3.16342375 2.40355235 -0.00393437 0.00000000
0.27130729 0.34007981 0.00482570 0.00000000
1.41760874 0.85205208 0.00067254 0.00000000
3.72548421 1.50182389 -0.00000006 0.00000000
4.00330704 0.90775869 -0.00055899 0.00000000
0.08452747 1.40700830 0.00168804 0.00000000
3.04774925 2.35704149 0.00448963 0.00000000
3.65983127 0.46016956 0.00459748 0.00000000
3.83411482 2.13273774 0.00251310 0.00000000
4.13086706 2.08542214 0.00460760 0.00000000
1.08822155 2.00797000 -0.00230174 0.00000000
3.24924442 0.31179752 -0.00469278 0.00000000
3.04598871 1.07089172 -0.00200244 0.00000000
3.75662304 0.89826432 -0.00044972 0.00000000
3.16389960 1.90508617 -0.00135484 0.00000000
0.19100656 0.33440584 0.00401289 0.00000000
1.80979640 0.73506600 0.00123836 0.00000000
4.07117164 1.14912794 -0.00352215 0.00000000
2.51347990 1.61451416 -0.00525427 0.00000000
0.10142129 1.39105519 -0.00333049 0.00000000
2.20213451 0.42324417 0.00093184 0.00000000
0.62332404 1.26541198 -0.00050788 0.00000000
2.40931432 0.10854259 -0.00176355 0.00000000
2.38449988 0.29638790 -0.00380356 0.00000000
3.50010561 0.05884206 0.00221037 0.00000000
0.30915004 0.67817325 0.00369442 0.00000000
1.82675378 1.27249501 0.00008966 0.00000000
1.89529376 0.42734049 -0.00058195 0.00000000
1.81986793 0.32387378 0.00489087 0.00000000
0.00268615 1.35398729 0.00260415 0.00000000
0.69058630 0.34424187 -0.00188632 0.00000000
1.22376961 0.91076400 -0.00129665 0.00000000
2.34877231 0.02645781 -0.00140352 0.00000000
3.04896556 1.26251803 0.00120794 0.00000000
4.03940054 2.11759837 -0.00354780 0.00000000
2.94529309 0.78040008 0.00223891 0.00000000
4.41023952 1.61673540 0.00093398 0.00000000
2.47882175 1.36313253 -0.00146505 0.00000000
1.27034842 0.89078493 -0.00180009 0.00000000
4.08615388 0.16206491 -0.00197403 0.00000000
3.55685440 1.72522849 -0.00222675 0.00000000
3.91319659 1.12859451 -0.00048422 0.00000000
0.05394721 0.92010184 -0.00320031 0.00000000
1.90013953 0.42561325 0.00263865 0.00000000
4.03018514 0.20768238 0.00068033 0.00000000
1.76392622 1.29213205 0.00034373 0.00000000
4.23308615 0.05899348 -0.00401344 0.00000000
4.12474118 0.62230869 0.00025377 0.00000000
3.73851237 1.88150559 0.00048155 0.00000000
3.72191149 1.44164212 -0.00028141 0.00000000
2.65796739 1.47993445 -0.00157844 0.00000000
3.26007650 0.02936190 0.00028704 0.00000000
2.69608797 2.07149070 -0.00021060 0.00000000
4.35516477 1.90637451 0.00020463 0.00000000
1.54050196 1.48527416 0.00294712 0.00000000
3.36114742 0.96180209 0.00119237 0.00000000
4.28739611 1.93778279 0.00213671 0.00000000
3.93743303 1.57438962 -0.00342855 0.00000000
1.34717063 0.08870502 -0.00024001 0.00000000
0.40485721 2.08151937 -0.00152418 0.00000000
0.29306432 1.11921435 -0.00019505 0.00000000
1.33123678 1.77507915 0.00007378 0.00000000
2.04825138 1.66926939 0.00311689 0.00000000
2.14129885 0.34444850 -0.00155451 0.00000000
1.78927453 2.21998698 -0.00153696 0.00000000
1.62566389 0.62410927 -0.00180228 0.00000000
4.29970970 0.22710496 0.00092911 0.00000000
2.12093602 1.04251874 0.00025053 0.00000000
2.22888589 0.27927768 0.00039252 0.00000000
2.41947958 2.13293295 -0.00353434 0.00000000
0.46361706 1.05216830 -0.00085953 0.00000000
3.77104544 0.83242204 0.00000994 0.00000000
3.50371777 0.56533783 0.00018288 0.00000000
0.70165322 1.10034470 -0.00207993 0.00000000
0.41865760 1.13702589 0.00040490 0.00000000
3.33418432 1.53168607 -0.00223342 0.00000000
3.35780693 0.09831005 0.00367102 0.00000000
2.24297948 0.83548925 0.00100783 0.00000000
3.91411990 1.53916654 0.00080799 0.00000000
0.72645028 0.19895585 -0.00149233 0.00000000
0.51386876 1.34591142 0.00221612 0.00000000
1.76124010 1.84452841 -0.00125060 0.00000000
0.31185923 1.20743325 -0.00580581 0.00000000
3.76360738 1.80352995 0.00705565 0.00000000
0.10028270 0.08293327 -0.00271595 0.00000000
1.35487980 2.34898381 0.00099400 0.00000000
2.84478420 0.61996453 -0.00143244 0.00000000
1.43906395 0.34632469 -0.00110911 0.00000000
2.38430731 0.95977622 -0.00406176 0.00000000
1.61226367 2.23558444 0.00239761 0.00000000
1.56029335 0.13788941 0.00027823 0.00000000
3.39371932 2.02452351 -0.00141422 0.00000000
4.33739535 2.03414562 0.00170447 0.00000000
2.68944231 2.13556478 -0.00200156 0.00000000
3.06040793 0.77088767 -0.00415858 0.00000000
1.58546275 0.45365706 -0.00398547 0.00000000
1.87763123 2.08238952 0.00001153 0.00000000
0.41150226 1.74083877 -0.00245257 0.00000000
0.53865610 2.10483407 -0.00226990 0.00000000
2.84356283 1.39347706 -0.00106730 0.00000000
1.71056627 1.01599884 0.00225511 0.00000000
2.54665669 0.86412139 0.00045605 0.00000000
1.77352351 0.89282333 -0.00062815 0.00000000
1.33628744 0.09588554 -0.00409738 0.00000000
3.65875224 0.95869312 0.00301906 0.00000000
2.82234064 1.74828301 0.00133996 0.00000000
0.83640480 2.13328029 -0.00026354 0.00000000
3.74975554 1.12800417 -0.00484731 0.00000000
2.14832248 1.51973066 -0.00017683 0.00000000
1.30201143 2.00229244 0.00482269 0.00000000
1.38513699 0.33457506 -0.00009647 0.00000000
4.32574889 1.40598404 -0.00281436 0.00000000
0.98237973 2.19743962 0.00605706 0.00000000
4.35640569 0.94111983 0.00243674 0.00000000
0.85533717 0.62356737 0.00048942 0.00000000
3.53688595 2.11782985 -0.00604342 0.00000000
4.14974458 1.56158128 0.00017087 0.00000000
2.27888004 1.86092235 -0.00158621 0.00000000
3.08961192 1.89958771 0.00475749 0.00000000
4.23501897 0.40170307 0.00117408 0.00000000
2.04481626 0.92973954 -0.00179863 0.00000000
3.84758915 0.76724351 0.00530281 0.00000000
2.56825834 1.32980813 -0.00273638 0.00000000
0.28961460 0.55488281 -0.00107481 0.00000000
0.82151062 1.91589240 -0.00533977 0.00000000
0.97237353 0.16028133 -0.00928455 0.00000000
1.36255661 1.08581165 -0.00135924 0.00000000
3.03817004 2.21727650 0.00011117 0.00000000
2.38677221 1.07634342 0.00333526 0.00000000
1.08339581 0.99384772 0.00163781 0.00000000
3.30450666 0.71785075 -0.00087044 0.00000000
0.67630041 2.18106007 -0.00126355 0.00000000
0.46134403 2.02660287 -0.00134548 0.00000000
0.85946680 0.76676707 -0.00543947 0.00000000
3.56696064 1.26887296 0.00238880 0.00000000
3.27493243 0.83235435 0.00071765 0.00000000
3.92068084 1.34047035 0.00125677 0.00000000
1.69679664 1.70696199 -0.00101457 0.00000000
1.08226891 1.27926714 0.00106710 0.00000000
1.75881495 1.10460527 0.00294828 0.00000000
0.99616782 1.70836948 -0.00281829 0.00000000
4.07820596 0.42588919 -0.00394499 0.00000000
0.03700476 0.25329418 0.00511826 0.00000000
3.33294655 0.90742454 -0.00387432 0.00000000
2.64266226 1.13598274 0.00166236 0.00000000
2.07542345 0.20288390 -0.00233042 0.00000000
1.36548639 1.61433044 -0.00240778 0.00000000
2.65735592 0.32036869 -0.00182851 0.00000000
3.47254417 2.07428589 -0.00611377 0.00000000
0.82321735 1.36931186 0.00081626 0.00000000
0.16543235 0.98998996 0.00425391 0.00000000
1.59049786 1.50895053 -0.00009344 0.00000000
1.98927590 1.12346208 -0.00026974 0.00000000
2.16011517 0.17572793 0.00099846 0.00000000
1.99178409 2.03810709 -0.00082601 0.00000000
2.06966421 0.72377960 -0.00143456 0.00000000
2.93912910 1.58045202 0.00515956 0.00000000
2.47460508 1.18345689 0.00011465 0.00000000
4.31646092 0.27981795 -0.00272930 0.00000000
0.62293146 1.32289658 -0.00252078 0.00000000
0.52897214 2.18235269 -0.00258047 0.00000000
1.33923733 1.41449338 -0.00150104 0.00000000
2.35710845 0.63726775 -0.00046651 0.00000000
3.61518470 0.12231066 -0.00188508 0.00000000
3.08670507 1.52618419 0.00166296 0.00000000
2.83993567 1.49884796 0.00058933 0.00000000
4.13986702 1.68711981 0.00100370 0.00000000
1.67918692 0.64580385 -0.00091972 0.00000000
4.29997604 1.13707901 -0.00301281 0.00000000
1.73446868 1.85338651 -0.00300164 0.00000000
1.80771343 1.50309233 -0.00305999 0.00000000
0.00935909 0.16405514 -0.00864813 0.00000000
3.03807457 0.64144331 0.00033271 0.00000000
2.61674218 1.09633013 -0.00241564 0.00000000
1.34006118 2.37724253 0.00497867 0.00000000
1.99194970 0.13741044 0.00099830 0.00000000
3.73402520 0.60914049 0.00191171 0.00000000
2.11778595 1.87138610 -0.00434816 0.00000000
0.33422144 1.81753968 -0.00388674 0.00000000
1.97206941 0.37871526 -0.00384574 0.00000000
3.76743105 1.98405141 -0.00007895 0.00000000
0.58328701 1.79609545 -0.00017544 0.00000000
3.11343424 1.72558058 -0.00298552 0.00000000
1.77898941 2.07405678 -0.00007664 0.00000000
1.44243109 0.92242539 0.00000662 0.00000000
