0.462982 1.319594 0.000221 0.0
1.487385 0.287830 -0.000387 0.0
0.311445 1.640976 -0.007311 0.0
0.515454 0.684089 0.003319 0.0
1.860387 0.711399 -0.001365 0.0
0.639764 1.406074 0.000693 0.0
4.096920 0.736957 -0.000333 0.0
2.330509 1.824121 -0.001252 0.0
0.916819 1.711795 -0.000301 0.0
3.727883 1.007997 0.001838 0.0
2.367227 1.642606 -0.003856 0.0
1.518584 0.811117 0.001209 0.0
1.002093 0.583401 -0.001367 0.0
0.014954 0.019595 0.003520 0.0
1.198052 1.414281 0.004108 0.0
2.134574 0.391686 -0.004579 0.0
1.496656 1.209064 0.000477 0.0
3.090835 1.070690 0.000618 0.0
1.893548 1.071343 -0.001882 0.0
2.332817 1.247274 -0.001574 0.0
0.917315 0.804778 0.000736 0.0
0.577014 1.542363 0.001325 0.0
1.110002 0.277216 0.000334 0.0
0.919000 1.078596 0.001159 0.0
3.173030 0.371501 0.001508 0.0
4.246553 1.203292 -0.004992 0.0
3.730274 0.015121 0.003655 0.0
2.771142 0.543996 0.001996 0.0
1.082660 1.544284 0.000607 0.0
3.539507 1.462673 -0.001409 0.0
3.564247 0.977824 -0.000093 0.0
3.287738 1.276662 -0.002207 0.0
1.870971 1.565845 -0.000982 0.0
1.166377 1.336898 -0.002045 0.0
0.846169 1.193372 -0.000232 0.0
3.845545 0.806271 0.002657 0.0
1.633191 1.489435 -0.003177 0.0
3.916418 1.190341 -0.001056 0.0
1.487088 0.327426 -0.000988 0.0
0.326569 1.507513 -0.000778 0.0
3.707903 0.936783 0.002315 0.0
3.128483 0.754975 -0.000574 0.0
2.742583 0.855252 -0.001381 0.0
4.546064 1.304114 -0.001187 0.0
1.203140 0.481085 -0.000712 0.0
3.058524 1.491490 -0.000519 0.0
3.282377 1.142380 -0.001919 0.0
2.982763 0.840533 0.000839 0.0
3.715883 1.272197 0.000451 0.0
4.106601 0.979419 -0.002341 0.0
2.365595 0.263877 -0.000654 0.0
2.431166 0.728748 -0.001127 0.0
0.554100 0.500169 -0.005935 0.0
4.192064 1.214742 0.002689 0.0
0.231129 0.252876 -0.000267 0.0
1.594491 1.638181 0.000405 0.0
3.143224 0.520029 0.000349 0.0
3.756794 0.830592 0.004097 0.0
0.818886 1.470643 -0.004439 0.0
0.692961 0.092598 -0.000763 0.0
2.132112 1.011510 -0.001232 0.0
0.850193 0.886420 -0.001487 0.0
1.456403 1.124962 -0.004919 0.0
0.998004 1.573030 0.000651 0.0
1.181104 1.458289 -0.001033 0.0
1.867098 0.745372 -0.002164 0.0
3.166835 0.614609 -0.000582 0.0
4.219910 0.725348 -0.003100 0.0
2.385462 0.854854 0.001105 0.0
3.752137 1.099242 0.002464 0.0
0.305204 0.288291 -0.000166 0.0
2.903993 1.719049 0.000690 0.0
4.564981 0.463651 0.001721 0.0
1.813803 1.198545 0.000118 0.0
4.362972 1.403908 0.001615 0.0
1.477447 0.851977 0.001162 0.0
4.055656 0.539664 0.000221 0.0
2.842583 1.166423 -0.002160 0.0
0.703624 0.566032 -0.000782 0.0
2.936590 1.096373 0.000587 0.0
2.292376 1.254384 -0.001944 0.0
0.744843 1.792437 0.000990 0.0
0.419681 0.145587 -0.000964 0.0
0.185699 0.895333 -0.000059 0.0
2.815201 0.847863 -0.000474 0.0
1.128160 1.768648 0.001209 0.0
4.284437 0.555199 0.000446 0.0
0.590422 0.431428 -0.002116 0.0
3.074380 0.612018 -0.002284 0.0
4.291928 0.659811 -0.001025 0.0
0.843782 1.046202 0.001682 0.0
2.675022 0.764742 0.001800 0.0
2.181442 0.399693 -0.007586 0.0
3.746394 0.694653 0.002641 0.0
2.988632 0.659311 0.000489 0.0
0.610927 0.869667 -0.000856 0.0
1.449105 1.373095 0.000506 0.0
4.023443 0.588279 0.002244 0.0
2.647975 0.263249 -0.000238 0.0
1.445750 0.477330 -0.002284 0.0
1.006924 1.477641 -0.000784 0.0
2.931527 1.079388 -0.002896 0.0
0.375254 0.708917 0.003398 0.0
3.803150 0.545620 0.000168 0.0
0.927086 1.389473 -0.001411 0.0
0.153034 1.010178 0.000481 0.0
0.917861 1.738896 -0.002346 0.0
1.260483 0.279497 0.001325 0.0
3.604318 0.236559 0.000111 0.0
0.953790 0.724660 -0.001271 0.0
4.140415 1.021297 -0.000203 0.0
4.091433 1.270269 0.004534 0.0
0.542904 1.587555 0.001950 0.0
1.804115 0.809385 0.001520 0.0
3.546570 0.201618 -0.000357 0.0
3.605636 1.822543 -0.001133 0.0
1.192101 0.287789 0.001126 0.0
4.374715 0.874811 -0.004310 0.0
0.052401 0.707228 0.000013 0.0
0.229721 1.663074 -0.001518 0.0
3.087427 1.095529 -0.000603 0.0
0.533777 0.017704 -0.003333 0.0
0.983281 1.041587 -0.000683 0.0
3.780099 1.405439 0.001802 0.0
3.373301 0.290040 -0.000451 0.0
1.773983 0.488918 -0.001095 0.0
1.702630 1.338922 -0.003459 0.0
1.771511 1.182746 0.001147 0.0
1.133970 1.586358 -0.003775 0.0
0.065509 1.268051 -0.001056 0.0
1.626988 1.374693 0.000039 0.0
2.833069 1.000238 -0.002048 0.0
3.499697 1.825661 -0.000666 0.0
2.232719 0.836368 0.003643 0.0
1.339411 0.395127 -0.000550 0.0
1.990348 1.243116 0.000364 0.0
1.269255 1.121688 -0.002642 0.0
3.807974 1.759944 0.000216 0.0
1.179488 0.876756 0.001616 0.0
1.938410 1.327867 0.000077 0.0
1.147653 1.280597 0.000351 0.0
4.292281 1.736855 -0.000965 0.0
1.763607 0.631542 0.002286 0.0
3.190444 1.223642 -0.003244 0.0
0.374276 1.143285 -0.000972 0.0
1.582646 0.863711 0.000304 0.0
3.950590 1.651311 0.004529 0.0
4.327993 1.777350 -0.003004 0.0
0.807717 0.489882 -0.003041 0.0
0.142437 0.350799 -0.000148 0.0
4.331658 1.567307 -0.002127 0.0
0.583398 0.414656 0.001989 0.0
3.405852 1.128781 -0.000680 0.0
2.598092 0.220428 0.000145 0.0
1.526314 1.828624 -0.001123 0.0
3.264854 1.506432 -0.000538 0.0
0.820124 1.037123 -0.003054 0.0
1.513815 0.257897 -0.000018 0.0
4.373377 1.120473 -0.002404 0.0
1.192944 0.434101 0.001050 0.0
4.547067 0.560249 0.000804 0.0
2.014679 1.377812 -0.003631 0.0
3.298104 1.287622 -0.003227 0.0
3.885301 0.256240 -0.002249 0.0
2.563606 1.459264 -0.003772 0.0
3.653153 1.349493 0.002264 0.0
1.794346 0.120081 0.001798 0.0
1.405786 1.788272 0.002637 0.0
1.134166 0.806749 -0.003796 0.0
0.539506 0.621821 0.001401 0.0
4.282010 1.525597 -0.004199 0.0
2.781709 0.767745 0.001358 0.0
1.266486 1.210311 -0.000918 0.0
2.418508 0.510386 -0.002072 0.0
3.195309 1.687149 -0.001681 0.0
4.184518 0.423233 0.003400 0.0
3.403584 1.603174 0.000055 0.0
0.878318 0.977904 0.001735 0.0
2.493959 0.469485 0.003693 0.0
0.888868 1.143164 -0.002725 0.0
1.762679 1.371280 0.002431 0.0
0.238244 0.567457 -0.002074 0.0
4.509084 1.481340 -0.000189 0.0
0.189936 0.302336 0.001760 0.0
1.084725 0.905904 -0.004096 0.0
1.069892 0.675087 0.005579 0.0
3.198365 1.038137 -0.000752 0.0
4.230207 1.567378 -0.001072 0.0
1.933663 0.774508 -0.001572 0.0
1.183648 1.408169 0.000351 0.0
2.720356 0.575312 -0.000459 0.0
4.515055 0.520941 0.000028 0.0
0.629939 1.368954 -0.000397 0.0
0.518494 0.099161 -0.001672 0.0
2.954713 0.034653 -0.001598 0.0
1.857435 0.880803 -0.000163 0.0
2.226122 0.765232 0.002564 0.0
2.505594 0.077328 0.004847 0.0
3.991441 1.072034 -0.000584 0.0
1.158401 1.824936 -0.000573 0.0
0.535771 1.376395 -0.000653 0.0
0.975861 0.101803 -0.000844 0.0
0.405644 0.257583 0.000575 0.0
1.021649 1.868257 -0.000411 0.0
1.882316 1.429212 0.002377 0.0
2.894010 0.058643 -0.003609 0.0
3.759131 1.645282 -0.005099 0.0
2.312430 0.773846 -0.000539 0.0
2.546583 1.669728 -0.000559 0.0
4.043529 0.381562 -0.003102 0.0
1.365238 1.638033 -0.000002 0.0
3.168238 0.282866 -0.004490 0.0
1.586781 1.838504 -0.000291 0.0
0.413887 1.036861 -0.001779 0.0
3.929163 0.900208 0.000841 0.0
0.029357 1.809076 -0.002631 0.0
1.388807 0.968861 0.001817 0.0
3.657255 1.149930 -0.000189 0.0
0.841394 0.149060 -0.001697 0.0
1.183923 0.705367 -0.001615 0.0
3.259818 0.082173 -0.000321 0.0
2.032720 0.253241 -0.001088 0.0
1.276191 0.179639 -0.001021 0.0
4.453409 0.035691 0.001856 0.0
0.655393 0.485771 0.003851 0.0
4.073103 0.807136 -0.001081 0.0
2.099395 0.830712 -0.001040 0.0
4.470941 1.110443 0.001188 0.0
2.430347 0.113152 -0.001158 0.0
3.595090 1.580625 0.004110 0.0
1.005895 1.790313 0.002396 0.0
0.659864 0.098200 0.001723 0.0
3.325563 1.516580 0.001105 0.0
2.053647 0.066879 -0.004432 0.0
0.814095 0.535012 -0.000592 0.0
3.978620 1.377388 -0.005636 0.0
3.644893 0.663287 -0.002652 0.0
0.985007 0.832448 -0.000708 0.0
2.681426 0.649183 0.003653 0.0
3.232045 0.877692 -0.002043 0.0
2.552525 0.357382 -0.003060 0.0
4.169221 0.859214 -0.007685 0.0
4.238706 0.784606 -0.002327 0.0
2.004975 0.244889 0.001974 0.0
3.377603 0.564158 0.003145 0.0
0.418746 0.113175 -0.000024 0.0
4.160038 0.984514 0.002013 0.0
3.839756 0.667141 0.001177 0.0
4.354739 1.135561 0.005839 0.0
0.895324 1.583764 0.000947 0.0
2.423565 1.101441 -0.001951 0.0
3.825668 0.294898 -0.001819 0.0
3.261936 0.386481 0.000813 0.0
0.491200 0.156738 0.001866 0.0
0.987039 0.445166 0.000081 0.0
0.866721 0.366560 -0.001015 0.0
3.749079 0.534847 0.001573 0.0
3.287851 0.925134 -0.003264 0.0
0.783157 0.192172 -0.000272 0.0
0.222872 0.111573 -0.002430 0.0
0.055495 1.400398 -0.000529 0.0
3.741704 1.414304 -0.001035 0.0
0.259376 1.655053 0.004691 0.0
4.542683 0.893855 -0.001320 0.0
4.080176 0.558013 -0.002093 0.0
1.005312 0.264436 0.001438 0.0
2.316419 1.535603 0.002197 0.0
0.270597 0.976597 -0.002309 0.0
2.602578 0.771318 -0.002254 0.0
3.584208 0.177630 -0.003308 0.0
1.273732 0.224973 0.001768 0.0
2.906665 0.142563 0.000138 0.0
2.429901 0.660397 -0.004183 0.0
2.037370 1.602497 0.001407 0.0
4.574411 1.680411 0.000809 0.0
1.624110 0.146447 0.000336 0.0
3.946197 0.166620 0.000212 0.0
4.411858 0.445149 -0.000778 0.0
0.545834 1.158079 -0.001288 0.0
3.635020 1.430079 -0.001621 0.0
3.678276 1.510322 -0.000612 0.0
0.393101 0.980014 0.004521 0.0
3.084501 1.214186 -0.002283 0.0
0.820175 0.109431 -0.004324 0.0
2.379009 0.024130 0.003548 0.0
3.058665 0.573634 0.001399 0.0
0.236092 1.354794 -0.001275 0.0
1.443110 1.138031 -0.001554 0.0
4.367734 0.445982 -0.004693 0.0
0.360457 1.223963 -0.003090 0.0
0.510177 0.985106 0.000587 0.0
0.047622 0.104529 0.000466 0.0
3.540804 1.652315 0.000639 0.0
3.573256 0.275085 0.000364 0.0
3.785717 0.261702 -0.002191 0.0
2.427165 0.415195 -0.000302 0.0
3.138683 0.597392 0.003353 0.0
3.537443 1.550305 -0.001785 0.0
4.143985 1.181729 0.002625 0.0
1.171783 0.292084 -0.001784 0.0
4.271546 0.405160 0.000772 0.0
3.422158 1.396864 0.003052 0.0
3.288495 1.042091 -0.003514 0.0
1.878845 1.785288 0.002946 0.0
2.350158 0.076879 -0.002235 0.0
0.411906 1.441602 -0.000346 0.0
4.328432 1.458002 0.002733 0.0
3.335281 1.147841 -0.002604 0.0
0.123764 1.773846 -0.002833 0.0
2.267218 0.289218 -0.000298 0.0
0.726670 0.584298 -0.002752 0.0
1.011466 0.857226 0.004607 0.0
2.209693 0.036404 -0.001695 0.0
3.707689 0.343242 0.003289 0.0
1.627630 0.875092 0.000058 0.0
1.494006 1.278364 0.006394 0.0
3.541469 0.820521 -0.001839 0.0
0.188512 0.203927 0.001201 0.0
0.930381 0.624753 0.004547 0.0
1.585115 0.384469 0.000488 0.0
1.181912 1.777004 0.001841 0.0
3.672048 1.043528 -0.000461 0.0
2.642068 1.248201 -0.003748 0.0
2.612733 0.173731 -0.000921 0.0
2.338745 0.427265 0.000595 0.0
1.742819 0.717758 -0.003156 0.0
4.519683 0.594813 -0.001967 0.0
2.186403 0.263344 0.000306 0.0
3.205303 0.840253 -0.002477 0.0
3.688751 0.744535 -0.003244 0.0
0.132414 1.374224 0.001252 0.0
1.015253 1.042788 0.003495 0.0
1.855271 0.071710 -0.001059 0.0
1.163576 0.510828 0.004976 0.0
0.824841 1.061760 0.002341 0.0
3.587197 0.548803 -0.005226 0.0
3.996455 0.740971 -0.002128 0.0
0.977686 0.698386 0.002530 0.0
3.797165 1.514008 -0.003320 0.0
3.353415 1.110919 0.001420 0.0
0.943764 0.728067 0.003749 0.0
2.641710 0.172857 0.000827 0.0
2.375850 1.621356 -0.000890 0.0
4.250896 0.111052 0.001215 0.0
4.040946 0.008497 -0.001959 0.0
0.724395 1.421457 -0.003793 0.0
0.897402 1.762811 -0.001738 0.0
0.884042 0.574749 0.000944 0.0
2.326149 0.828734 0.002420 0.0
0.371214 0.422681 -0.000415 0.0
2.395776 0.926858 -0.002355 0.0
2.796618 1.226569 0.000812 0.0
2.309723 1.030224 0.000363 0.0
1.805112 0.712570 0.000697 0.0
1.503660 1.730879 0.001525 0.0
2.602690 0.486114 0.002120 0.0
1.017301 1.017667 0.000006 0.0
3.905616 0.976510 -0.001424 0.0
0.207448 0.257394 -0.002180 0.0
0.184954 0.925355 -0.000864 0.0
1.980365 0.593916 -0.001968 0.0
1.882009 0.890537 -0.000534 0.0
2.127794 0.250129 -0.002497 0.0
2.506637 0.642324 0.000583 0.0
0.475056 1.586381 0.003241 0.0
2.263668 0.566221 -0.003286 0.0
1.968727 0.883019 0.002890 0.0
4.214891 1.482143 0.000392 0.0
1.212452 0.530589 0.004273 0.0
0.691830 1.178343 -0.001469 0.0
3.752697 0.609128 0.001034 0.0
0.516631 1.292349 -0.002593 0.0
2.120086 1.534384 0.000890 0.0
0.801846 0.234995 0.001803 0.0
1.269758 1.716913 -0.003607 0.0
2.663268 1.608950 -0.003408 0.0
1.940246 1.219214 -0.006084 0.0
3.119334 1.739918 0.000983 0.0
0.516036 0.593525 -0.000829 0.0
0.447370 1.256452 -0.003046 0.0
0.602129 0.155280 0.001688 0.0
1.693066 0.734227 -0.003608 0.0
0.044098 0.278814 -0.002243 0.0
3.514698 1.841215 -0.003540 0.0
3.678051 1.358810 0.000166 0.0
2.644592 0.751175 -0.001501 0.0
4.149804 0.704025 -0.000280 0.0
0.520768 1.749656 -0.000339 0.0
2.813025 1.652442 -0.000578 0.0
1.126336 0.369219 -0.001538 0.0
0.892876 0.833286 -0.001752 0.0
0.747568 1.790622 -0.002239 0.0
1.903706 0.269232 0.003725 0.0
3.922517 1.766417 0.000297 0.0
4.252570 0.328190 0.003160 0.0
4.187172 1.575079 0.001393 0.0
2.648881 1.534405 -0.001766 0.0
1.670029 0.398385 -0.000625 0.0
3.560873 1.700729 -0.001392 0.0
3.164639 0.797120 0.000324 0.0
4.010518 1.577722 0.002534 0.0
3.581583 0.145639 0.000920 0.0
1.849394 1.647176 -0.003068 0.0
0.387386 0.165738 -0.000144 0.0
0.987125 1.336717 -0.003752 0.0
3.592106 1.767414 -0.000208 0.0
3.489059 1.747720 -0.003078 0.0
0.943852 1.629961 -0.004212 0.0
2.720486 1.235594 0.001736 0.0
1.408731 0.825536 0.001997 0.0
1.570002 0.544832 -0.001299 0.0
0.074606 0.157424 -0.001861 0.0
4.076349 0.298281 -0.000612 0.0
1.329896 0.472423 -0.000524 0.0
0.062942 1.862440 0.002106 0.0
1.463179 1.615592 0.001080 0.0
1.862534 0.999466 -0.003015 0.0
0.329311 1.486095 -0.000736 0.0
3.519868 0.846042 0.000051 0.0
1.809472 1.349392 0.000798 0.0
2.124355 0.035243 -0.000846 0.0
0.376484 1.621899 -0.003177 0.0
4.558126 0.685151 0.003399 0.0
0.698823 1.305178 0.003097 0.0
1.367910 1.593686 0.005905 0.0
1.275087 1.420601 0.000521 0.0
2.055300 0.188168 -0.001986 0.0
1.064392 0.934964 0.005867 0.0
3.020992 1.765639 -0.001694 0.0
1.415702 1.264764 0.000956 0.0
1.033734 1.760865 0.004325 0.0
2.552952 1.098366 -0.001947 0.0
0.520336 1.520200 -0.002847 0.0
1.325103 0.283833 -0.000586 0.0
1.233425 1.607133 0.003171 0.0
1.862874 0.777732 0.000833 0.0
3.379530 1.626736 -0.001780 0.0
0.580933 1.277684 0.003862 0.0
2.891057 0.288685 -0.001725 0.0
3.795501 1.334598 0.000318 0.0
3.265864 0.052995 -0.001550 0.0
4.129806 1.718052 -0.000444 0.0
1.656997 1.766274 -0.000700 0.0
2.399907 0.705371 -0.000970 0.0
1.884237 1.178549 0.001549 0.0
2.223001 1.156350 0.004765 0.0
1.727170 1.802905 0.004372 0.0
1.023456 1.388052 0.000303 0.0
0.109048 0.370485 0.000361 0.0
3.606142 1.726448 0.000491 0.0
1.101405 0.077536 -0.003474 0.0
1.738942 1.085051 -0.001143 0.0
3.565023 0.467344 0.004122 0.0
2.863794 1.843120 -0.001950 0.0
2.909850 0.723129 -0.001269 0.0
2.138594 1.731155 0.001098 0.0
4.408276 0.352583 0.001908 0.0
2.366698 1.363044 0.001340 0.0
0.744267 1.542477 0.006093 0.0
2.556144 0.560682 -0.001239 0.0
0.243449 1.131272 0.000768 0.0
0.570556 1.783457 0.002155 0.0
1.088917 0.963347 -0.003033 0.0
0.539069 1.468820 0.006039 0.0
3.852587 0.198188 0.001034 0.0
4.256209 1.827542 -0.003529 0.0
3.452131 0.589027 -0.000038 0.0
4.064073 1.218163 -0.002377 0.0
3.469752 1.561389 0.000555 0.0
1.684695 1.566164 -0.003740 0.0
3.405083 0.255403 -0.000169 0.0
4.011395 0.007271 0.000222 0.0
2.724632 0.009961 -0.000406 0.0
4.095397 1.481467 -0.002276 0.0
4.186649 0.102668 -0.003946 0.0
1.052868 0.956368 -0.000319 0.0
0.862706 0.678043 0.001965 0.0
0.625846 0.104362 0.002019 0.0
1.188335 0.931539 0.003049 0.0
3.763891 1.846095 0.001868 0.0
1.433431 1.406089 -0.001664 0.0
1.851856 0.489561 -0.001291 0.0
1.046833 1.514891 0.000189 0.0
2.327755 1.426675 0.002478 0.0
4.425347 0.813154 -0.003118 0.0
0.331957 1.578751 -0.000393 0.0
1.073844 1.333853 -0.003357 0.0
1.207528 1.659090 -0.002183 0.0
1.183710 1.716943 0.000792 0.0
0.360707 0.426502 0.000509 0.0
0.922676 1.464522 0.001667 0.0
3.189185 1.627400 0.000018 0.0
2.720479 0.914199 0.000343 0.0
1.216465 0.013457 0.002789 0.0
1.209132 0.996008 0.003104 0.0
4.324565 1.287126 0.002276 0.0
2.916366 1.693269 0.003262 0.0
4.391241 1.339691 -0.001714 0.0
1.806723 1.014569 0.000053 0.0
1.826907 1.805249 0.000715 0.0
3.561544 1.795695 -0.000482 0.0
1.851677 0.696293 0.000332 0.0
3.256769 0.372610 -0.004569 0.0
0.265255 0.398236 0.000834 0.0
2.772812 1.487761 0.006872 0.0
0.692372 0.555148 0.001255 0.0
1.194307 0.921850 -0.001896 0.0
0.283103 0.743349 0.000397 0.0
3.433314 1.406586 -0.007234 0.0
3.172202 0.119519 0.002207 0.0
2.750629 1.841282 -0.001070 0.0
4.215980 1.376190 0.001893 0.0
2.818913 0.796018 -0.000934 0.0
2.590350 0.479095 0.002244 0.0
2.958999 0.826388 -0.000491 0.0
0.886940 0.441129 -0.001909 0.0
0.165383 0.967756 -0.001050 0.0
4.441374 1.715129 -0.001167 0.0
2.966595 1.828653 -0.000210 0.0
4.356416 0.094758 -0.002727 0.0
0.939454 0.876738 -0.002430 0.0
1.615831 0.728093 -0.002594 0.0
2.698586 0.578170 -0.000175 0.0
0.113729 0.391571 -0.001580 0.0
0.030299 0.544550 -0.003232 0.0
4.268725 1.455018 0.004897 0.0
3.764740 0.395923 -0.002717 0.0
0.147668 0.542883 -0.002020 0.0
4.164552 1.041234 -0.000677 0.0
3.138220 1.848745 0.002136 0.0
1.966637 1.361750 -0.001109 0.0
3.848118 0.508692 -0.002672 0.0
1.532566 1.605185 -0.000247 0.0
4.506912 0.808162 -0.001489 0.0
0.339277 0.563344 0.003529 0.0
3.744526 0.879766 -0.001085 0.0
0.675634 1.850707 -0.000538 0.0
3.669076 0.538094 -0.001993 0.0
3.362460 1.575430 0.000803 0.0
1.901670 0.771399 0.000043 0.0
1.669864 0.726474 0.001201 0.0
1.999613 1.116459 -0.000112 0.0
1.720956 0.033835 0.000806 0.0
3.934664 0.314587 -0.002368 0.0
0.536663 1.460406 -0.001059 0.0
0.475242 0.963544 -0.002953 0.0
1.540378 1.044533 0.004018 0.0
0.852354 1.463827 -0.002155 0.0
2.328587 0.175975 0.000065 0.0
4.337574 1.638785 -0.001786 0.0
3.355377 1.257045 0.000611 0.0
4.216296 1.298533 -0.002962 0.0
3.716307 1.235299 -0.000238 0.0
2.894041 0.861869 0.000617 0.0
2.554791 1.037120 -0.000087 0.0
0.406155 1.195982 0.002408 0.0
4.261356 1.152095 -0.002445 0.0
0.185134 0.431179 0.005456 0.0
0.687760 1.536572 0.000794 0.0
0.194888 1.475253 -0.000585 0.0
0.367903 1.553638 -0.002305 0.0
4.331800 1.108107 0.001429 0.0
2.560361 0.567323 -0.000490 0.0
4.258337 1.374613 0.000928 0.0
1.209051 0.674009 0.005733 0.0
3.443264 0.087005 -0.001068 0.0
0.493240 0.128211 0.003855 0.0
4.548814 0.913732 0.006136 0.0
3.964027 0.197326 -0.001459 0.0
1.980965 0.156138 0.004909 0.0
2.722216 0.971463 0.000980 0.0
1.478366 0.290632 0.000709 0.0
2.766106 0.213810 -0.005295 0.0
2.511821 0.635499 0.004127 0.0
3.159765 0.804332 0.004221 0.0
3.686697 0.335036 -0.000561 0.0
0.765600 0.572285 0.003798 0.0
0.370816 1.711272 -0.001972 0.0
2.666577 0.081315 -0.004233 0.0
0.070744 0.299901 0.001839 0.0
1.729010 1.644187 0.000680 0.0
0.171183 0.008303 -0.001431 0.0
3.206099 0.127049 -0.001132 0.0
2.623041 0.717974 0.000046 0.0
1.883675 1.284391 -0.002707 0.0
4.068067 1.321263 0.000304 0.0
3.881050 1.381597 -0.003472 0.0
2.955232 1.081342 0.002840 0.0
3.171243 1.872392 0.002015 0.0
2.961133 1.017612 0.001263 0.0
1.601773 1.817723 -0.000545 0.0
2.196279 0.601404 -0.003732 0.0
1.950490 1.039448 0.000291 0.0
3.812277 0.597800 -0.004163 0.0
3.626719 1.861527 -0.003228 0.0
2.003627 1.667572 0.001234 0.0
2.555562 1.249616 0.002744 0.0
4.541932 1.041156 -0.001401 0.0
3.169361 1.519337 -0.000597 0.0
0.089248 0.419441 0.002744 0.0
0.420139 1.021012 -0.002297 0.0
3.589497 1.828685 -0.002129 0.0
0.941894 0.055207 -0.000152 0.0
4.087568 1.535822 0.001918 0.0
0.797711 0.553510 0.002398 0.0
1.037474 0.587393 0.000204 0.0
0.132623 0.492917 0.002916 0.0
0.091551 0.505103 -0.001482 0.0
3.025076 1.378276 -0.003182 0.0
0.197737 0.786282 -0.002102 0.0
4.012480 1.029123 0.002004 0.0
2.945957 0.181037 -0.001446 0.0
3.930604 1.196963 -0.002298 0.0
0.895523 1.230215 0.000188 0.0
0.666119 0.664208 0.003116 0.0
0.902796 0.651852 -0.002167 0.0
4.339719 1.498020 0.002782 0.0
4.420971 0.072148 0.001853 0.0
0.223618 1.680048 0.001400 0.0
2.203351 0.474851 0.002673 0.0
3.231521 0.012941 -0.002543 0.0
1.259763 0.986885 0.001171 0.0
2.476178 1.276417 -0.001625 0.0
3.854970 0.739732 -0.000249 0.0
1.533745 0.137070 -0.005420 0.0
2.544820 1.768601 0.000604 0.0
2.542443 0.279507 0.001906 0.0
4.380990 0.402239 0.000257 0.0
2.138064 0.291146 0.005664 0.0
1.187672 1.294178 -0.000430 0.0
2.409298 1.472511 0.000491 0.0
3.231953 1.679512 -0.000068 0.0
3.512479 1.552174 0.001499 0.0
3.634222 0.885485 0.002129 0.0
2.041069 1.498642 0.000495 0.0
4.512660 0.721062 0.000815 0.0
0.955311 0.342336 -0.000524 0.0
0.805215 1.645862 -0.003474 0.0
1.474881 1.569414 0.001077 0.0
1.274176 0.093977 -0.000991 0.0
2.181453 0.705888 0.003378 0.0
1.873196 0.854192 0.004302 0.0
3.945714 0.767624 -0.000062 0.0
1.514548 0.072694 0.003896 0.0
3.518090 0.060307 -0.001166 0.0
4.501411 0.138998 0.004942 0.0
0.518148 1.789952 0.002315 0.0
1.794245 0.894453 -0.002771 0.0
2.784194 1.466590 0.000392 0.0
1.577219 0.512693 -0.001779 0.0
4.174999 1.870993 0.000099 0.0
0.698011 1.355357 -0.003170 0.0
0.789881 1.154347 0.004641 0.0
0.951849 0.796738 0.002390 0.0
0.364783 1.706421 -0.007055 0.0
3.116261 0.458040 0.001684 0.0
3.240533 1.367186 0.002662 0.0
1.579500 0.377137 0.002044 0.0
2.538915 0.508719 0.000755 0.0
4.454700 0.221123 0.000599 0.0
4.239117 1.480915 0.003490 0.0
1.768331 0.367199 0.000019 0.0
0.832286 1.587790 -0.002726 0.0
3.127402 1.467977 0.006284 0.0
0.977854 1.289517 0.000166 0.0
3.212127 0.375640 -0.003170 0.0
0.423593 1.131930 -0.003507 0.0
0.405915 0.047369 0.004635 0.0
3.612067 0.372791 0.004458 0.0
4.382223 0.058056 -0.004703 0.0
3.737418 1.466030 -0.003054 0.0
1.159275 1.166390 -0.004018 0.0
3.088517 0.313105 0.000442 0.0
1.590738 0.334102 0.001879 0.0
1.164149 1.558183 0.001137 0.0
4.248069 1.209295 0.003481 0.0
1.529442 0.288057 -0.001198 0.0
4.397112 1.611234 0.001550 0.0
4.327194 1.594807 0.001228 0.0
3.414813 1.368770 0.002081 0.0
4.536107 0.193612 0.000467 0.0
2.502272 1.300124 0.000255 0.0
1.052781 1.602339 -0.004714 0.0
0.120179 0.628830 0.000522 0.0
4.576286 0.277931 -0.001334 0.0
4.138914 0.465466 0.000156 0.0
2.059025 0.738456 0.002219 0.0
0.477436 0.113445 0.001401 0.0
0.486790 1.776023 0.000801 0.0
1.996913 0.906998 -0.002696 0.0
4.304840 1.866352 0.005756 0.0
2.839149 1.321166 0.002298 0.0
2.280504 0.205789 0.002255 0.0
3.991013 1.752351 -0.001132 0.0
2.601771 1.194589 0.006134 0.0
4.268467 0.514919 0.001014 0.0
1.278850 0.096779 0.004931 0.0
3.551832 1.175526 -0.001679 0.0
2.265030 0.100732 0.000416 0.0
4.018543 0.638328 0.002844 0.0
0.746073 1.128193 -0.004931 0.0
1.430083 0.059275 -0.001197 0.0
4.146089 0.049725 0.001213 0.0
0.823308 0.270798 0.004813 0.0
3.325561 0.887348 0.002397 0.0
0.433379 1.538302 -0.001561 0.0
0.079726 0.606145 -0.000013 0.0
0.470231 0.597645 0.002898 0.0
1.236308 0.430807 -0.002072 0.0
1.263245 0.317620 -0.002540 0.0
2.763147 1.840935 0.004384 0.0
2.404114 1.226670 0.000992 0.0
2.853967 0.416316 -0.001825 0.0
0.100541 0.769887 -0.001913 0.0
2.653917 1.788232 0.000855 0.0
3.083293 1.614949 0.001531 0.0
1.394217 1.678796 -0.000883 0.0
3.176953 0.798666 -0.001098 0.0
1.768204 1.588400 -0.001811 0.0
3.750187 1.366455 0.001710 0.0
1.013872 0.200353 -0.005065 0.0
1.758759 0.223907 -0.000953 0.0
4.293452 1.662833 -0.001424 0.0
0.785207 0.332589 0.000102 0.0
3.653092 1.454140 0.000324 0.0
2.295523 1.424499 0.007588 0.0
2.497132 0.247365 0.000701 0.0
2.244423 0.098544 0.002784 0.0
0.737556 0.285785 -0.004390 0.0
4.283916 0.287179 0.004487 0.0
3.058692 0.237368 -0.002689 0.0
3.195551 0.676136 0.001260 0.0
0.520285 1.437621 -0.000397 0.0
2.882754 1.810997 -0.002965 0.0
4.164890 0.575626 0.003751 0.0
3.803530 0.016533 0.001141 0.0
4.314967 0.986673 0.000543 0.0
1.318974 0.512835 -0.000149 0.0
1.838620 1.651811 0.002408 0.0
4.524293 0.929801 0.004294 0.0
1.029826 1.182276 0.000370 0.0
3.868843 1.332090 0.001810 0.0
1.117873 0.998613 0.000797 0.0
0.514710 1.283973 0.004241 0.0
4.310392 1.386693 0.000311 0.0
2.484248 1.177460 -0.000734 0.0
3.375355 1.437571 0.001050 0.0
4.535240 1.001011 0.001661 0.0
4.301679 0.503464 0.002527 0.0
0.086071 1.723497 0.001907 0.0
1.111549 0.688410 -0.001806 0.0
1.654513 1.388977 0.000428 0.0
2.169049 0.043829 -0.001598 0.0
0.343137 0.445434 -0.001529 0.0
1.330039 0.831045 -0.001617 0.0
0.079738 1.466147 -0.000269 0.0
3.816952 1.722509 -0.000770 0.0
3.421590 1.838104 0.000228 0.0
0.979438 1.455055 -0.003727 0.0
2.779891 1.594685 0.001169 0.0
0.682092 0.047812 0.003743 0.0
1.468159 1.103583 0.004107 0.0
3.484726 0.712109 -0.003285 0.0
4.027214 0.177262 0.002218 0.0
4.310454 1.339455 -0.001422 0.0
0.761383 0.404090 0.000344 0.0
1.897350 0.852121 -0.000941 0.0
0.344212 1.518110 0.000574 0.0
1.202483 0.816407 0.000082 0.0
2.949194 0.748944 0.002382 0.0
1.137648 0.268560 0.000024 0.0
1.606952 1.676707 0.002306 0.0
3.882288 0.360006 -0.000341 0.0
3.092145 0.828098 0.002308 0.0
3.741486 1.529096 -0.000126 0.0
0.199224 0.733761 -0.004774 0.0
1.204630 1.234804 0.002058 0.0
2.318037 0.960660 0.002064 0.0
3.775610 0.855990 0.000185 0.0
3.200756 1.689271 -0.000483 0.0
0.843613 0.014657 0.003534 0.0
1.886029 1.625111 -0.000991 0.0
0.800350 0.275529 0.000949 0.0
2.364214 1.823617 -0.002688 0.0
3.277714 0.908064 -0.005494 0.0
1.996274 1.027294 0.000812 0.0
0.111084 1.592500 -0.003962 0.0
2.270609 0.104615 -0.002083 0.0
1.927722 0.599016 0.000995 0.0
2.536425 0.143431 0.002012 0.0
1.970435 1.628913 0.003111 0.0
4.429828 0.265129 -0.000173 0.0
4.239298 0.026284 0.003110 0.0
0.130505 1.841070 0.001598 0.0
0.971024 0.214753 0.002361 0.0
2.483737 1.405863 -0.003360 0.0
4.388250 0.272857 -0.001551 0.0
1.157058 1.374125 0.000145 0.0
2.251608 0.223947 0.004079 0.0
3.274775 1.111857 0.002594 0.0
1.250230 0.403052 0.000891 0.0
2.600338 0.648395 0.004020 0.0
4.186911 0.076686 0.000125 0.0
1.044074 0.980184 -0.004287 0.0
3.113137 1.139299 -0.001881 0.0
3.001726 0.462212 -0.001617 0.0
1.474213 1.220392 0.000084 0.0
4.332055 1.175394 -0.000719 0.0
1.659695 0.178156 0.000319 0.0
0.222723 0.606611 0.000987 0.0
0.319748 1.298486 0.000402 0.0
0.793017 1.341370 -0.000156 0.0
1.146579 0.279711 -0.003705 0.0
0.041677 0.716282 -0.001765 0.0
3.238709 0.489254 0.003822 0.0
3.836138 1.623307 -0.004030 0.0
3.469588 1.190395 0.005467 0.0
1.654739 0.400031 -0.000512 0.0
3.291678 0.823139 0.002981 0.0
2.148802 1.017412 -0.000750 0.0
4.572771 0.392038 0.002282 0.0
1.654091 0.258138 0.004337 0.0
3.721165 1.204172 -0.000370 0.0
1.208249 0.393953 -0.000402 0.0
4.144753 0.072680 -0.002060 0.0
2.063215 1.106208 0.002165 0.0
1.990653 0.860569 0.000319 0.0
3.854471 0.139619 -0.004169 0.0
1.159914 1.810448 -0.000973 0.0
0.330637 1.291154 -0.001601 0.0
2.754050 1.649530 -0.000136 0.0
3.110110 0.644699 0.000480 0.0
3.885983 1.191596 0.003782 0.0
2.994490 1.646467 -0.001861 0.0
1.715918 1.785137 -0.001461 0.0
1.858142 1.653868 -0.000477 0.0
2.581981 1.501851 -0.000719 0.0
3.444684 1.196935 -0.001500 0.0
3.071585 0.575253 0.004003 0.0
2.437475 1.106046 -0.003236 0.0
2.846512 1.733504 0.004055 0.0
1.545880 1.407820 -0.004293 0.0
1.064279 1.571559 0.003899 0.0
0.460241 1.348598 0.000621 0.0
0.200213 0.638771 -0.003003 0.0
4.029047 1.261902 0.001862 0.0
3.743773 0.151334 -0.003848 0.0
0.008489 1.136928 -0.001011 0.0
1.940829 0.635257 -0.005695 0.0
0.164660 0.411777 0.000876 0.0
0.596628 0.803051 0.002199 0.0
2.154558 1.418772 -0.000490 0.0
0.837213 0.166472 -0.000270 0.0
2.397599 1.096975 -0.001739 0.0
1.254165 0.242604 0.000876 0.0
2.848380 0.682574 -0.001113 0.0
2.395243 1.394277 -0.000992 0.0
2.599587 0.364924 -0.001183 0.0
0.479711 0.500607 0.000332 0.0
4.109569 1.295337 0.005386 0.0
4.228456 1.830795 -0.001053 0.0
3.232034 0.463064 0.001262 0.0
0.715895 1.247016 0.000946 0.0
0.823972 1.146497 -0.001851 0.0
2.702232 0.497168 -0.003699 0.0
2.671539 0.084937 -0.004968 0.0
1.449444 0.407527 0.006309 0.0
4.348417 0.813110 0.003653 0.0
2.753961 1.607336 0.002901 0.0
2.077072 1.203062 0.000480 0.0
1.839024 1.817521 -0.003302 0.0
1.704884 1.737497 0.002267 0.0
3.447598 1.059450 0.003269 0.0
2.773554 0.438220 -0.004969 0.0
3.632234 1.003043 0.004270 0.0
4.578600 0.555647 0.000688 0.0
0.381638 0.003882 0.001388 0.0
3.749390 1.708631 0.000179 0.0
2.222714 0.164881 -0.002347 0.0
1.025733 0.395647 0.001005 0.0
4.372929 0.859047 -0.000359 0.0
1.921487 0.163910 0.000319 0.0
2.455549 1.500929 -0.003456 0.0
2.169731 0.802209 -0.001285 0.0
4.532760 1.669194 -0.000575 0.0
3.179069 1.494792 -0.003561 0.0
3.176991 0.116070 -0.003475 0.0
2.348722 1.096534 0.002190 0.0
0.745774 1.577077 0.001148 0.0
2.707788 0.540591 0.003302 0.0
4.012576 1.547705 0.006006 0.0
4.528972 0.770242 0.003850 0.0
0.654945 1.556407 0.001774 0.0
2.883252 0.769033 0.002493 0.0
1.663112 0.336745 -0.000293 0.0
3.229623 0.506894 0.002194 0.0
0.384922 0.327357 -0.000680 0.0
4.158526 0.117010 0.001016 0.0
0.795648 1.351793 -0.001862 0.0
1.888983 0.664744 0.004496 0.0
2.724444 1.843929 0.000513 0.0
1.527141 1.140414 -0.001614 0.0
0.918901 1.112244 -0.003627 0.0
3.830495 1.568973 0.000400 0.0
2.669061 0.882615 0.000095 0.0
1.367126 0.780554 -0.000712 0.0
2.778836 1.633583 0.002028 0.0
4.356771 1.326817 -0.001019 0.0
2.685144 1.739122 -0.001023 0.0
4.401173 0.419769 -0.001835 0.0
2.771839 1.830963 -0.003163 0.0
2.719363 1.384667 -0.000395 0.0
1.704662 1.570915 -0.001075 0.0
2.180625 0.595817 -0.003325 0.0
2.310265 1.017228 -0.003858 0.0
3.035396 0.776217 -0.000299 0.0
0.469100 0.797212 0.002770 0.0
0.877483 1.628099 0.001240 0.0
3.025016 0.632341 0.003261 0.0
3.658699 0.253496 -0.003065 0.0
0.407924 1.446008 0.000213 0.0
4.512190 0.081584 -0.001438 0.0
2.841464 0.525809 -0.000461 0.0
1.860158 0.445057 0.000037 0.0
0.322597 0.637470 -0.003801 0.0
3.213679 1.455636 -0.003431 0.0
2.029239 0.798700 0.001071 0.0
3.359642 1.738123 -0.001097 0.0
0.480134 1.062498 -0.002658 0.0
1.596260 0.948758 0.004690 0.0
2.621282 1.661731 0.000594 0.0
0.485730 1.512760 -0.000899 0.0
2.307385 0.122469 0.004343 0.0
4.544711 0.261830 -0.000464 0.0
2.271421 1.275240 -0.000703 0.0
2.436329 0.723970 0.000771 0.0
3.135130 0.215357 0.001195 0.0
3.801680 0.483409 0.001507 0.0
1.273880 1.489157 0.001010 0.0
0.175853 1.798920 0.000218 0.0
2.908739 1.566657 -0.001311 0.0
0.991482 0.266746 -0.000191 0.0
4.076626 1.213599 -0.000787 0.0
0.275311 0.143068 -0.002649 0.0
0.974838 1.263176 0.000445 0.0
2.307640 0.654415 0.003220 0.0
4.303113 0.305723 -0.002741 0.0
1.072236 1.014461 0.004033 0.0
2.451413 0.693535 -0.001784 0.0
3.098150 1.139267 0.002833 0.0
2.942309 1.812022 0.001510 0.0
4.469528 0.665890 -0.000304 0.0
4.084993 1.723850 -0.003133 0.0
4.360277 1.253830 -0.002322 0.0
2.875082 1.080930 0.001819 0.0
0.245470 1.808332 0.003572 0.0
2.796109 0.460927 -0.001863 0.0
0.283215 0.841156 -0.000192 0.0
1.766187 0.356493 -0.001984 0.0
2.233327 0.611944 -0.001716 0.0
2.777461 0.648524 -0.000996 0.0
0.265134 0.760281 -0.002696 0.0
3.051062 1.718814 0.005076 0.0
2.578103 1.710824 -0.002142 0.0
3.013005 1.633851 -0.002010 0.0
0.425443 1.278966 0.000832 0.0
3.514506 0.728665 0.000199 0.0
0.458669 0.790651 0.002983 0.0
0.581079 1.766194 -0.001474 0.0
3.617862 0.280197 0.000280 0.0
0.162140 1.041602 -0.000599 0.0
0.886398 0.722571 -0.004654 0.0
2.449893 0.957425 0.001399 0.0
4.052282 0.020627 0.000607 0.0
1.297501 1.756641 0.000002 0.0
1.856906 1.383059 -0.001857 0.0
3.721434 1.253413 0.002764 0.0
2.446489 1.794685 0.001578 0.0
1.322414 0.737203 -0.000526 0.0
0.896521 1.218705 0.002727 0.0
4.490920 1.097451 -0.005540 0.0
1.054962 0.972434 -0.000568 0.0
3.280443 0.632966 0.001417 0.0
1.287291 0.421082 -0.001302 0.0
2.146105 0.325564 -0.002757 0.0
1.862977 1.388943 0.005409 0.0
3.550396 0.795505 -0.003066 0.0
3.631105 0.930249 -0.005268 0.0
1.265998 0.401393 -0.004639 0.0
0.345948 0.837356 0.002347 0.0
2.548191 1.160916 0.002878 0.0
2.630921 1.677279 0.004336 0.0
2.186482 0.277593 0.000867 0.0
3.426512 1.042448 -0.003279 0.0
1.683984 0.905875 0.001637 0.0
2.482033 1.300098 0.001745 0.0
1.284052 1.624867 0.002855 0.0
3.239965 1.651778 -0.001068 0.0
0.245870 0.329131 -0.002738 0.0
2.551777 1.870316 0.002139 0.0
1.971853 1.578983 -0.001772 0.0
3.238342 1.644932 0.001237 0.0
0.833841 1.344113 0.001426 0.0
4.092310 0.276100 -0.004181 0.0
2.677331 1.586984 0.002190 0.0
4.174275 0.023462 0.004239 0.0
0.162731 0.525597 -0.001569 0.0
1.173444 0.199442 0.002637 0.0
3.121862 1.245758 -0.002309 0.0
4.297848 0.972501 -0.004175 0.0
1.688652 1.706389 0.003050 0.0
4.292984 1.354459 0.002287 0.0
1.051154 1.233026 -0.000522 0.0
1.062400 1.008980 0.003286 0.0
3.647321 1.602427 -0.000354 0.0
3.064764 1.427326 -0.001166 0.0
1.363947 1.319332 0.000044 0.0
3.870619 1.578878 0.002106 0.0
1.929264 1.461960 0.000758 0.0
4.047023 0.490343 0.002329 0.0
0.466668 0.521199 0.000997 0.0
2.038912 0.747853 -0.002174 0.0
0.946407 0.948574 -0.003553 0.0
0.943580 1.791561 0.000690 0.0
3.039237 1.387408 -0.001291 0.0
4.478603 0.292615 0.002505 0.0
2.941397 0.296460 -0.000933 0.0
1.141515 0.836598 0.002839 0.0
4.175796 1.849088 0.000915 0.0
2.670363 0.469490 -0.001788 0.0
1.467120 1.010400 -0.001190 0.0
1.888985 0.302311 0.002677 0.0
4.529849 1.821734 -0.004439 0.0
3.007603 1.777168 -0.001367 0.0
2.441036 1.699910 0.000520 0.0
0.037935 1.661005 -0.000014 0.0
0.337957 1.652557 -0.004129 0.0
3.459762 0.758627 0.003453 0.0
0.402540 1.028715 -0.001362 0.0
3.953516 0.729800 -0.001940 0.0
2.514686 0.482689 0.000737 0.0
0.994096 1.736963 -0.000868 0.0
0.494686 1.533847 -0.002153 0.0
0.078909 0.458715 -0.000395 0.0
2.377107 0.111661 0.001423 0.0
4.371777 0.836290 -0.002970 0.0
3.106876 0.114578 -0.002436 0.0
1.735541 0.241975 0.005507 0.0
0.936028 1.063445 -0.000143 0.0
0.837099 0.952370 -0.000254 0.0
0.592862 1.026133 0.002265 0.0
0.411482 1.193487 0.000646 0.0
0.255740 1.400253 0.001217 0.0
2.049976 0.552481 0.001990 0.0
1.197260 1.485439 0.000324 0.0
2.106896 0.136883 -0.000449 0.0
2.364627 1.094134 0.002807 0.0
2.013333 1.088533 0.001194 0.0
1.953853 0.203952 -0.002403 0.0
3.444695 0.271524 -0.002469 0.0
4.260959 1.845093 -0.007377 0.0
0.427441 0.972398 0.004672 0.0
2.718090 0.766451 -0.000219 0.0
0.558274 0.382927 -0.001837 0.0
1.002988 0.496684 0.000151 0.0
1.971789 1.383781 -0.000626 0.0
2.198143 1.223216 0.003057 0.0
3.650830 0.213472 -0.002811 0.0
3.448276 0.422650 0.001431 0.0
0.332346 1.148854 0.000419 0.0
3.869722 1.767821 -0.000087 0.0
0.577285 1.069329 0.000297 0.0
2.023829 1.836834 -0.000019 0.0
4.454696 0.929579 -0.002531 0.0
1.037309 1.576371 -0.003311 0.0
3.147802 1.810263 -0.000733 0.0
1.126673 0.809294 -0.000470 0.0
2.326049 0.534066 -0.001639 0.0
0.040702 1.465296 -0.000945 0.0
0.155368 0.154066 -0.001227 0.0
0.616375 0.134756 0.000124 0.0
4.253254 0.878041 0.001168 0.0
4.561320 0.280422 -0.001950 0.0
0.692601 1.604735 0.002862 0.0
0.950511 1.562179 0.004418 0.0
0.003606 1.363010 -0.000759 0.0
1.065556 0.846353 0.003496 0.0
2.150492 0.581023 -0.000132 0.0
0.918959 1.294526 0.000878 0.0
0.928441 1.361020 0.001043 0.0
1.031659 0.006941 0.003511 0.0
1.120602 1.855509 0.002813 0.0
1.172020 1.795298 -0.000808 0.0
2.040479 1.818863 -0.000007 0.0
1.110883 0.879572 -0.003202 0.0
0.798320 0.564088 0.002880 0.0
4.512002 1.262213 0.005558 0.0
2.815435 0.038754 -0.001113 0.0
4.340662 0.457783 -0.000018 0.0
2.893792 0.292234 -0.001040 0.0
3.555415 0.516607 -0.001005 0.0
1.569928 0.419039 0.004154 0.0
2.499684 0.861393 0.001128 0.0
0.916203 0.644463 -0.000353 0.0
1.807991 1.381336 -0.001575 0.0
4.059939 0.845965 -0.003274 0.0
2.173748 0.012270 0.001574 0.0
3.330226 1.330171 -0.007502 0.0
1.658418 0.035851 0.004171 0.0
2.592567 1.605050 0.002314 0.0
3.038688 0.017215 -0.000853 0.0
0.047593 0.665615 0.002272 0.0
4.393426 0.641159 -0.000128 0.0
0.187155 1.566484 -0.000797 0.0
2.079455 1.240770 -0.003446 0.0
0.352121 1.451110 -0.000426 0.0
2.898256 1.308817 -0.003281 0.0
1.685562 1.502966 0.002782 0.0
3.622417 1.714400 -0.001775 0.0
3.415699 0.211558 -0.004713 0.0
1.462780 0.218173 0.001687 0.0
2.314297 0.967372 -0.000001 0.0
2.543979 0.905959 -0.006036 0.0
2.439900 0.325111 -0.002854 0.0
2.326065 1.869070 -0.001137 0.0
4.489991 1.187245 0.003085 0.0
3.481435 0.573872 0.003258 0.0
2.920204 1.012599 -0.000050 0.0
3.110030 1.078607 0.005969 0.0
3.795845 0.516829 -0.000197 0.0
1.216172 1.447631 0.003021 0.0
0.797064 1.607794 0.003063 0.0
3.265428 0.272244 -0.001504 0.0
0.666522 0.894707 -0.001017 0.0
1.353917 0.885199 0.000066 0.0
3.579066 1.861097 0.001979 0.0
2.796426 1.081145 -0.000959 0.0
2.378324 1.074927 -0.001661 0.0
2.899547 0.797972 0.003158 0.0
3.723933 1.594738 -0.000660 0.0
3.786112 1.030857 0.002308 0.0
0.261099 0.955397 0.000157 0.0
4.417227 1.381037 -0.001406 0.0
1.860946 0.629714 -0.002177 0.0
3.835561 1.782554 -0.000546 0.0
3.688757 0.901719 -0.001020 0.0
1.141376 1.116017 0.000828 0.0
2.295999 1.068669 0.001613 0.0
3.209462 1.276527 -0.001914 0.0
0.766149 0.556494 0.003570 0.0
2.124594 1.067819 -0.000236 0.0
3.381663 1.512005 0.000781 0.0
1.816373 0.389299 0.004721 0.0
2.284786 1.582924 0.001806 0.0
0.484244 0.772289 -0.003297 0.0
1.884588 1.803571 0.005179 0.0
2.009888 0.964151 0.001409 0.0
2.298621 0.023955 -0.003550 0.0
0.448418 0.402932 -0.006396 0.0
2.292076 1.137116 0.000132 0.0
3.757786 0.090814 -0.001279 0.0
1.635312 1.347866 0.001225 0.0
1.820691 1.604577 0.001371 0.0
4.133362 0.354698 -0.005419 0.0
1.386710 1.153024 -0.003106 0.0
0.930980 0.859220 0.000005 0.0
3.112980 1.009095 -0.000678 0.0
1.628320 0.658360 0.000989 0.0
1.339688 0.832066 0.000144 0.0
0.910497 0.212910 0.001370 0.0
0.530218 1.735884 0.002020 0.0
3.424927 0.814701 0.000337 0.0
1.457399 0.440714 -0.003348 0.0
2.156093 1.229797 -0.000259 0.0
0.075586 0.119283 0.001868 0.0
0.812894 1.803205 0.001960 0.0
3.158877 1.020821 -0.000088 0.0
4.137475 1.613742 0.001541 0.0
0.373018 1.253823 0.002083 0.0
2.919835 1.471445 0.003223 0.0
0.991932 1.813016 0.000970 0.0
4.289814 0.180717 0.001325 0.0
4.469840 1.828194 0.000864 0.0
4.234229 0.466628 0.001446 0.0
2.817862 0.022258 0.001028 0.0
2.406548 1.201163 -0.001932 0.0
4.285998 0.937695 0.004359 0.0
3.574263 0.444321 0.001966 0.0
0.534408 0.356515 -0.001080 0.0
3.378698 1.290494 -0.002563 0.0
0.660412 1.343180 -0.002702 0.0
2.920558 1.595873 0.002227 0.0
4.352238 0.691200 0.000519 0.0
4.376230 1.467433 0.002115 0.0
3.730525 0.613874 0.002128 0.0
0.602126 1.758654 -0.001117 0.0
1.848504 1.556826 -0.002380 0.0
0.545793 1.852550 -0.000816 0.0
0.047559 1.799911 0.000623 0.0
0.439546 0.772404 -0.006304 0.0
4.173818 1.520837 -0.004319 0.0
1.677241 1.427153 0.002255 0.0
0.928322 0.987134 0.002743 0.0
2.520524 1.167499 -0.000416 0.0
1.286275 0.852863 0.001071 0.0
3.930626 0.525550 0.003284 0.0
4.325247 0.401637 0.002050 0.0
1.449237 0.859791 0.003996 0.0
3.162643 1.229228 -0.000910 0.0
3.374614 0.169403 -0.003921 0.0
2.994407 1.847477 -0.000792 0.0
3.452311 0.656162 -0.005755 0.0
3.513877 0.640168 -0.005031 0.0
2.771253 0.516554 0.000341 0.0
1.687208 1.318184 0.000171 0.0
1.136274 1.585347 -0.000392 0.0
2.145773 0.894514 -0.002967 0.0
3.743929 1.855039 0.000278 0.0
2.836510 1.093030 0.002423 0.0
2.912378 1.786715 -0.000594 0.0
2.677183 1.662837 -0.002080 0.0
2.453451 0.275539 0.001598 0.0
1.411828 1.605385 0.000969 0.0
2.045784 1.329508 -0.002650 0.0
0.939487 1.837751 0.004050 0.0
3.932262 1.012296 -0.003913 0.0
3.143715 0.947668 0.001321 0.0
4.278917 1.374274 -0.002351 0.0
2.948583 0.965553 -0.000517 0.0
1.432786 0.035679 0.001897 0.0
2.369431 0.133407 -0.002385 0.0
0.983251 0.055925 0.000614 0.0
1.740422 0.746895 0.003725 0.0
4.204388 0.056100 -0.000372 0.0
1.295885 1.506772 0.005092 0.0
2.584656 0.326966 0.001044 0.0
3.792693 0.501799 0.000191 0.0
3.858849 1.281609 -0.004678 0.0
2.195232 0.348046 -0.001949 0.0
4.489004 0.327308 0.003545 0.0
0.060526 0.342794 -0.002689 0.0
3.245107 1.555337 0.000433 0.0
3.239477 0.514387 0.000225 0.0
2.072943 1.553424 0.000171 0.0
0.814717 1.458422 0.000812 0.0
0.612811 1.433341 -0.002958 0.0
0.682510 1.511732 0.002702 0.0
4.497905 1.300300 0.004618 0.0
3.232402 1.708434 0.002772 0.0
2.479273 0.616829 -0.001494 0.0
0.205675 1.682948 -0.000069 0.0
3.839530 0.838395 0.001619 0.0
3.553206 1.795881 0.000619 0.0
0.919787 1.556150 0.000991 0.0
0.573282 0.433332 -0.002436 0.0
0.161751 1.058099 -0.004192 0.0
3.982730 0.918823 0.003108 0.0
0.118544 1.127101 -0.001442 0.0
4.564442 0.709291 0.002473 0.0
4.232673 0.627598 0.002711 0.0
0.815074 1.425151 0.001785 0.0
0.565045 0.610347 -0.000451 0.0
3.854826 0.472460 -0.002460 0.0
1.550568 1.468723 -0.002699 0.0
4.145243 0.225656 0.003531 0.0
0.282868 1.219344 0.002561 0.0
3.736703 0.756169 0.000946 0.0
0.488140 0.137034 -0.000972 0.0
2.443871 0.673835 0.006485 0.0
1.962060 1.675626 -0.001230 0.0
0.271526 1.308164 -0.000061 0.0
3.989394 0.503721 -0.002677 0.0
0.839121 0.988679 0.005333 0.0
3.356909 1.818094 -0.002194 0.0
2.724137 0.435919 -0.000462 0.0
3.055697 0.846880 -0.002340 0.0
1.498305 0.730282 -0.001386 0.0
3.936983 0.149373 -0.000451 0.0
3.606531 1.746000 0.004272 0.0
3.309644 0.408461 -0.001410 0.0
1.831420 1.735353 0.002517 0.0
2.214617 1.796257 -0.004668 0.0
2.914082 0.767171 -0.000971 0.0
2.729772 1.538362 -0.000225 0.0
0.040486 0.841884 -0.003286 0.0
2.980191 1.149463 0.005190 0.0
3.616387 0.494362 0.003679 0.0
2.954526 1.318327 -0.002820 0.0
1.859997 0.502153 0.001918 0.0
1.320637 0.309898 0.001282 0.0
3.018458 0.603754 0.002227 0.0
1.286893 0.804043 -0.001666 0.0
2.777842 1.029531 0.002811 0.0
3.459501 0.993179 0.004099 0.0
2.297109 0.494635 0.000159 0.0
3.699287 1.512408 -0.002647 0.0
3.272920 0.792525 0.000291 0.0
0.441864 0.769328 -0.000181 0.0
0.843385 1.257041 -0.002422 0.0
3.430874 1.054245 -0.001334 0.0
1.765260 1.735656 0.002413 0.0
3.013473 1.203561 0.004918 0.0
4.501811 0.049193 0.006230 0.0
3.194689 0.957677 0.002737 0.0
1.517066 1.483462 0.000485 0.0
4.337097 0.247766 0.002927 0.0
0.066176 0.887224 0.002375 0.0
3.732730 0.066708 -0.000964 0.0
1.032978 0.104393 0.002052 0.0
3.742140 1.537131 0.000467 0.0
0.381155 1.357491 0.001587 0.0
3.325634 0.669560 -0.004357 0.0
3.231666 0.422365 -0.002372 0.0
2.672964 1.690188 -0.001901 0.0
0.534527 0.101918 -0.000988 0.0
0.496838 0.304686 -0.002650 0.0
4.502217 1.312539 0.002326 0.0
2.998160 0.717266 0.000586 0.0
0.880814 1.336459 -0.004041 0.0
0.758223 0.825767 0.001127 0.0
4.436262 1.064368 0.001614 0.0
0.602497 0.120379 0.003773 0.0
4.161535 1.309194 -0.001666 0.0
4.538021 0.329383 -0.002775 0.0
1.025189 1.287169 -0.002384 0.0
2.058732 1.509411 -0.001918 0.0
2.368820 1.244015 -0.002165 0.0
1.812901 1.552947 -0.000815 0.0
1.526625 0.304668 -0.001502 0.0
0.834736 1.173193 -0.000150 0.0
0.316840 0.360582 -0.000462 0.0
3.088026 1.188691 0.004305 0.0
3.657209 1.071946 -0.001790 0.0
2.677504 1.734676 -0.004087 0.0
0.717277 0.371314 0.001469 0.0
4.328681 0.929436 0.007558 0.0
2.280141 1.680468 0.000149 0.0
1.380991 1.307598 0.000249 0.0
4.289672 1.137747 0.000530 0.0
4.330342 1.134556 -0.000415 0.0
2.182287 0.058218 -0.003159 0.0
1.377021 1.242940 -0.000190 0.0
2.409782 1.172879 0.002368 0.0
1.747957 0.673644 0.004576 0.0
0.948876 0.066783 0.003555 0.0
1.528762 1.162485 0.002514 0.0
1.564324 0.154946 0.004372 0.0
1.533400 0.528939 -0.000062 0.0
4.204419 1.493755 0.004235 0.0
0.483439 0.614421 0.001656 0.0
2.762738 0.355795 0.003384 0.0
4.494332 1.725848 -0.002565 0.0
0.760825 1.863339 -0.000492 0.0
2.713848 1.179315 0.003955 0.0
0.246958 1.292737 -0.002682 0.0
3.565883 1.380337 0.005090 0.0
1.508120 0.278375 0.000811 0.0
1.758507 1.134460 -0.002197 0.0
3.595752 0.455888 -0.002306 0.0
0.591397 1.206116 0.000971 0.0
2.402145 0.885875 -0.000281 0.0
3.303488 1.822297 -0.003780 0.0
1.867186 0.177028 -0.001316 0.0
0.188446 1.005517 0.002230 0.0
1.769759 0.664897 0.001581 0.0
3.713520 0.145428 -0.002828 0.0
1.561375 1.302338 0.003578 0.0
0.427237 1.430459 0.000380 0.0
3.513283 1.133775 0.000658 0.0
3.529973 0.996202 0.002473 0.0
1.390348 1.863156 0.000211 0.0
2.489895 1.634622 -0.001384 0.0
2.589442 1.483930 0.001582 0.0
4.117887 0.783240 -0.003564 0.0
0.398447 1.350440 0.000549 0.0
1.423644 1.597617 -0.001854 0.0
3.201944 1.131976 -0.002518 0.0
1.706331 0.678934 -0.002028 0.0
1.665926 0.335308 -0.001183 0.0
0.818555 0.069542 0.003152 0.0
2.649503 0.213073 0.003115 0.0
0.761590 1.571940 -0.000782 0.0
4.094420 1.743481 -0.000485 0.0
2.803675 1.793281 0.001185 0.0
2.715068 1.056769 -0.001854 0.0
4.299919 1.535349 0.002160 0.0
3.667717 1.318765 0.001584 0.0
1.275853 0.364211 0.001243 0.0
3.419893 0.039143 -0.002229 0.0
2.771485 0.234254 0.001132 0.0
0.474030 1.080182 0.000378 0.0
3.992423 0.960953 -0.000918 0.0
1.827038 1.293029 0.001081 0.0
4.383121 0.429548 -0.000163 0.0
1.539709 0.983471 0.001466 0.0
2.961744 0.747384 0.001467 0.0
0.655991 1.197200 0.003205 0.0
0.799709 0.205641 0.004144 0.0
4.345082 0.018751 0.001714 0.0
2.715724 1.164060 0.002488 0.0
3.245248 1.458560 -0.001162 0.0
2.741674 1.729761 -0.003216 0.0
4.529143 1.124957 0.005817 0.0
1.619119 0.225662 0.002002 0.0
1.405097 1.452091 -0.002804 0.0
1.790578 1.860339 0.000760 0.0
4.228126 1.674650 0.003447 0.0
2.414440 1.485774 -0.002625 0.0
1.596661 0.164198 0.000661 0.0
0.801184 1.851132 -0.002827 0.0
3.261280 0.415751 0.004418 0.0
1.733603 0.000712 0.001299 0.0
2.703844 0.095015 0.000935 0.0
3.881600 0.920323 -0.003776 0.0
2.486017 1.275605 0.001779 0.0
0.800706 0.953226 -0.005372 0.0
1.890341 0.382165 0.004035 0.0
2.096164 0.190859 0.002955 0.0
0.299597 1.169535 -0.000573 0.0
3.881780 0.038403 0.004011 0.0
1.412327 1.398539 0.000136 0.0
2.781667 0.390051 0.002978 0.0
1.692499 1.695366 0.000410 0.0
0.540626 1.237724 0.002723 0.0
2.453004 0.948601 0.001631 0.0
2.581933 1.007267 0.000466 0.0
3.168366 0.568239 -0.001090 0.0
0.096833 1.704810 0.001553 0.0
3.244596 0.274446 -0.005093 0.0
1.818383 0.522512 0.000524 0.0
1.901111 1.357603 0.002282 0.0
3.757191 0.466072 -0.002344 0.0
3.507841 0.026546 0.000041 0.0
2.936432 1.545496 0.000912 0.0
3.592523 0.842310 0.000285 0.0
2.550016 1.490956 0.002904 0.0
0.563701 0.295984 0.000640 0.0
3.418383 0.816986 -0.003061 0.0
1.236878 1.831597 -0.000633 0.0
2.696553 1.386252 0.002633 0.0
2.483261 0.456744 -0.000836 0.0
2.756052 1.038462 0.002386 0.0
0.491793 0.537358 -0.004364 0.0
2.015355 1.772578 0.002372 0.0
3.190552 0.552172 -0.000673 0.0
1.565533 0.327885 -0.004691 0.0
3.431067 1.689523 -0.002642 0.0
2.587363 0.729604 0.001373 0.0
0.585985 0.405696 0.001802 0.0
1.091278 1.107622 0.003101 0.0
3.499642 0.412179 0.002041 0.0
1.502988 0.002549 0.001812 0.0
3.213178 0.505041 -0.003481 0.0
0.281125 1.443787 0.001675 0.0
1.202355 1.584616 -0.001323 0.0
3.422834 1.860610 -0.001880 0.0
4.046604 0.720887 -0.003069 0.0
0.135331 0.513285 -0.000311 0.0
3.534227 0.942781 0.000354 0.0
3.101461 0.023865 0.003501 0.0
4.421356 0.453547 0.002419 0.0
3.600081 0.861080 0.004221 0.0
2.027242 0.554661 -0.001308 0.0
0.678886 1.378140 0.007083 0.0
0.768566 0.810197 0.000308 0.0
4.378339 1.401049 0.001811 0.0
3.504489 0.532317 -0.000282 0.0
3.631081 1.452985 0.002916 0.0
3.975423 0.313734 -0.000783 0.0
3.686317 1.082613 0.000484 0.0
1.754971 0.142365 -0.001464 0.0
0.541509 0.153461 0.000089 0.0
4.375088 0.092003 0.000235 0.0
3.640780 0.153915 0.001459 0.0
3.917505 0.247613 0.002633 0.0
2.768170 0.299867 -0.004378 0.0
3.299556 1.052928 -0.001404 0.0
0.473127 1.130692 0.000340 0.0
1.730863 0.710343 0.001944 0.0
3.987129 0.648168 -0.002401 0.0
2.189083 0.177757 0.006655 0.0
1.133443 0.889817 0.002723 0.0
0.648607 1.543519 0.001452 0.0
1.690541 1.487029 -0.001426 0.0
0.732041 1.614038 -0.002566 0.0
2.105579 0.264070 0.004177 0.0
4.270363 0.200889 0.000635 0.0
2.860873 1.033968 -0.001457 0.0
3.378194 0.209664 -0.001529 0.0
1.522673 0.686747 0.001839 0.0
3.750413 0.861897 -0.001180 0.0
3.173915 0.561306 -0.001245 0.0
2.822568 1.597655 0.000715 0.0
1.334803 1.121753 0.000417 0.0
3.332633 1.303777 -0.001408 0.0
1.197689 0.586089 0.003061 0.0
1.340887 0.176319 -0.001030 0.0
3.977120 1.166534 -0.002440 0.0
4.335610 0.352408 0.001817 0.0
4.261862 0.505445 0.000939 0.0
4.019880 0.327741 -0.000910 0.0
4.143918 0.623028 0.001129 0.0
2.628320 1.218860 0.002413 0.0
2.392772 0.868353 0.002648 0.0
2.497133 1.787004 0.001377 0.0
2.519265 1.297630 0.002715 0.0
2.444641 0.662540 -0.000717 0.0
2.425214 1.069152 0.001885 0.0
0.922370 0.296228 0.001195 0.0
4.498104 0.613599 0.002281 0.0
1.529283 1.640716 -0.002126 0.0
2.358058 1.357204 -0.002525 0.0
2.843407 1.697505 -0.003258 0.0
0.372097 1.234562 0.000439 0.0
4.485768 1.489153 0.001340 0.0
4.401182 0.355011 -0.001174 0.0
0.975363 1.643799 0.003199 0.0
4.285415 1.743247 0.001046 0.0
0.126405 1.379838 -0.000357 0.0
1.194148 0.041210 0.003736 0.0
4.562084 1.456221 0.001484 0.0
2.253822 1.296134 0.005215 0.0
3.145760 1.692281 0.001356 0.0
3.277075 1.667996 0.001570 0.0
