1.943243 1.082220 0.002722 0.0
1.872854 0.542844 -0.001808 0.0
2.871656 0.219123 0.002122 0.0
0.055760 0.277821 -0.002436 0.0
4.412564 0.345118 -0.002782 0.0
1.870689 0.633122 -0.004228 0.0
3.482011 0.790322 0.002337 0.0
3.243152 0.814696 -0.000962 0.0
3.877473 1.073332 0.001778 0.0
1.860504 1.269132 -0.000924 0.0
0.202392 0.816466 -0.001311 0.0
2.372664 0.188794 -0.003377 0.0
3.105273 0.752263 0.001764 0.0
0.865429 0.612985 0.002883 0.0
4.418818 1.232873 0.000229 0.0
2.868768 0.953993 0.002358 0.0
3.397324 0.389623 0.001789 0.0
2.932071 0.557385 0.000043 0.0
0.675353 0.010443 -0.000433 0.0
3.812736 0.552013 0.002734 0.0
1.396580 1.402389 -0.000867 0.0
2.210228 1.113120 -0.002993 0.0
1.861217 1.551987 -0.004318 0.0
1.911335 0.746270 -0.002364 0.0
0.309147 1.605407 0.001764 0.0
1.023101 1.291089 -0.002349 0.0
1.635487 0.187159 -0.000957 0.0
2.148055 0.528888 -0.001262 0.0
4.258082 0.136631 -0.003388 0.0
1.574756 0.326432 0.001193 0.0
1.621533 1.172087 -0.000553 0.0
3.165764 1.441675 0.000977 0.0
2.682164 0.619524 -0.004183 0.0
1.360130 0.664865 -0.000970 0.0
1.461012 0.881070 0.000325 0.0
1.016622 0.821279 -0.000737 0.0
0.707165 1.538300 0.002639 0.0
1.304823 0.774994 -0.000171 0.0
4.149046 0.337892 -0.000348 0.0
0.972907 0.648623 0.002536 0.0
3.857719 1.029214 -0.000294 0.0
3.081240 0.586920 -0.001071 0.0
3.788373 1.416198 0.000381 0.0
3.262528 0.092109 0.001287 0.0
2.941997 -0.004429 0.003907 0.0
2.709370 1.287594 0.005678 0.0
1.515485 1.641432 0.003235 0.0
2.144344 0.414747 0.005509 0.0
1.561640 1.089612 0.000342 0.0
0.874659 0.787873 0.007114 0.0
3.245972 0.348445 0.002317 0.0
0.065951 1.026901 -0.001164 0.0
2.580985 0.912614 -0.001864 0.0
2.784167 0.114864 -0.000634 0.0
3.001130 0.801867 0.004536 0.0
2.008121 0.452699 -0.001966 0.0
3.743042 0.567508 0.000817 0.0
3.766962 1.095125 0.002737 0.0
2.455298 0.245332 0.001024 0.0
0.869666 1.199858 -0.000481 0.0
2.095370 0.835257 0.000150 0.0
0.762345 0.355931 -0.000373 0.0
1.319221 1.669158 -0.003161 0.0
0.253411 0.129782 0.000787 0.0
0.262129 1.429867 -0.005298 0.0
4.484149 0.136888 0.001288 0.0
2.196902 0.446040 0.003941 0.0
2.647912 0.935790 0.000272 0.0
1.186705 1.070462 -0.000190 0.0
1.599247 1.040614 0.002538 0.0
1.986573 1.202659 0.001029 0.0
1.065212 0.253889 -0.003465 0.0
0.983901 0.914790 -0.004479 0.0
3.476320 1.426598 0.000180 0.0
4.617593 1.053380 -0.001509 0.0
2.840638 0.225055 0.006300 0.0
2.829352 0.140000 -0.001151 0.0
1.298729 0.064890 0.002601 0.0
0.114959 0.336021 -0.001929 0.0
2.546340 1.001381 0.000129 0.0
4.356511 1.294396 -0.002139 0.0
2.216925 0.962375 -0.002668 0.0
2.715522 1.439954 -0.002059 0.0
0.484001 1.563452 0.002199 0.0
2.810448 0.791913 0.003055 0.0
4.532009 1.474590 -0.002130 0.0
2.965555 1.044244 0.003698 0.0
0.754171 1.549387 0.000330 0.0
2.953180 0.865225 -0.001834 0.0
4.488547 1.240084 0.002328 0.0
1.984942 0.763955 0.002470 0.0
4.132476 0.320861 -0.000799 0.0
0.983580 0.627240 -0.002702 0.0
4.282796 1.510492 -0.002075 0.0
3.867825 1.603048 0.000417 0.0
2.534795 0.665481 0.002676 0.0
2.718460 1.124727 0.000710 0.0
1.825390 0.198018 -0.000623 0.0
2.550181 0.125053 -0.001592 0.0
4.284179 1.154672 -0.003134 0.0
2.597124 0.587460 -0.000642 0.0
1.182793 0.378861 0.002087 0.0
3.374306 1.352516 0.000542 0.0
0.594832 0.346501 0.002476 0.0
0.528778 0.274097 0.000114 0.0
3.515948 0.784220 0.003395 0.0
2.183737 1.012417 0.000516 0.0
2.566558 0.107040 0.000827 0.0
1.053932 1.242692 -0.001853 0.0
0.998211 0.396097 0.002495 0.0
0.074304 1.566262 0.002401 0.0
4.517147 0.434981 0.003904 0.0
4.144177 0.691411 0.001987 0.0
1.922264 0.735948 0.000901 0.0
3.080607 0.992387 0.000310 0.0
1.079429 0.026802 -0.002380 0.0
0.066230 0.020009 0.002842 0.0
2.356463 0.697866 0.001785 0.0
0.180500 1.663781 -0.002958 0.0
3.748027 0.723153 -0.000795 0.0
1.351774 0.233374 -0.000438 0.0
3.686007 1.625414 -0.001497 0.0
4.549511 0.347412 0.000400 0.0
4.752099 0.443699 -0.000265 0.0
2.629820 1.054718 0.004301 0.0
3.252329 0.453886 -0.001100 0.0
0.399462 1.096387 -0.001575 0.0
3.685878 1.452128 0.000691 0.0
0.440580 0.495565 -0.000384 0.0
2.229900 0.730811 -0.002218 0.0
0.541070 0.719552 0.003702 0.0
1.908340 0.460134 -0.003088 0.0
4.496306 1.673353 0.000258 0.0
1.924850 0.452352 -0.002850 0.0
3.467352 1.553696 0.003473 0.0
2.184625 0.179327 -0.000254 0.0
4.676139 1.028094 0.002379 0.0
2.360561 1.156169 -0.000477 0.0
1.513201 0.976417 -0.001761 0.0
2.009213 0.019316 -0.004039 0.0
4.542973 1.542510 0.001175 0.0
3.224062 0.472739 -0.000627 0.0
2.013774 1.000902 -0.001387 0.0
2.209744 1.395944 0.002791 0.0
1.655813 0.287306 -0.001927 0.0
1.578607 1.462269 -0.000059 0.0
0.970654 1.296036 -0.001289 0.0
4.335270 0.191703 0.004447 0.0
4.321958 0.138888 0.000512 0.0
1.914578 1.549097 0.001546 0.0
3.255766 0.380535 -0.001830 0.0
1.399762 0.917193 -0.003151 0.0
3.822939 0.068083 -0.002276 0.0
1.901716 0.795550 -0.002425 0.0
0.151014 0.291278 -0.002325 0.0
0.996825 0.951011 0.003250 0.0
3.166881 1.053072 0.003429 0.0
2.168451 0.093842 0.000618 0.0
1.166922 1.176025 -0.000980 0.0
1.685275 1.377717 -0.000589 0.0
1.871514 1.399759 -0.006439 0.0
2.492302 1.314613 0.000886 0.0
4.468256 1.376799 0.001642 0.0
2.871811 1.379122 0.001782 0.0
2.906378 0.293648 -0.000069 0.0
2.081764 1.422898 -0.002660 0.0
3.739878 1.478031 -0.002136 0.0
3.083051 1.067910 0.001239 0.0
1.558970 0.473581 0.000412 0.0
3.536327 0.956238 0.002863 0.0
4.777604 0.763430 0.000694 0.0
4.501737 0.535900 -0.002954 0.0
1.150928 1.233087 -0.000443 0.0
1.877696 0.479010 0.002171 0.0
4.481643 0.981425 -0.001591 0.0
0.613153 0.956476 0.001551 0.0
3.735772 0.488927 0.000351 0.0
0.730225 0.289170 -0.001630 0.0
0.767333 1.638241 0.002609 0.0
0.203372 0.801273 -0.003681 0.0
3.445984 0.829675 0.001901 0.0
1.617525 1.677450 -0.006104 0.0
1.029143 0.272623 0.001142 0.0
0.705342 1.496541 0.001937 0.0
3.948562 1.389986 -0.000056 0.0
0.500739 1.490315 0.002971 0.0
2.765861 0.716040 0.001003 0.0
0.047408 1.132956 0.000273 0.0
1.423421 0.236890 -0.005204 0.0
1.410854 1.558200 0.004479 0.0
2.955134 1.597570 0.002287 0.0
1.448713 1.437641 0.002923 0.0
3.241085 0.686705 0.003841 0.0
0.023426 0.027917 0.000384 0.0
4.160819 0.850811 -0.002292 0.0
4.060397 0.742796 0.001296 0.0
3.645884 0.745023 -0.004945 0.0
3.578528 1.403111 0.000087 0.0
2.755888 1.057547 -0.000615 0.0
2.598365 0.867029 -0.002338 0.0
4.183955 0.171215 0.000183 0.0
2.239706 1.609454 -0.000167 0.0
4.768185 1.504902 0.001757 0.0
0.086981 0.600159 0.000240 0.0
4.783955 0.804306 -0.001672 0.0
3.336861 0.852218 0.001447 0.0
3.314000 1.074335 -0.002054 0.0
3.374330 0.847412 0.002421 0.0
1.656199 1.294212 -0.000411 0.0
0.481770 1.491457 -0.000845 0.0
2.410332 0.369158 0.004055 0.0
2.416574 1.046505 0.002731 0.0
2.664409 1.059510 -0.000679 0.0
1.808569 1.586682 -0.002594 0.0
0.200756 0.808235 0.002981 0.0
2.067996 0.008748 0.003586 0.0
4.108556 0.846190 0.000974 0.0
0.494711 1.547346 0.001192 0.0
0.678172 1.401540 0.000766 0.0
1.923702 0.649893 -0.000774 0.0
2.329981 1.149553 -0.004476 0.0
1.088443 0.544354 -0.002124 0.0
0.878486 0.347534 0.004456 0.0
0.373049 0.799793 0.000559 0.0
2.398505 0.412397 0.001378 0.0
4.582056 1.429416 -0.000712 0.0
4.002510 1.481942 -0.000686 0.0
2.137655 1.205330 0.000947 0.0
4.404667 0.051222 0.001354 0.0
2.318971 0.413204 -0.001427 0.0
2.570983 0.210454 0.000618 0.0
4.149251 1.229884 0.000176 0.0
2.046834 1.338013 -0.001834 0.0
0.453020 1.551681 -0.000627 0.0
0.839781 1.575715 -0.001648 0.0
4.464196 0.842457 -0.003026 0.0
2.357912 0.951931 -0.000139 0.0
2.460007 0.027192 0.000624 0.0
4.376071 1.434454 -0.002695 0.0
3.584840 0.985673 0.000897 0.0
2.758907 1.046778 -0.004796 0.0
0.366544 0.378054 0.001723 0.0
3.682907 0.281682 -0.000593 0.0
2.904307 0.654640 -0.005045 0.0
0.274769 0.285990 0.000696 0.0
2.489851 0.643072 -0.002265 0.0
1.210247 1.293004 -0.000274 0.0
3.798566 0.009159 -0.000940 0.0
0.483448 0.532391 -0.000848 0.0
0.484614 1.110176 -0.000860 0.0
3.751289 0.862616 -0.001572 0.0
1.608449 0.102961 -0.002123 0.0
4.130928 1.249144 0.002002 0.0
2.448998 0.971402 0.000303 0.0
4.005280 0.511811 0.000965 0.0
1.174620 1.669789 0.000646 0.0
3.473078 0.849328 0.000550 0.0
3.725011 1.672615 -0.001129 0.0
0.881737 1.227473 0.002287 0.0
4.260829 0.001683 0.001831 0.0
3.502669 1.483085 -0.000327 0.0
0.850343 0.037605 -0.001764 0.0
3.974145 1.248361 0.001633 0.0
1.149735 1.553963 0.000295 0.0
3.966528 0.097577 0.002517 0.0
3.347547 0.373292 0.000236 0.0
2.620524 0.083456 0.001457 0.0
2.755187 0.832719 0.002452 0.0
1.948021 0.426715 -0.003849 0.0
3.785625 0.247527 0.000089 0.0
3.069201 0.402179 0.001877 0.0
3.873498 0.822489 0.000205 0.0
4.734685 1.276295 -0.000960 0.0
4.100986 1.103011 0.001140 0.0
0.914007 0.243636 -0.001099 0.0
0.503225 0.346968 0.000486 0.0
4.194422 0.982795 -0.000381 0.0
0.239377 0.079178 -0.004185 0.0
2.380443 0.168454 -0.002998 0.0
4.339462 1.554323 0.001817 0.0
3.651927 1.480676 0.001231 0.0
2.439948 1.649424 0.003207 0.0
1.467739 0.782552 -0.006382 0.0
2.626099 1.118213 -0.000444 0.0
3.476631 1.628620 0.003457 0.0
1.099516 1.518648 -0.003132 0.0
2.113432 0.247700 -0.003323 0.0
3.457370 0.476831 -0.003138 0.0
0.474989 1.429146 -0.001996 0.0
3.986579 0.692802 0.001264 0.0
4.787687 1.143033 0.001839 0.0
1.315270 1.425045 -0.002930 0.0
3.260489 1.470880 0.000698 0.0
0.378593 0.760907 -0.001422 0.0
2.013967 0.322673 0.002838 0.0
2.508753 1.164380 -0.004333 0.0
3.849948 1.239757 0.000238 0.0
3.293768 0.792830 0.003708 0.0
2.055137 1.007642 0.000658 0.0
1.277076 0.348177 -0.001232 0.0
0.829216 0.082453 0.000282 0.0
1.337976 0.305339 0.001215 0.0
0.711782 0.327759 -0.000017 0.0
0.716015 1.279466 0.000923 0.0
1.852761 1.259198 0.004574 0.0
0.793597 0.685467 -0.003348 0.0
4.225824 0.376133 0.000261 0.0
4.432994 0.269953 0.003566 0.0
0.791304 0.234520 0.005685 0.0
3.016625 1.553986 0.005403 0.0
3.748143 1.000543 -0.001615 0.0
4.297623 0.135619 -0.005129 0.0
3.632875 0.974111 -0.001298 0.0
0.578272 1.105874 -0.000145 0.0
3.222750 1.520853 0.003676 0.0
0.418111 0.373377 0.002171 0.0
0.072022 0.566901 0.001953 0.0
2.021982 1.056705 0.000682 0.0
1.184663 0.170273 0.001094 0.0
1.382020 0.935747 -0.001947 0.0
2.535246 1.115953 0.001656 0.0
0.527106 0.448622 -0.000962 0.0
3.140044 0.246450 -0.005324 0.0
2.563053 0.302422 0.001113 0.0
3.452917 0.900628 -0.001038 0.0
4.405234 1.196092 -0.001309 0.0
1.844463 0.202982 -0.000685 0.0
3.648137 0.227357 0.004458 0.0
4.775561 1.447886 0.000331 0.0
0.275169 0.915563 0.004473 0.0
0.627559 1.232676 -0.001923 0.0
4.720480 1.024617 0.002881 0.0
2.269848 1.517782 -0.000836 0.0
0.293600 0.651539 -0.000816 0.0
1.008339 1.681655 -0.006337 0.0
0.691982 0.799444 0.000695 0.0
0.666143 0.396278 -0.000227 0.0
2.883202 1.591578 -0.000999 0.0
2.659739 0.396845 -0.000333 0.0
4.415378 0.115932 -0.000620 0.0
4.076790 0.891401 0.000529 0.0
1.498487 1.567437 0.002380 0.0
0.188473 0.463698 0.000027 0.0
2.931514 0.163951 0.002935 0.0
1.639172 1.287774 0.006627 0.0
4.497312 0.647697 0.001719 0.0
2.301285 0.163521 -0.001059 0.0
1.582340 1.548574 -0.000912 0.0
1.856057 1.372734 0.005922 0.0
4.770297 0.187114 0.001488 0.0
3.502325 0.627653 0.000446 0.0
3.064285 0.034580 0.002712 0.0
0.066871 0.775839 -0.000003 0.0
2.022407 0.606950 -0.003836 0.0
2.942811 1.359658 -0.002859 0.0
2.933893 0.807542 0.003237 0.0
0.978953 0.320478 -0.002133 0.0
0.195180 0.327840 0.000137 0.0
0.333142 0.073882 -0.000428 0.0
1.545736 1.084056 -0.001394 0.0
2.729555 1.273292 0.000243 0.0
2.204609 0.584908 0.001070 0.0
4.161245 0.416112 -0.000477 0.0
2.450020 1.022274 0.004226 0.0
3.017049 1.243850 0.001474 0.0
2.959380 0.400932 0.002106 0.0
0.124913 0.797742 -0.000450 0.0
3.587729 -0.000814 -0.003556 0.0
3.292120 0.534063 0.000143 0.0
3.280977 1.250137 -0.000750 0.0
3.663799 1.392717 0.000261 0.0
0.734200 1.532555 0.000137 0.0
2.956029 0.738886 -0.001779 0.0
2.720618 0.575904 0.002084 0.0
0.361486 0.554522 0.000958 0.0
0.368283 1.569256 0.001142 0.0
0.946980 0.325266 -0.002706 0.0
1.343473 1.240766 -0.005726 0.0
0.657830 1.218862 -0.000974 0.0
2.620261 0.193847 0.004472 0.0
4.591218 1.461705 0.001035 0.0
2.296327 0.501966 0.002586 0.0
3.171671 0.409437 -0.001823 0.0
4.187613 0.163504 0.003964 0.0
3.201240 1.338700 0.003563 0.0
2.549310 1.321108 -0.001107 0.0
0.439118 1.640672 -0.003185 0.0
2.506853 0.033963 0.001034 0.0
0.777942 0.276929 0.001085 0.0
4.221051 0.833956 -0.001467 0.0
3.210274 1.087856 0.000516 0.0
1.313414 0.514076 -0.001135 0.0
3.082706 1.101487 -0.001372 0.0
4.240342 0.742448 -0.000192 0.0
3.826625 0.678223 -0.004822 0.0
1.389155 1.465174 0.002828 0.0
2.657383 0.326541 -0.000491 0.0
0.944745 1.670261 0.001525 0.0
4.246071 1.343967 -0.001517 0.0
2.550209 0.712351 0.004308 0.0
4.501834 0.555348 0.002890 0.0
0.686152 0.860478 0.000249 0.0
0.557249 1.647066 -0.001998 0.0
1.971325 1.447302 0.005939 0.0
1.513722 1.375720 0.003604 0.0
4.565349 1.490005 0.001863 0.0
0.742838 1.418907 0.001326 0.0
1.654297 1.281407 0.001513 0.0
2.247402 0.333637 -0.003422 0.0
3.194036 0.188697 -0.001110 0.0
1.629691 1.257845 0.000911 0.0
3.024809 1.391424 0.003035 0.0
0.192973 0.247785 -0.002478 0.0
2.569281 0.609417 0.003168 0.0
0.276654 0.211104 0.003449 0.0
4.575869 0.333556 -0.001300 0.0
3.927747 1.682236 0.002995 0.0
1.653487 1.112602 -0.000074 0.0
2.577580 0.130826 0.002183 0.0
0.181510 1.008011 0.004489 0.0
3.132631 1.419896 -0.002834 0.0
2.793618 1.370506 0.004552 0.0
2.560414 0.882582 -0.001322 0.0
3.319579 1.640505 -0.002428 0.0
4.717699 0.705891 0.000794 0.0
1.199898 1.281999 0.003618 0.0
1.559861 0.444769 0.001294 0.0
3.970463 1.155008 0.001839 0.0
1.723419 0.150690 0.000507 0.0
0.198326 0.500231 0.000467 0.0
4.230720 0.803714 -0.001401 0.0
3.116457 0.801021 0.002965 0.0
3.672284 0.831117 -0.000009 0.0
2.292427 0.558758 -0.000259 0.0
3.610563 0.305394 0.000232 0.0
1.379261 0.397308 -0.002191 0.0
0.945925 0.976045 0.004442 0.0
3.074386 0.694250 0.000446 0.0
3.708564 0.158931 0.000614 0.0
0.118521 0.172870 -0.006525 0.0
3.311009 0.412847 0.001101 0.0
0.274499 1.238010 -0.000065 0.0
2.507346 1.598980 0.002420 0.0
1.113869 1.487664 0.000205 0.0
3.918841 0.131735 -0.002300 0.0
1.689255 0.756035 0.001942 0.0
0.701119 0.515738 -0.001727 0.0
4.104306 1.622202 0.001774 0.0
0.589348 0.810180 0.001424 0.0
1.503709 1.645161 -0.001262 0.0
1.577915 0.764326 -0.001614 0.0
0.956693 0.425261 -0.001530 0.0
0.302349 1.302015 -0.000793 0.0
1.043974 1.555527 0.000966 0.0
4.485770 0.084972 -0.000922 0.0
3.348783 0.959452 -0.002101 0.0
2.378859 0.257062 0.002206 0.0
0.061162 1.324781 0.002343 0.0
3.166787 0.425988 0.002134 0.0
2.602115 1.214677 0.000148 0.0
0.646308 1.118231 0.002559 0.0
0.654302 0.111462 -0.002167 0.0
2.948568 0.109818 -0.000750 0.0
4.718576 0.815937 0.004596 0.0
3.643357 1.381804 -0.002968 0.0
0.953508 0.229845 0.000964 0.0
0.316701 0.254573 0.001426 0.0
0.046045 0.503431 -0.002256 0.0
2.286393 1.387465 -0.003635 0.0
3.422701 1.473304 -0.004192 0.0
2.392206 0.377560 0.003264 0.0
4.451787 1.220726 0.001356 0.0
1.105589 0.590258 0.001765 0.0
1.330689 1.622094 -0.004425 0.0
4.167747 1.611566 -0.000826 0.0
4.689554 1.171317 -0.005714 0.0
3.108912 0.226809 -0.002512 0.0
1.375935 1.655666 -0.002432 0.0
2.766829 1.548635 0.001787 0.0
4.745448 1.097275 -0.003735 0.0
3.655916 1.436948 -0.002897 0.0
2.528026 0.056616 0.000782 0.0
0.215645 0.062123 -0.002101 0.0
1.944302 1.334343 -0.003228 0.0
3.451153 1.562132 -0.002654 0.0
1.822609 1.084065 0.000570 0.0
3.893040 0.494575 0.001307 0.0
3.490755 1.617375 0.002872 0.0
4.214000 1.671746 -0.000878 0.0
1.635915 1.218050 -0.001313 0.0
1.082136 1.226145 0.002659 0.0
2.749170 1.163040 -0.003008 0.0
1.896238 1.382205 -0.000135 0.0
3.792513 0.928812 -0.001845 0.0
2.437919 0.726076 -0.001815 0.0
1.456955 1.082941 0.002959 0.0
3.981884 0.460736 0.001281 0.0
0.086624 1.521537 -0.001251 0.0
2.528646 0.656055 0.003046 0.0
2.621840 1.204558 0.000897 0.0
2.294986 1.037295 0.007192 0.0
4.000310 0.993658 0.001721 0.0
0.038770 1.370013 -0.003066 0.0
4.063036 0.850564 0.003848 0.0
1.051141 1.373599 0.003915 0.0
2.309737 0.604330 0.001000 0.0
1.602272 1.232380 -0.002237 0.0
4.343259 0.863771 0.001127 0.0
1.700170 0.739790 0.003950 0.0
0.229423 1.605962 0.001243 0.0
3.548171 1.139790 0.003948 0.0
2.039672 1.453722 0.001250 0.0
0.850957 0.566359 -0.000623 0.0
4.637285 0.529823 0.002556 0.0
3.658657 1.474919 0.001963 0.0
0.833258 0.985798 0.001542 0.0
1.119073 0.504363 -0.000925 0.0
3.769929 0.263551 -0.002699 0.0
0.519581 1.067317 0.000726 0.0
1.232223 1.083380 0.002813 0.0
1.060517 1.201117 0.003314 0.0
0.612380 1.033074 -0.000889 0.0
1.245482 0.905545 -0.000521 0.0
0.249166 1.581415 -0.002685 0.0
0.115062 0.202405 -0.001547 0.0
2.519051 1.159332 -0.002744 0.0
4.736761 1.396996 -0.000398 0.0
4.413552 0.630192 -0.001867 0.0
4.755402 1.637323 0.001871 0.0
3.422907 0.356401 0.001207 0.0
2.160388 1.210780 -0.001963 0.0
1.140352 0.150851 0.002030 0.0
4.373758 1.682784 0.001172 0.0
0.520746 1.338468 0.000832 0.0
1.615924 0.758038 -0.003571 0.0
0.865569 1.643286 -0.000216 0.0
1.666516 0.597195 0.001567 0.0
1.293814 0.373467 -0.001091 0.0
3.327130 0.360125 0.000723 0.0
0.218283 1.591611 -0.002862 0.0
2.951902 0.156347 -0.001754 0.0
1.193818 1.284877 0.002804 0.0
4.542837 0.935221 -0.000648 0.0
0.376893 0.520296 -0.000546 0.0
4.507769 0.299326 -0.006551 0.0
4.120864 0.289771 0.001052 0.0
2.512747 0.023486 0.004021 0.0
3.280047 1.262236 -0.000055 0.0
3.208263 0.349441 -0.001351 0.0
0.332073 0.316520 0.000053 0.0
0.510190 1.290607 -0.002444 0.0
2.719569 0.654390 -0.001829 0.0
4.156133 1.505471 0.001659 0.0
3.117594 0.695131 0.001936 0.0
4.464521 1.093121 -0.000932 0.0
1.313026 0.337435 -0.001467 0.0
2.519827 0.766517 -0.004642 0.0
4.029786 0.424463 -0.000600 0.0
0.636769 1.535934 0.005052 0.0
0.620704 0.609900 0.002594 0.0
4.249277 0.055188 -0.000118 0.0
3.963081 1.645307 0.001112 0.0
1.706871 0.405979 0.004606 0.0
2.510565 1.013451 0.001695 0.0
4.150105 0.274656 -0.002497 0.0
1.823495 0.530835 0.000714 0.0
2.591288 1.042290 0.000637 0.0
2.789675 1.027518 -0.002542 0.0
3.106967 1.616312 -0.002966 0.0
2.908062 1.318174 -0.004198 0.0
3.696491 1.337826 0.002716 0.0
2.594153 0.845652 -0.003662 0.0
1.453054 0.835693 -0.001020 0.0
1.042456 1.099968 -0.000848 0.0
0.238869 0.732223 -0.001798 0.0
3.336164 1.005991 0.000660 0.0
1.162139 1.464911 -0.001966 0.0
0.903542 0.997693 -0.001780 0.0
2.780376 1.535296 -0.000116 0.0
0.853993 1.071790 -0.001768 0.0
4.782748 0.545267 0.001750 0.0
1.509522 0.294936 0.000355 0.0
4.498996 0.548200 -0.002811 0.0
4.167715 0.425152 0.000036 0.0
1.857704 0.283528 -0.005743 0.0
0.096895 0.495203 0.002316 0.0
0.728607 0.091133 -0.001309 0.0
4.169335 0.409834 0.001679 0.0
3.418982 0.582767 0.002022 0.0
2.995807 1.484767 -0.000102 0.0
2.739725 0.185899 -0.002370 0.0
1.022041 0.222593 -0.001264 0.0
2.935818 1.584701 -0.004997 0.0
4.347459 1.040697 0.002134 0.0
1.507114 0.244818 -0.005363 0.0
2.112606 0.804458 -0.002652 0.0
1.042022 1.285198 0.004003 0.0
1.461037 1.658028 0.001704 0.0
3.975010 1.643219 -0.000907 0.0
2.395060 0.883703 0.000450 0.0
4.759958 1.231396 0.002452 0.0
0.066439 1.224242 0.000374 0.0
2.998900 0.755739 -0.000519 0.0
2.102733 1.045445 0.001315 0.0
4.761166 0.801725 0.003009 0.0
0.096140 1.136103 0.003636 0.0
0.677203 1.215415 0.001658 0.0
2.634014 0.654702 0.000949 0.0
1.533733 0.990902 0.002552 0.0
4.354604 1.258487 0.002520 0.0
1.885113 0.712153 -0.000890 0.0
4.544461 0.294359 0.000910 0.0
0.188258 0.010246 -0.001762 0.0
2.628108 1.570290 0.005207 0.0
0.971227 1.571153 -0.003788 0.0
4.608436 0.339371 0.001946 0.0
0.343446 0.405580 -0.000885 0.0
3.105934 0.894915 0.001150 0.0
2.241646 0.131656 0.001204 0.0
1.157307 0.617930 -0.002054 0.0
1.252558 0.923900 -0.003954 0.0
1.720600 0.755306 -0.000597 0.0
0.047492 0.368805 -0.000763 0.0
0.826098 1.467982 0.000707 0.0
3.948783 0.275620 -0.002788 0.0
3.812716 0.551758 -0.002670 0.0
4.312323 1.142467 0.001869 0.0
1.301188 0.193525 0.003626 0.0
0.969902 0.842849 0.007055 0.0
3.190297 1.260153 0.001110 0.0
2.917157 1.162087 -0.000210 0.0
1.983991 1.045282 -0.004793 0.0
1.128432 1.113609 -0.003485 0.0
1.610705 1.098121 0.002850 0.0
4.162299 0.760825 0.000743 0.0
1.752167 1.000845 0.001379 0.0
3.848995 1.645351 -0.001744 0.0
1.593790 0.884453 -0.002619 0.0
2.578008 0.153837 -0.000869 0.0
1.363914 1.090231 0.000483 0.0
3.713332 1.119735 0.000438 0.0
4.545137 1.326795 0.002812 0.0
3.634462 0.884924 -0.004217 0.0
4.592098 0.734731 0.002759 0.0
4.652664 0.442540 0.004241 0.0
1.774471 1.343283 -0.004722 0.0
4.427575 1.554847 0.000354 0.0
1.813947 1.030942 0.005299 0.0
3.871221 1.626705 0.002937 0.0
2.848789 0.019316 -0.002694 0.0
0.054894 0.848425 -0.001317 0.0
3.080623 0.763642 0.000169 0.0
4.271907 0.802418 0.000214 0.0
4.610818 0.621218 -0.003730 0.0
2.822014 1.508316 -0.005967 0.0
2.219640 1.543246 -0.004385 0.0
0.126936 0.278501 -0.004178 0.0
4.340129 1.470792 -0.001495 0.0
1.858962 1.123222 -0.001784 0.0
0.439837 1.139214 -0.002736 0.0
1.042398 0.080814 0.001823 0.0
1.113121 1.273467 0.002350 0.0
4.703781 0.501910 0.003320 0.0
0.566431 1.016866 0.000645 0.0
0.926156 0.756094 0.000242 0.0
3.669064 1.510271 -0.002021 0.0
1.565743 0.076231 0.000995 0.0
0.618422 0.868120 0.001561 0.0
4.169486 0.431088 0.002510 0.0
4.766929 0.037868 0.000792 0.0
2.221192 0.239472 0.000006 0.0
3.012036 0.703892 0.000179 0.0
2.126332 1.320667 0.000909 0.0
3.684012 1.365139 -0.005354 0.0
0.526030 0.687262 -0.000566 0.0
0.338123 0.603651 0.005434 0.0
1.229400 0.332908 0.000986 0.0
0.666039 0.220979 -0.000835 0.0
0.194674 0.276930 -0.004479 0.0
3.905725 0.530100 0.002310 0.0
0.036178 1.458242 0.000841 0.0
0.398302 1.426775 0.001307 0.0
3.699686 1.372471 0.000168 0.0
0.717510 1.373314 -0.000768 0.0
0.097588 0.599624 0.001951 0.0
0.385196 0.384034 0.002297 0.0
3.779185 1.512670 -0.000634 0.0
0.201328 0.255077 0.005687 0.0
0.393026 1.265823 -0.003903 0.0
2.734170 0.149567 0.003407 0.0
0.019832 0.627684 0.001646 0.0
0.968707 0.719619 0.000726 0.0
2.940052 0.800370 -0.000694 0.0
1.975504 1.209571 0.004236 0.0
3.091094 0.599710 0.002984 0.0
1.671459 0.069052 0.002108 0.0
2.671127 1.105256 -0.005641 0.0
4.391872 1.301294 -0.001727 0.0
2.915672 0.189719 0.002931 0.0
1.826935 0.212439 0.000461 0.0
2.343455 1.361817 0.001165 0.0
1.809853 1.656107 0.000450 0.0
4.357995 0.982948 -0.001809 0.0
3.489364 0.401165 0.001391 0.0
2.145073 0.629588 -0.004738 0.0
3.690786 0.602370 -0.000978 0.0
3.639498 1.485116 -0.003331 0.0
1.696980 1.645767 0.000345 0.0
3.321696 1.308071 -0.000129 0.0
3.291346 0.335921 0.001262 0.0
2.246505 0.114071 -0.001494 0.0
0.211287 0.535061 -0.000317 0.0
0.064810 0.806561 -0.000388 0.0
2.618428 1.632287 0.004093 0.0
1.002163 0.648063 0.001389 0.0
3.157998 1.153493 -0.002982 0.0
2.476129 0.691624 0.003340 0.0
3.338990 0.782460 -0.001787 0.0
1.849455 1.191953 0.000512 0.0
2.060091 0.363021 0.002459 0.0
3.587553 1.578647 -0.001969 0.0
2.858918 0.132782 0.005410 0.0
3.599689 1.015101 0.000245 0.0
1.480250 0.286689 0.002177 0.0
3.754036 0.492661 -0.001172 0.0
2.471069 0.303291 0.000341 0.0
1.774484 0.030307 0.002675 0.0
3.565119 0.831552 0.000170 0.0
2.402558 1.254615 -0.000588 0.0
3.634493 0.655757 0.000438 0.0
3.963279 0.585252 -0.003516 0.0
2.483905 0.073705 0.001524 0.0
0.907943 0.165596 -0.001089 0.0
1.438581 1.223829 0.002155 0.0
0.412300 0.678883 -0.002323 0.0
1.295871 1.465205 0.002871 0.0
2.980936 0.880062 -0.000341 0.0
3.425633 0.761835 0.001499 0.0
2.597534 0.518756 0.000420 0.0
1.826031 0.981308 -0.000854 0.0
2.387066 0.478237 -0.003002 0.0
2.858150 0.016748 0.002482 0.0
3.346340 0.718858 0.001037 0.0
0.325778 1.263062 -0.003594 0.0
3.931826 0.003212 -0.000115 0.0
3.202744 0.299677 0.000045 0.0
2.894463 0.814217 0.001616 0.0
0.754335 0.319490 -0.004011 0.0
4.515618 1.023091 0.000164 0.0
1.058506 1.363800 0.003753 0.0
2.272793 1.667380 -0.000752 0.0
2.266787 1.353787 -0.003508 0.0
0.275170 0.079235 -0.000058 0.0
0.249786 1.328200 -0.000110 0.0
4.625139 1.320654 -0.000929 0.0
2.603895 0.925871 0.003428 0.0
4.643114 0.670994 0.001812 0.0
2.353839 1.137563 -0.002102 0.0
2.261231 0.854405 -0.001753 0.0
3.958347 1.447605 -0.000183 0.0
3.772614 1.448124 0.002589 0.0
3.559439 0.739169 -0.000088 0.0
4.423827 0.594226 0.005367 0.0
2.907668 0.048144 0.000013 0.0
2.868679 0.067596 0.002961 0.0
0.143387 0.631590 0.002101 0.0
0.431949 1.533857 0.002928 0.0
4.101131 1.411360 -0.000017 0.0
4.303862 1.227294 0.002019 0.0
4.735346 0.396114 -0.000224 0.0
4.101792 1.099992 -0.006491 0.0
0.762290 0.078246 -0.000791 0.0
2.786071 1.362591 -0.001983 0.0
3.018817 0.370508 0.001965 0.0
3.824887 1.206647 -0.003295 0.0
0.261938 0.956081 0.001813 0.0
0.292867 1.368012 -0.001167 0.0
0.136939 1.111437 -0.001360 0.0
1.040811 1.631472 -0.002478 0.0
2.784031 0.815288 -0.002256 0.0
4.100383 0.300314 -0.003404 0.0
0.933723 0.308140 -0.004964 0.0
0.455005 1.181846 -0.004605 0.0
2.086643 0.731542 -0.001473 0.0
3.353469 1.649091 -0.002045 0.0
0.895481 0.472108 0.000932 0.0
0.763937 1.408779 0.002728 0.0
2.848809 0.293808 -0.001385 0.0
0.689103 1.313450 -0.004355 0.0
2.667500 0.871312 0.004477 0.0
0.485104 0.125089 -0.004324 0.0
3.342420 1.459279 0.001238 0.0
1.671646 1.473972 0.002616 0.0
1.355802 1.609794 0.000159 0.0
2.362432 1.000783 0.001111 0.0
3.502415 0.374555 -0.000359 0.0
2.976260 0.430819 0.006969 0.0
3.030080 0.971915 -0.000863 0.0
0.476973 1.243392 -0.001020 0.0
1.328312 1.343791 -0.005093 0.0
4.739865 1.169882 0.000168 0.0
2.296577 1.086747 -0.004016 0.0
0.979681 1.115295 -0.001111 0.0
2.687897 0.834138 -0.002494 0.0
0.227393 1.412375 0.000451 0.0
1.203433 1.362596 -0.001902 0.0
0.931643 0.325286 -0.002704 0.0
2.218338 1.485026 0.001999 0.0
3.865223 1.602786 0.002682 0.0
0.224152 0.620263 0.004064 0.0
4.190800 1.088153 0.001205 0.0
4.248290 0.238979 0.002390 0.0
0.299541 0.494374 0.003422 0.0
3.779246 0.252394 -0.003338 0.0
2.931609 0.440422 -0.000493 0.0
0.371253 0.702390 0.001789 0.0
0.184637 0.791087 0.001213 0.0
1.381593 0.570941 -0.000424 0.0
2.599984 1.313856 0.002229 0.0
1.750462 0.412568 -0.000163 0.0
2.464322 0.104387 0.001719 0.0
1.594351 0.361652 0.000505 0.0
2.020188 0.450361 -0.003959 0.0
0.076481 0.044623 -0.000055 0.0
3.609656 0.259111 -0.003223 0.0
1.896192 1.615841 0.003874 0.0
3.131399 1.296191 0.002296 0.0
3.217246 1.397235 -0.000180 0.0
0.518036 0.576642 0.000509 0.0
4.091911 0.599351 -0.000758 0.0
1.445943 1.339906 0.002314 0.0
0.515861 0.849104 0.002086 0.0
0.372405 0.747687 -0.000958 0.0
2.126758 1.392181 0.003801 0.0
3.078999 1.497554 -0.006233 0.0
0.585118 0.338128 -0.003437 0.0
3.100272 1.571866 -0.002288 0.0
1.674381 1.469460 -0.001696 0.0
4.318173 1.111845 -0.000028 0.0
1.381075 1.083676 -0.000727 0.0
3.526795 0.210790 -0.001392 0.0
2.237080 0.481975 -0.004921 0.0
1.272940 0.602526 0.000855 0.0
0.618637 1.415818 -0.005310 0.0
1.708779 1.486312 0.000874 0.0
1.650010 0.112761 -0.000483 0.0
1.425286 1.070449 -0.000271 0.0
3.410369 1.247994 0.000798 0.0
3.653298 1.119295 0.000887 0.0
4.595379 1.132625 -0.000860 0.0
2.646646 1.606419 0.000937 0.0
1.213258 1.381466 -0.000384 0.0
4.797122 0.675218 0.000318 0.0
0.358929 1.521841 -0.000482 0.0
4.388053 1.029726 0.002235 0.0
3.871121 0.249885 -0.006137 0.0
3.989793 0.284832 -0.004166 0.0
2.519540 0.378673 -0.000909 0.0
2.483198 0.604436 0.002859 0.0
0.200052 0.929500 0.001211 0.0
2.815844 0.209486 0.002783 0.0
2.827197 1.470563 0.002454 0.0
4.644297 1.447197 0.000050 0.0
1.499947 1.623289 -0.000014 0.0
3.254246 0.171315 0.000587 0.0
1.664038 0.880384 0.001366 0.0
2.209869 1.250851 -0.001416 0.0
0.961817 0.497991 -0.002570 0.0
4.644400 0.454415 -0.000713 0.0
2.796120 0.112262 -0.004307 0.0
2.305703 1.198781 -0.000728 0.0
3.334212 1.053490 0.002774 0.0
3.245203 0.337756 0.002653 0.0
2.370187 1.120811 0.001295 0.0
3.475008 1.625557 0.001124 0.0
4.532493 0.170412 0.002868 0.0
1.884893 0.211419 0.003454 0.0
3.055938 1.610595 0.004454 0.0
4.380240 0.965844 -0.001926 0.0
3.641678 0.405929 0.002507 0.0
4.465519 1.008923 -0.005554 0.0
2.660713 1.261420 0.000417 0.0
2.055472 0.542992 0.002534 0.0
4.404942 1.616972 -0.003212 0.0
0.101518 0.634885 0.002163 0.0
1.420372 0.105283 -0.002172 0.0
4.394394 0.832322 -0.002091 0.0
0.455419 1.103126 0.000414 0.0
4.358716 0.116090 -0.000481 0.0
0.709408 1.054853 -0.000219 0.0
2.957387 0.862335 -0.001983 0.0
2.880049 0.092103 -0.000225 0.0
2.633285 1.685310 0.000494 0.0
2.816731 1.074566 0.002328 0.0
0.826773 1.527564 0.002624 0.0
1.530934 0.821383 -0.002740 0.0
2.495285 0.686132 0.001523 0.0
2.002665 1.386441 0.003422 0.0
4.347311 1.250203 0.000829 0.0
2.411115 1.182496 0.001451 0.0
2.792090 0.131674 0.000766 0.0
3.607546 1.328693 -0.001168 0.0
0.205407 0.121823 -0.004300 0.0
0.804260 0.273760 0.001311 0.0
1.265019 0.054155 0.002801 0.0
2.627720 1.375176 -0.002717 0.0
0.861502 0.914170 0.000578 0.0
0.504738 1.299212 0.001064 0.0
1.790814 0.267105 -0.000982 0.0
0.670421 0.766389 -0.000609 0.0
2.593897 0.505095 -0.002796 0.0
3.003124 1.526725 -0.001186 0.0
2.534753 1.149385 0.000467 0.0
3.588683 0.059976 -0.001630 0.0
0.103821 1.228829 -0.000482 0.0
2.769712 0.213592 0.000338 0.0
2.999000 0.285107 0.000944 0.0
3.340448 0.692853 -0.000081 0.0
3.099011 1.041091 0.000033 0.0
2.046167 0.737391 0.003680 0.0
2.397603 1.231103 0.003100 0.0
0.973626 0.230862 -0.001802 0.0
4.143643 0.797806 0.002019 0.0
0.432149 1.186553 0.002381 0.0
2.645097 0.951475 -0.002466 0.0
2.930310 0.061770 -0.001735 0.0
1.766517 1.635846 -0.002919 0.0
2.742435 0.673795 -0.002579 0.0
4.297838 1.253662 -0.004446 0.0
3.709674 1.197558 0.003157 0.0
4.308654 0.220033 0.000064 0.0
0.157189 0.573730 0.001430 0.0
0.465599 1.204650 -0.000979 0.0
3.953869 0.505537 -0.002436 0.0
4.290073 0.557350 0.000868 0.0
4.045049 0.425066 -0.001255 0.0
3.776097 0.572971 -0.000867 0.0
1.112570 1.185683 0.000012 0.0
0.847803 0.045725 0.001184 0.0
0.708266 1.538017 0.001565 0.0
4.305558 0.427237 -0.000552 0.0
3.173123 0.451784 0.003874 0.0
4.551560 1.318267 -0.000279 0.0
1.261154 0.417335 -0.001140 0.0
2.710563 0.496516 0.002903 0.0
0.643422 0.584936 0.000701 0.0
2.550367 0.754219 0.000594 0.0
3.577886 1.152330 0.003053 0.0
3.548646 1.498840 -0.001255 0.0
4.734371 0.883656 0.002579 0.0
3.969354 1.586480 0.002716 0.0
2.387594 1.578636 -0.001155 0.0
3.576059 0.265611 0.000239 0.0
1.401568 0.444898 0.003039 0.0
1.112922 0.974848 0.000388 0.0
1.724289 1.218697 0.000599 0.0
2.860631 0.462458 0.001907 0.0
0.734801 0.201155 -0.000907 0.0
3.671395 0.716898 -0.000416 0.0
4.338547 1.376784 -0.001940 0.0
2.858423 0.913220 -0.002052 0.0
2.138411 1.314891 0.000482 0.0
3.533087 1.162474 -0.001974 0.0
3.988268 1.483366 0.003441 0.0
2.785599 1.054894 0.000706 0.0
3.484068 1.122637 -0.002378 0.0
1.479820 0.210642 -0.001253 0.0
4.341045 0.650030 -0.000197 0.0
2.604692 0.736621 0.000747 0.0
3.526006 1.551843 0.001503 0.0
0.335718 1.125614 -0.001768 0.0
2.692295 0.978385 0.000665 0.0
3.075109 1.300389 0.002946 0.0
4.042357 0.043537 -0.004964 0.0
3.410946 0.932950 -0.001717 0.0
4.113841 1.604811 -0.004452 0.0
1.649888 1.577259 -0.003658 0.0
4.409446 1.671658 0.000947 0.0
3.788448 0.181153 0.002662 0.0
3.628648 0.420588 0.000330 0.0
4.493148 0.859357 -0.003066 0.0
1.834200 0.907998 0.002148 0.0
1.936538 0.454655 0.001008 0.0
2.204414 0.326455 -0.002948 0.0
1.144910 1.282758 0.005134 0.0
1.367591 0.526156 -0.001776 0.0
0.624956 0.945766 0.000171 0.0
4.288277 0.589761 0.000952 0.0
4.521360 0.122638 -0.003540 0.0
4.615642 0.138803 -0.000416 0.0
3.031147 1.635681 0.001578 0.0
1.300559 1.050145 0.000279 0.0
3.400494 1.475300 0.002993 0.0
3.917815 0.493284 0.000376 0.0
2.459825 0.974581 0.002192 0.0
1.990595 1.597645 0.003440 0.0
0.116213 0.594353 0.000490 0.0
0.929562 0.950300 -0.000768 0.0
1.752370 0.936013 0.002573 0.0
0.453540 0.397654 0.000717 0.0
3.965482 1.034689 0.004508 0.0
0.579423 1.574196 -0.002708 0.0
0.245907 1.632865 -0.000993 0.0
0.483071 1.192955 -0.001244 0.0
1.223355 0.775899 0.001527 0.0
4.445254 0.327625 0.005777 0.0
3.557865 0.610677 -0.005839 0.0
3.858723 0.099375 -0.001913 0.0
3.696322 0.769901 -0.002139 0.0
4.435728 1.222667 -0.001362 0.0
1.911442 1.034163 0.000309 0.0
0.570274 0.854559 -0.002709 0.0
4.624236 0.831704 0.001286 0.0
1.920958 0.858819 -0.000333 0.0
1.314537 0.998549 -0.003106 0.0
3.751734 1.359554 0.004866 0.0
3.752327 1.318786 0.001363 0.0
1.971286 0.703242 0.002266 0.0
1.958938 0.030715 0.003675 0.0
4.502046 0.943767 0.003651 0.0
1.319373 1.139189 -0.001515 0.0
4.544712 1.611590 0.000590 0.0
0.338630 1.140306 -0.003240 0.0
3.012994 0.590700 0.001365 0.0
2.898385 0.729026 0.001925 0.0
1.037140 1.443339 0.000657 0.0
1.060107 0.460057 0.000950 0.0
2.688189 0.130563 -0.000270 0.0
4.380603 0.076072 0.002153 0.0
0.611915 1.439684 0.000596 0.0
4.183586 0.527943 -0.000839 0.0
2.191383 1.493429 -0.001043 0.0
3.893128 1.648330 -0.003259 0.0
0.820415 0.156749 -0.000740 0.0
4.034646 1.572129 -0.003892 0.0
1.870289 0.497391 0.001985 0.0
4.247945 0.273248 0.000872 0.0
3.911373 0.622295 0.002004 0.0
2.999624 0.709909 0.005113 0.0
1.628491 0.409462 -0.001381 0.0
4.029884 0.952265 -0.001135 0.0
4.321238 0.906404 -0.001910 0.0
0.915642 1.336653 0.002157 0.0
4.065445 0.737842 -0.000266 0.0
2.873514 1.675882 -0.002397 0.0
3.780098 1.051775 -0.006178 0.0
2.933073 1.661705 -0.001296 0.0
3.449992 0.679529 0.000995 0.0
4.452239 1.313927 0.002590 0.0
1.697324 1.420237 -0.001165 0.0
0.912463 1.234918 -0.000691 0.0
3.866765 0.400627 0.003256 0.0
2.652426 0.087833 -0.002866 0.0
0.352810 0.887416 0.003924 0.0
4.562737 0.099535 -0.001411 0.0
4.199868 1.021560 0.001888 0.0
1.731013 0.409498 -0.004309 0.0
2.331930 0.733718 0.002542 0.0
3.392087 0.730157 -0.002266 0.0
0.779058 1.261970 0.000784 0.0
3.014532 0.514605 0.002745 0.0
0.561214 0.809126 -0.004134 0.0
1.968604 1.168835 -0.004075 0.0
2.173474 0.623122 0.000143 0.0
1.763232 0.763293 -0.003059 0.0
0.448003 1.203160 -0.002757 0.0
4.776370 0.139668 -0.003376 0.0
2.206670 1.093189 -0.003726 0.0
3.688844 0.173316 -0.002858 0.0
0.663251 1.030258 -0.000872 0.0
0.266352 0.336584 0.002270 0.0
2.699901 0.334812 -0.000582 0.0
3.728150 0.927506 -0.001648 0.0
0.120442 0.827615 0.000397 0.0
1.482549 1.489148 0.000386 0.0
0.081565 0.487579 0.001634 0.0
0.595659 0.925592 -0.000274 0.0
4.466194 1.537828 -0.005284 0.0
4.565249 1.213407 -0.000543 0.0
0.635875 1.480157 0.001381 0.0
4.037855 0.806829 -0.001351 0.0
2.484669 1.432436 -0.002907 0.0
1.799622 0.454706 -0.002874 0.0
3.367095 0.587058 0.000794 0.0
3.733641 1.184118 -0.001145 0.0
0.602146 0.149207 -0.001271 0.0
3.230083 1.152642 -0.000825 0.0
1.051163 0.560684 -0.001910 0.0
0.978343 0.899376 0.001937 0.0
2.057396 1.408951 0.001664 0.0
2.459908 0.390235 0.002356 0.0
4.718292 1.176485 -0.002622 0.0
1.545254 0.684806 -0.000538 0.0
3.301730 0.632918 -0.000611 0.0
4.042009 0.182960 -0.001967 0.0
1.570205 0.411857 0.001470 0.0
0.799653 0.220856 0.000530 0.0
3.116373 0.865882 -0.004827 0.0
3.424543 0.293012 -0.001182 0.0
4.165816 1.351828 0.000606 0.0
4.105923 0.197882 -0.000014 0.0
3.822980 1.094982 0.001553 0.0
3.950830 1.577543 0.002134 0.0
2.600730 0.261177 0.002649 0.0
1.567045 1.153780 0.001760 0.0
0.586270 0.476501 0.002146 0.0
2.047514 0.490859 0.001292 0.0
1.942603 0.426170 -0.001289 0.0
1.470931 1.268305 0.000303 0.0
3.254668 0.361993 0.002345 0.0
2.279584 0.090137 -0.000465 0.0
0.932666 1.528825 -0.000708 0.0
4.580235 1.324759 -0.003965 0.0
0.804289 0.943771 0.001245 0.0
1.338431 0.186925 -0.000563 0.0
3.861503 0.491567 -0.006300 0.0
1.584404 0.153763 0.000966 0.0
4.717187 0.291724 0.001832 0.0
0.933672 0.619130 -0.003364 0.0
0.661055 1.311929 -0.001985 0.0
1.144506 0.050298 0.005358 0.0
3.375888 0.392791 0.001187 0.0
3.073911 1.076707 -0.002644 0.0
2.347798 1.196460 0.002633 0.0
0.627884 0.127395 -0.000832 0.0
0.599560 0.453325 0.003565 0.0
1.461115 0.941184 -0.003264 0.0
1.292751 1.068772 0.002477 0.0
3.860974 1.304907 0.000289 0.0
3.507688 0.026902 -0.000862 0.0
0.880100 1.333274 0.003899 0.0
1.430307 0.032673 -0.003696 0.0
3.610708 1.143634 -0.002190 0.0
2.359680 0.848806 0.006281 0.0
3.610199 0.916944 -0.000385 0.0
2.439005 0.627497 0.001946 0.0
2.900398 0.992709 0.000715 0.0
2.088331 1.377442 0.003393 0.0
0.313764 0.409723 -0.000731 0.0
3.615820 1.658021 -0.003260 0.0
0.591619 1.418034 -0.000212 0.0
1.274543 0.538116 -0.002629 0.0
3.100574 0.651717 -0.006584 0.0
0.056716 0.547174 0.003124 0.0
3.155276 0.797352 -0.002005 0.0
3.032889 1.529335 -0.000881 0.0
1.153611 1.638273 0.000837 0.0
1.634105 0.624788 0.003636 0.0
0.518508 0.449858 -0.001076 0.0
2.676046 1.165522 -0.000155 0.0
2.233397 0.573370 -0.001500 0.0
2.831257 0.335158 0.000070 0.0
2.628838 0.127206 -0.002330 0.0
3.954881 0.095098 0.001791 0.0
2.914287 0.490699 0.000094 0.0
2.715225 0.342444 -0.000697 0.0
2.144338 1.000453 -0.002450 0.0
2.768337 0.318015 -0.000819 0.0
0.629410 0.936478 0.003767 0.0
3.465276 0.590502 0.000727 0.0
0.775182 0.319456 -0.000617 0.0
0.635250 1.448254 0.000476 0.0
4.636247 1.385631 0.000832 0.0
0.491255 1.007771 -0.008392 0.0
3.029873 0.894688 0.003304 0.0
3.882033 1.059911 -0.005355 0.0
0.207794 0.749517 -0.001078 0.0
3.963934 1.368045 0.000215 0.0
1.027155 1.136371 -0.003741 0.0
2.482964 0.077322 -0.000598 0.0
0.378421 0.193396 -0.000362 0.0
4.321109 0.049806 -0.004167 0.0
3.461184 1.244762 0.001728 0.0
2.706150 0.647936 0.000885 0.0
3.085859 0.887160 0.000054 0.0
3.690909 0.560628 -0.004691 0.0
3.071364 1.055160 -0.000368 0.0
3.567284 0.948562 0.001504 0.0
3.659829 0.208511 -0.001703 0.0
1.899106 1.063857 -0.000475 0.0
1.736995 0.308439 0.002528 0.0
1.304507 0.633970 -0.001006 0.0
2.731869 0.956933 0.002127 0.0
2.288220 1.507055 -0.004704 0.0
0.633684 0.281939 -0.002165 0.0
3.321847 0.113455 0.001067 0.0
3.596007 0.180301 -0.003122 0.0
1.440775 0.597542 -0.001762 0.0
3.723247 0.589385 -0.000789 0.0
1.000659 0.483846 0.001232 0.0
0.351738 0.056171 -0.002484 0.0
3.835549 1.151123 -0.004178 0.0
0.805502 0.313714 -0.000459 0.0
2.949756 0.066809 -0.000035 0.0
0.061069 0.317813 -0.003383 0.0
1.531956 0.165428 -0.002373 0.0
0.578700 1.250312 -0.001808 0.0
3.741209 1.398866 -0.001470 0.0
2.227044 1.275434 -0.002107 0.0
3.160880 1.407098 -0.000850 0.0
2.244411 0.105241 0.001825 0.0
1.479934 0.623376 0.000363 0.0
2.071036 0.600342 -0.002536 0.0
1.410685 1.378955 0.002890 0.0
2.254677 0.452288 0.002275 0.0
2.869388 0.959812 0.000748 0.0
3.642063 0.718512 -0.000234 0.0
2.197765 1.516765 0.000819 0.0
1.401748 1.217245 0.000783 0.0
1.044716 0.345715 0.005756 0.0
4.194969 0.536365 -0.004148 0.0
0.119889 1.122998 -0.002812 0.0
1.726759 1.012597 0.003784 0.0
0.399174 1.189167 0.001510 0.0
0.296508 0.132172 0.003325 0.0
2.198698 0.866869 -0.003213 0.0
2.438602 1.362878 -0.003631 0.0
2.823830 0.193003 -0.001582 0.0
4.578013 1.136263 -0.003574 0.0
3.554019 1.656030 -0.000290 0.0
3.957934 1.031636 -0.003981 0.0
4.235042 1.674815 -0.001850 0.0
4.722024 0.277973 -0.000625 0.0
2.269015 0.747654 0.005213 0.0
3.323964 1.039756 0.005277 0.0
2.244418 0.215458 0.003328 0.0
4.381922 0.767187 -0.003540 0.0
0.859442 0.619558 -0.001309 0.0
1.388510 1.655224 0.001528 0.0
4.364648 1.439319 -0.001228 0.0
0.312248 1.440054 -0.001145 0.0
2.101836 0.712986 -0.003316 0.0
1.612498 1.677040 0.000821 0.0
4.662086 1.222773 0.006367 0.0
2.528822 0.711905 0.000734 0.0
0.580918 0.167708 -0.003808 0.0
2.523324 0.421591 -0.001183 0.0
0.819065 1.297679 -0.002349 0.0
1.917560 0.859999 0.000107 0.0
1.080693 0.192551 0.001356 0.0
4.492289 1.449579 -0.001761 0.0
3.998576 1.200454 0.000231 0.0
1.163473 1.277044 0.001818 0.0
2.307819 1.103247 -0.000766 0.0
3.674344 1.539810 -0.003707 0.0
0.260905 1.043417 -0.000338 0.0
2.836918 0.394170 0.001867 0.0
0.503094 0.639958 0.003959 0.0
1.986859 1.040036 0.000694 0.0
3.529921 0.035103 0.000369 0.0
3.091982 0.665189 0.000055 0.0
2.900485 0.520591 -0.002529 0.0
3.624350 0.870877 -0.000932 0.0
4.198291 0.255857 0.002061 0.0
1.961657 1.568539 0.000677 0.0
2.168198 0.164198 -0.000659 0.0
3.968398 0.344270 -0.000634 0.0
0.828874 1.187340 -0.001883 0.0
0.694406 0.481313 -0.003241 0.0
4.281295 1.346966 0.000075 0.0
1.394683 0.812161 0.007310 0.0
2.541999 1.660158 0.003180 0.0
4.749392 0.513193 0.003588 0.0
3.752974 0.960407 0.001470 0.0
4.510617 0.777882 0.000193 0.0
2.822468 0.439709 -0.000296 0.0
0.343721 0.316221 0.000682 0.0
3.136167 0.718336 -0.001995 0.0
3.349391 1.018618 0.004061 0.0
3.575407 0.971282 -0.001910 0.0
4.086934 0.727280 -0.000654 0.0
4.231396 1.069964 0.004280 0.0
1.669831 0.138006 -0.002202 0.0
3.168730 1.399841 -0.000177 0.0
2.933201 0.139213 0.001985 0.0
2.632693 1.265885 -0.004090 0.0
1.488216 0.935030 0.004160 0.0
4.345235 0.939096 -0.003355 0.0
0.800493 0.206327 0.002922 0.0
1.734830 0.547473 -0.000388 0.0
3.860926 0.980764 -0.001549 0.0
0.063648 0.614894 -0.002344 0.0
2.727531 1.601566 0.003501 0.0
2.971781 0.923013 0.000633 0.0
1.923922 0.658033 -0.000429 0.0
4.712133 0.062452 0.002088 0.0
3.032950 1.573224 -0.001485 0.0
1.672488 0.836072 0.000708 0.0
3.959435 1.409933 -0.005030 0.0
0.635676 0.696043 0.000797 0.0
0.129872 1.236808 0.001283 0.0
4.399444 1.035640 0.002722 0.0
1.126998 0.910105 0.002101 0.0
4.146022 0.605077 -0.003902 0.0
0.571640 0.984129 0.001087 0.0
3.253476 0.962396 0.002260 0.0
2.610539 1.305496 -0.003121 0.0
2.766437 1.443828 -0.001567 0.0
1.448271 0.489573 -0.004931 0.0
1.595521 1.428007 -0.000070 0.0
0.223795 0.518363 -0.003490 0.0
0.635015 1.502452 0.000327 0.0
1.735574 0.970009 0.003174 0.0
4.455128 0.488617 0.000926 0.0
1.773854 1.356449 -0.001781 0.0
3.369930 0.523482 -0.002129 0.0
1.569689 1.043776 -0.000575 0.0
0.559898 0.218038 0.000364 0.0
4.150530 0.910069 -0.002403 0.0
0.869131 1.209101 0.000940 0.0
3.218109 0.849584 -0.000966 0.0
1.136265 0.445266 0.004761 0.0
1.560487 0.062221 0.001394 0.0
1.975903 1.597717 -0.003363 0.0
4.771560 1.253524 0.002168 0.0
4.475015 1.300626 -0.001292 0.0
1.762302 0.983913 -0.002110 0.0
2.568410 1.286936 -0.001281 0.0
0.917223 0.084441 0.000045 0.0
0.528243 1.115756 -0.000361 0.0
3.080366 1.245406 -0.000969 0.0
0.387497 0.969486 0.001144 0.0
3.102113 1.393478 0.003692 0.0
1.107273 -0.000619 0.002763 0.0
0.410119 0.015838 0.000186 0.0
2.520927 1.194540 0.001622 0.0
2.679349 0.330551 0.001913 0.0
2.739293 1.468770 -0.001836 0.0
4.162210 1.355971 -0.005605 0.0
2.121023 0.931767 0.000544 0.0
1.690911 0.648741 -0.000629 0.0
1.353617 1.019113 0.003098 0.0
2.589240 0.529859 -0.006082 0.0
3.511886 0.710856 0.001374 0.0
3.723684 1.011972 -0.001986 0.0
4.616999 1.119997 -0.001701 0.0
3.389159 1.441392 -0.000666 0.0
0.315473 0.011503 0.002994 0.0
3.140384 0.906220 0.001912 0.0
1.119609 0.912499 -0.000639 0.0
4.325390 1.035092 -0.001073 0.0
0.332007 1.058221 -0.003608 0.0
2.432457 0.324045 0.000552 0.0
0.439220 0.861653 -0.001097 0.0
1.970656 0.191057 0.002346 0.0
2.600314 0.707094 0.005609 0.0
4.250852 1.683764 0.005711 0.0
2.161743 0.265570 -0.000889 0.0
2.564635 1.386256 0.002002 0.0
2.954778 0.437051 0.003464 0.0
3.701533 0.790226 0.002095 0.0
0.881718 1.448259 0.001284 0.0
0.612398 0.524006 -0.001690 0.0
4.487967 1.493405 -0.001913 0.0
2.159719 1.038214 0.003824 0.0
2.427929 0.537378 -0.000602 0.0
2.836237 0.585767 -0.001429 0.0
0.241752 0.691914 0.001787 0.0
3.996475 0.067078 0.001014 0.0
1.769784 1.576677 -0.000156 0.0
2.033176 0.782397 -0.001044 0.0
2.707698 1.499109 -0.001101 0.0
4.399896 1.075098 -0.000787 0.0
2.985700 0.076501 -0.001649 0.0
2.918034 1.560669 0.000544 0.0
0.235252 1.668625 -0.003942 0.0
2.370526 1.470188 0.000931 0.0
0.416256 1.401218 0.004024 0.0
4.062019 0.503189 -0.006364 0.0
4.695421 0.208171 0.002625 0.0
2.247549 1.000330 0.000600 0.0
2.455628 0.219952 -0.004793 0.0
1.421766 1.210510 -0.003045 0.0
1.087260 1.225226 0.002158 0.0
4.404114 1.149099 0.001446 0.0
3.621912 1.047414 -0.000082 0.0
3.433421 0.470937 -0.001285 0.0
0.771114 0.960382 -0.002525 0.0
4.713532 0.074651 0.000299 0.0
4.498117 0.114355 -0.000036 0.0
3.216001 0.074607 0.002817 0.0
2.231905 0.518034 -0.003088 0.0
1.605642 0.640355 0.000769 0.0
0.196412 0.183134 0.001238 0.0
0.080604 0.597275 -0.001188 0.0
0.327149 0.016796 -0.002052 0.0
0.750913 0.917365 0.000605 0.0
1.928935 1.265232 -0.000392 0.0
3.600853 0.738965 0.002802 0.0
1.891248 1.309356 -0.000869 0.0
3.851670 0.424624 -0.003012 0.0
0.844715 1.197655 0.000134 0.0
1.753573 0.647281 -0.000861 0.0
0.105314 0.454020 0.002074 0.0
4.626937 1.539070 -0.002552 0.0
3.974604 0.034020 -0.001684 0.0
4.022432 0.333952 -0.002915 0.0
2.750288 0.002239 0.001562 0.0
2.223521 1.205213 -0.001530 0.0
0.572225 1.616116 0.000102 0.0
4.144011 1.672463 -0.003042 0.0
0.322720 0.303735 0.003792 0.0
4.444013 0.203402 0.001236 0.0
3.676172 1.571578 0.003645 0.0
3.509334 0.129943 0.003978 0.0
2.325667 0.465164 -0.001375 0.0
2.360592 1.175497 -0.001702 0.0
1.206414 0.133898 0.004742 0.0
2.158385 1.208747 0.003271 0.0
1.266702 0.760181 -0.002189 0.0
0.242663 0.296788 -0.000271 0.0
4.645241 0.787954 0.001390 0.0
4.537418 1.037671 -0.000796 0.0
1.167873 1.043758 -0.002908 0.0
3.975994 0.082365 -0.004113 0.0
0.443400 0.041468 -0.003509 0.0
2.157226 0.963377 0.001949 0.0
2.959412 0.384604 -0.000348 0.0
3.605994 1.570127 -0.002320 0.0
0.959193 0.502609 0.000730 0.0
3.932067 1.593197 -0.000073 0.0
3.549968 1.224673 0.000837 0.0
0.864154 0.956850 0.000890 0.0
3.458368 0.751697 0.001483 0.0
2.988427 0.643936 0.000643 0.0
3.292479 0.058667 -0.002345 0.0
4.154424 0.725796 0.001054 0.0
3.063912 0.165747 -0.005650 0.0
4.656779 0.408630 -0.000230 0.0
1.578820 1.619691 0.003445 0.0
3.212451 0.514159 0.000352 0.0
2.361817 0.153189 0.001895 0.0
4.537795 1.374708 0.000731 0.0
3.497327 0.241796 -0.000489 0.0
2.078492 0.290797 -0.001046 0.0
0.559775 0.537094 -0.002969 0.0
0.434939 0.656528 -0.002865 0.0
2.587831 1.073081 0.003430 0.0
3.767810 0.666006 -0.003804 0.0
3.822108 1.515648 -0.000840 0.0
0.216215 1.577371 0.000207 0.0
2.036221 0.962956 -0.002427 0.0
0.842690 1.009932 -0.002340 0.0
1.364365 1.483451 0.003484 0.0
2.000244 1.635079 0.002845 0.0
3.848875 0.430737 0.000470 0.0
1.117343 1.580102 -0.000212 0.0
3.127054 1.135615 -0.001617 0.0
4.331733 1.419898 0.004499 0.0
2.495170 0.255350 0.003219 0.0
1.204519 0.445966 0.000751 0.0
4.233576 1.506775 0.005989 0.0
2.072007 0.094032 0.003328 0.0
0.884506 0.839961 0.003187 0.0
2.739357 0.853062 -0.004156 0.0
2.227304 0.140647 -0.000786 0.0
2.527758 1.592077 -0.001138 0.0
3.375114 0.943725 0.000833 0.0
1.297562 1.286744 0.002468 0.0
4.446791 1.424581 -0.001827 0.0
0.439101 1.206526 -0.003272 0.0
2.196807 0.096164 -0.001905 0.0
0.435448 1.187261 0.004821 0.0
2.436505 1.475925 -0.002022 0.0
1.783416 1.629883 0.001589 0.0
4.053178 0.878902 -0.001440 0.0
2.357714 0.004438 -0.002325 0.0
4.659992 0.276868 0.001558 0.0
2.428785 1.033363 -0.002498 0.0
2.936142 1.525856 0.001264 0.0
2.111678 0.326262 0.004239 0.0
0.582704 1.489885 0.004102 0.0
2.419459 0.898961 0.003641 0.0
2.687762 0.025725 0.000784 0.0
1.477946 0.234974 0.003102 0.0
3.273249 0.218065 -0.001129 0.0
4.143791 0.572075 -0.002579 0.0
1.758401 1.006130 0.000509 0.0
1.105879 0.166191 -0.001553 0.0
2.810694 0.629359 0.001188 0.0
0.380629 0.724097 0.005324 0.0
3.757150 1.141432 -0.003098 0.0
0.811731 0.334165 0.002110 0.0
4.692383 1.558556 -0.002623 0.0
3.555884 1.682427 -0.000960 0.0
1.614175 0.125979 -0.003150 0.0
1.730322 0.618619 0.000120 0.0
4.373991 0.005701 0.003515 0.0
2.967350 0.179172 0.000344 0.0
3.570614 0.378462 0.002236 0.0
2.999381 1.621152 0.000043 0.0
2.524781 0.059448 0.008048 0.0
1.358049 1.090760 -0.000169 0.0
2.810894 1.566150 0.001144 0.0
3.176089 0.229199 -0.001399 0.0
3.908826 0.044669 0.000282 0.0
3.185746 1.652865 -0.000828 0.0
0.045858 1.581537 -0.000776 0.0
2.973408 0.225389 -0.005268 0.0
3.661557 0.166757 0.000060 0.0
0.858322 1.035479 -0.001735 0.0
0.740258 0.297909 0.003445 0.0
2.098751 0.911987 0.002096 0.0
3.713335 0.304057 -0.002047 0.0
0.805561 0.671739 -0.003542 0.0
2.121753 0.266305 0.002837 0.0
3.931447 1.496026 0.003481 0.0
4.023689 0.626251 0.002164 0.0
1.887941 0.528390 0.003612 0.0
0.377521 1.666691 -0.002568 0.0
4.139105 0.138621 0.000587 0.0
2.538679 0.693760 0.000217 0.0
0.839640 0.395855 -0.003722 0.0
3.472972 0.183854 0.000844 0.0
1.393055 1.192895 -0.002889 0.0
4.131806 0.042307 -0.000289 0.0
1.957205 0.810021 -0.002967 0.0
1.534119 1.061575 0.000860 0.0
3.602380 0.393416 0.000068 0.0
3.172498 0.005406 -0.001198 0.0
3.891389 1.305497 0.000581 0.0
2.205305 1.178017 -0.002816 0.0
3.192714 1.367633 0.000746 0.0
4.149410 0.107415 -0.001731 0.0
