0.31165391 0.79747539 0.00302050 0.00000000
3.60209232 0.52597872 -0.00110051 0.00000000
4.63585309 0.54684626 0.00232795 0.00000000
2.93717332 1.15130992 -0.00117505 0.00000000
3.77237548 1.20436510 -0.00445899 0.00000000
4.71021398 1.46087407 -0.00125285 0.00000000
3.27447036 0.83663598 0.00037687 0.00000000
1.20366543 0.72476944 -0.00106605 0.00000000
1.51470919 1.70624200 -0.00146979 0.00000000
1.85136657 0.93730947 0.00228772 0.00000000
3.24465614 0.83184602 0.00378382 0.00000000
1.19392919 0.51823775 -0.00249655 0.00000000
4.70601129 1.57424762 -0.00162071 0.00000000
2.84014987 1.28225493 -0.00298516 0.00000000
2.57439309 0.29994935 -0.00165674 0.00000000
1.17823133 0.44325114 0.00073011 0.00000000
4.75409349 0.62224986 0.00021714 0.00000000
1.92646735 0.25324901 0.00008586 0.00000000
2.55154946 0.90737103 0.00101509 0.00000000
1.93994487 0.35440395 -0.00235315 0.00000000
1.46916810 1.78738699 0.00012673 0.00000000
1.33615463 1.02438811 0.00218320 0.00000000
0.77043695 1.80992931 -0.00250272 0.00000000
4.17421017 0.65398553 0.00093343 0.00000000
3.15577403 0.71995922 0.00062881 0.00000000
0.74237926 0.81319149 -0.00049585 0.00000000
0.97859530 0.30157848 0.00286260 0.00000000
4.45328316 0.12996326 0.00017317 0.00000000
1.64107564 1.06849796 -0.00042937 0.00000000
0.30402515 0.38586807 0.00414021 0.00000000
2.79729011 0.81876852 -0.00070286 0.00000000
0.68995978 1.17542299 -0.00111242 0.00000000
3.89355946 1.67086585 0.00198221 0.00000000
0.75631077 0.64723548 -0.00207801 0.00000000
3.12715819 0.12355022 -0.00364028 0.00000000
2.19336371 1.34244401 -0.00059135 0.00000000
1.03021726 1.24049332 -0.00025926 0.00000000
2.41362695 0.67075955 0.00407166 0.00000000
2.34988445 1.45637858 -0.00133773 0.00000000
0.60218872 1.41938031 -0.00298814 0.00000000
0.25193938 1.28038053 0.00295398 0.00000000
4.00892419 1.13352475 -0.00143605 0.00000000
2.07801214 0.09142658 -0.00089575 0.00000000
2.73863241 0.76799046 0.00216319 0.00000000
0.63033130 1.28055574 0.00003668 0.00000000
4.56085565 1.65429433 0.00307697 0.00000000
0.14865075 1.00757211 0.00077089 0.00000000
0.12804019 1.82905948 0.00421115 0.00000000
4.59785926 1.34385296 -0.00233383 0.00000000
4.11552339 1.13252266 -0.00124030 0.00000000
1.63643868 1.72654418 0.00140772 0.00000000
0.69239110 1.65694546 0.00012229 0.00000000
3.58405801 0.07624716 0.00058640 0.00000000
4.31167886 1.62379615 0.00197680 0.00000000
4.73769265 1.60940748 0.00079654 0.00000000
0.73793379 0.99208345 -0.00067890 0.00000000
2.51480783 0.32659127 -0.00071416 0.00000000
4.90568639 0.45961045 -0.00114595 0.00000000
4.68138078 1.10101991 -0.00021138 0.00000000
4.76073615 0.95937766 -0.00235192 0.00000000
0.75022169 0.33390614 0.00082566 0.00000000
2.52828360 0.15037605 -0.00241410 0.00000000
1.01373163 0.18558968 0.00263319 0.00000000
3.09400479 0.55946048 -0.00002654 0.00000000
2.91400272 1.14262922 0.00062272 0.00000000
4.00951519 0.67784314 0.00188182 0.00000000
3.63885358 0.27577077 -0.00440647 0.00000000
2.94523767 1.11134570 -0.00496821 0.00000000
4.41707420 1.36733757 0.00126068 0.00000000
4.31848172 0.22861035 -0.00174987 0.00000000
2.98123217 0.97216020 -0.00029420 0.00000000
3.20128034 0.38612744 0.00011477 0.00000000
4.56087410 1.77596007 0.00302117 0.00000000
0.51974460 0.18168389 0.00001517 0.00000000
1.41843284 1.38148753 -0.00086175 0.00000000
2.50730618 0.70696164 0.00122164 0.00000000
3.08225637 0.05488803 0.00381599 0.00000000
4.57792282 0.21223703 -0.00009229 0.00000000
3.30671513 1.67461126 0.00277449 0.00000000
0.47391443 0.60874550 -0.00097033 0.00000000
0.52520055 0.11815545 0.00131199 0.00000000
1.08081949 0.69897570 0.00469355 0.00000000
4.45995150 1.44791088 0.00027592 0.00000000
0.68072704 0.74747181 -0.00554561 0.00000000
3.00262087 0.08100701 -0.00589395 0.00000000
2.53347650 1.05457282 0.00152561 0.00000000
2.00884144 0.29948760 -0.00876018 0.00000000
1.81705620 0.99746984 -0.00285037 0.00000000
1.83510234 1.17558100 0.00063678 0.00000000
2.82599604 1.82157096 0.00211452 0.00000000
1.91604063 0.70257682 -0.00421339 0.00000000
1.86465347 1.26863558 -0.00074432 0.00000000
4.79274689 1.12773669 0.00157035 0.00000000
3.43444519 0.01487408 -0.00118456 0.00000000
1.55889234 0.51629688 -0.00037011 0.00000000
4.77881864 1.12791796 0.00087963 0.00000000
2.45489711 0.50995329 -0.00080971 0.00000000
1.70345392 1.60170466 0.00024501 0.00000000
4.77780165 0.93416497 0.00193724 0.00000000
1.32343918 0.37422895 0.00199198 0.00000000
3.35951025 1.82936433 -0.00028516 0.00000000
3.85517055 0.88596001 0.00163579 0.00000000
4.63462615 1.67762756 -0.00199963 0.00000000
4.71727726 1.61178267 -0.00177389 0.00000000
0.96077347 1.52725979 -0.00164974 0.00000000
4.41237921 1.82799449 -0.00100356 0.00000000
2.48124692 0.75255300 -0.00106359 0.00000000
2.37359200 1.03330934 0.00233419 0.00000000
3.92290590 0.18260308 -0.00103275 0.00000000
3.04573642 0.40839568 0.00174669 0.00000000
2.44945254 0.83605966 -0.00218940 0.00000000
2.80940895 1.41044512 -0.00477150 0.00000000
3.31327513 0.38494687 -0.00155441 0.00000000
2.93781862 1.14599914 -0.00147510 0.00000000
3.05935385 1.78629923 0.00124328 0.00000000
0.19074583 0.75846825 0.00132820 0.00000000
2.69535474 0.84026603 -0.00253992 0.00000000
0.26445911 0.47258955 -0.00038278 0.00000000
1.36615312 1.81202885 0.00146258 0.00000000
0.15854811 1.71294503 -0.00063379 0.00000000
4.60657437 1.32324917 -0.00216975 0.00000000
4.20785821 1.17082152 0.00418573 0.00000000
3.71684451 0.38539358 0.00061015 0.00000000
2.98034771 0.98134745 0.00157812 0.00000000
0.12838999 0.14576519 0.00225272 0.00000000
2.19323523 1.45657436 -0.00065041 0.00000000
1.22048892 1.53115618 -0.00582282 0.00000000
0.04962039 1.78286098 -0.00011888 0.00000000
4.13217309 0.95929647 -0.00366776 0.00000000
4.21581782 0.78682605 -0.00676468 0.00000000
3.92790203 0.83650789 0.00112137 0.00000000
1.01574742 0.95531404 0.00152288 0.00000000
2.20679343 1.49414492 0.00294485 0.00000000
2.99742356 1.80929725 -0.00133009 0.00000000
0.06788732 1.64833529 -0.00008296 0.00000000
0.95568826 0.72697530 0.00027209 0.00000000
3.28132855 0.41545603 -0.00337105 0.00000000
2.39727473 0.00776617 -0.00254842 0.00000000
2.01812776 0.94224869 -0.00037109 0.00000000
0.88889532 0.31775794 -0.00029449 0.00000000
0.35609661 0.79936793 0.00058391 0.00000000
2.13448623 1.81811186 0.00609783 0.00000000
3.20746768 0.78585074 0.00584867 0.00000000
0.70954739 1.74374947 0.00041318 0.00000000
1.34719494 0.00086096 0.00407043 0.00000000
1.12536855 1.80966258 -0.00310467 0.00000000
4.61189892 1.79439679 -0.00028910 0.00000000
4.72484822 1.45185418 0.00207429 0.00000000
4.48526488 0.44709036 0.00083399 0.00000000
4.06301774 1.19165212 0.00042439 0.00000000
4.07692791 1.30931937 0.00001970 0.00000000
2.70877517 1.49817050 -0.00213961 0.00000000
3.27923418 1.18015510 0.00093315 0.00000000
3.89364118 0.34168148 -0.00336371 0.00000000
3.18866896 0.21266560 -0.00327826 0.00000000
3.76590879 0.53776873 -0.00397269 0.00000000
2.20932338 1.12056476 0.00020405 0.00000000
0.22734922 0.87152711 0.00315727 0.00000000
2.09534574 0.24888607 0.00245906 0.00000000
4.82995471 1.76225842 -0.00156445 0.00000000
1.50996628 1.36814959 0.00006677 0.00000000
4.01098667 0.83709936 0.00073108 0.00000000
0.37802754 0.11518773 -0.00162456 0.00000000
4.64430951 0.35114282 -0.00429686 0.00000000
0.08642786 0.73480459 -0.00152893 0.00000000
1.72537959 0.81328145 0.00186394 0.00000000
1.31040802 0.43436219 0.00113756 0.00000000
3.34342282 1.24548058 0.00306896 0.00000000
1.22649941 0.80553859 0.00057301 0.00000000
3.95107880 1.63764553 -0.00082913 0.00000000
1.73024013 1.52155812 0.00103004 0.00000000
2.61426294 1.15401971 0.00444926 0.00000000
1.51601541 1.18793155 0.00184531 0.00000000
2.49425021 1.42936426 0.00476382 0.00000000
4.41733150 1.13638438 0.00017753 0.00000000
2.60830186 0.45072445 0.00527757 0.00000000
1.52900738 1.43994292 0.00442563 0.00000000
1.98601466 0.99593225 0.00356278 0.00000000
0.63655358 0.41761203 0.00136128 0.00000000
0.34010065 0.93573989 -0.00128010 0.00000000
2.83295483 1.41983840 -0.00046727 0.00000000
2.10071277 1.20380454 0.00773882 0.00000000
0.94512160 0.30715901 -0.00086777 0.00000000
2.58416862 0.99383039 0.00384774 0.00000000
2.78010592 0.79436683 -0.00047463 0.00000000
0.74392329 0.94482298 -0.00135468 0.00000000
3.36573396 1.09120478 -0.00095067 0.00000000
4.45849672 1.52717735 -0.00451767 0.00000000
1.68039839 1.22328160 0.00012821 0.00000000
3.78043858 1.60374070 0.00024713 0.00000000
2.95545016 1.30581726 -0.00264484 0.00000000
1.17228123 0.17036048 0.00023540 0.00000000
4.49267658 0.26920691 0.00357431 0.00000000
2.35256332 1.72691431 0.00257377 0.00000000
1.68258495 1.21607734 -0.00232574 0.00000000
0.81378018 1.29618445 -0.00002520 0.00000000
3.74357781 1.65842229 0.00075090 0.00000000
4.33718869 1.22786751 -0.00010169 0.00000000
1.57074005 1.79426854 -0.00121186 0.00000000
2.08844942 1.59961154 -0.00302479 0.00000000
1.13417335 1.49985414 -0.00245704 0.00000000
2.71867301 1.64592566 -0.00052872 0.00000000
4.58175962 0.23287790 0.00236546 0.00000000
1.80175485 0.59267703 0.00259323 0.00000000
2.09873191 0.79613397 -0.00196622 0.00000000
3.30618105 1.32421592 -0.00031345 0.00000000
4.15584923 1.50183135 -0.00035258 0.00000000
4.12375365 0.96301246 0.00005192 0.00000000
2.54519805 0.34341951 0.00089436 0.00000000
0.87771600 0.96211333 0.00318227 0.00000000
3.30638680 1.14269392 0.00169636 0.00000000
4.15085833 0.23769800 -0.00036662 0.00000000
1.22426673 1.00876984 0.00443823 0.00000000
1.86717132 0.80243085 0.00019814 0.00000000
1.34476135 0.53185316 -0.00139861 0.00000000
1.74995718 1.21455715 -0.00231491 0.00000000
4.46569517 0.18530245 -0.00070822 0.00000000
3.53383556 0.14519307 -0.00181336 0.00000000
0.17686091 0.64467067 0.00287963 0.00000000
0.61164009 1.42341231 -0.00314364 0.00000000
1.69990558 1.12170678 0.00218364 0.00000000
4.03558015 1.17500481 -0.00105844 0.00000000
1.16318198 0.14305300 -0.00151636 0.00000000
2.64973065 0.43712728 -0.00200155 0.00000000
3.05701305 1.41897277 0.00064730 0.00000000
4.47070948 1.00593769 -0.00205099 0.00000000
3.39305011 1.52675968 -0.00318519 0.00000000
2.63638540 0.71375298 -0.00351399 0.00000000
3.48454124 1.29603843 0.00237070 0.00000000
2.32690843 0.32469219 -0.00174330 0.00000000
0.27690706 1.60305003 -0.00004012 0.00000000
0.78197716 0.34593138 0.00339795 0.00000000
3.27544897 1.81823421 0.00006130 0.00000000
1.10694312 1.16426877 -0.00197087 0.00000000
1.51194578 0.43039272 0.00005718 0.00000000
3.07995337 0.22948110 0.00396701 0.00000000
1.79993360 1.01237019 -0.00048741 0.00000000
0.39761311 1.08985635 0.00143201 0.00000000
3.26563966 1.51848716 0.00199987 0.00000000
1.10128859 0.15727697 -0.00106232 0.00000000
3.75488390 0.84466023 -0.00042885 0.00000000
2.18806130 1.00638359 -0.00132845 0.00000000
2.08061768 0.98874614 -0.00109409 0.00000000
2.59191188 0.78819750 0.00275053 0.00000000
0.69118665 1.66545134 -0.00260419 0.00000000
4.72232608 0.41866722 -0.00241152 0.00000000
1.59115947 0.13734808 -0.00017151 0.00000000
2.77287040 0.40442203 0.00030401 0.00000000
2.77518579 0.87710065 -0.00352716 0.00000000
2.67413039 0.94781201 -0.00255380 0.00000000
2.85282394 0.98578289 0.00310077 0.00000000
0.16719634 1.75585192 -0.00042003 0.00000000
3.04117349 0.15405054 0.00078228 0.00000000
3.18489196 0.53867560 -0.00070860 0.00000000
2.57221423 1.75468808 0.00314808 0.00000000
4.44381703 0.44414319 0.00266036 0.00000000
0.17816870 0.02968275 0.00137993 0.00000000
1.81244479 0.34435614 0.00195254 0.00000000
2.77693384 0.20885650 0.00248523 0.00000000
4.71045405 0.47818729 -0.00135709 0.00000000
2.03797706 1.05289560 -0.00328423 0.00000000
0.55162317 1.01161115 0.00036100 0.00000000
0.61976212 0.54126359 0.00363007 0.00000000
0.42192613 0.63131141 0.00271907 0.00000000
4.72865452 0.89846814 -0.00164685 0.00000000
0.09663463 0.44613529 0.00009207 0.00000000
4.04086650 0.75401200 -0.00019657 0.00000000
0.05011073 1.25929350 0.00026149 0.00000000
0.60866695 0.63185100 -0.00006726 0.00000000
0.26617859 1.69556729 -0.00036983 0.00000000
2.54781317 0.98503986 -0.00141034 0.00000000
4.68982744 0.44944251 0.00236627 0.00000000
3.43669067 1.83112523 0.00007130 0.00000000
3.16046073 1.27368136 -0.00116175 0.00000000
2.27272385 1.59825518 -0.00170194 0.00000000
2.16199696 1.40184518 -0.00022726 0.00000000
1.65827304 1.11682731 -0.00233149 0.00000000
4.15681800 1.42481698 0.00262564 0.00000000
4.74624089 1.67546987 -0.00274246 0.00000000
2.23391801 1.22777389 -0.00113112 0.00000000
4.57658785 1.61258921 0.00237924 0.00000000
2.62441193 0.80458376 -0.00488724 0.00000000
2.71716433 0.74867505 0.00374697 0.00000000
2.09987346 1.29502063 0.00033047 0.00000000
0.51733776 1.36682456 -0.00291515 0.00000000
2.18856080 0.85475112 0.00143822 0.00000000
3.65156889 1.56972212 0.00003083 0.00000000
2.06660807 1.40028090 -0.00094365 0.00000000
1.37230353 0.46679671 -0.00161331 0.00000000
0.71369249 0.44889557 0.00064999 0.00000000
4.42920238 1.35259226 -0.00247259 0.00000000
3.09678051 1.36743072 0.00210116 0.00000000
0.18543862 0.58662919 -0.00222627 0.00000000
1.98334785 1.66629972 -0.00269563 0.00000000
1.82030388 1.08724904 -0.00148043 0.00000000
4.18199595 1.61342961 0.00554221 0.00000000
3.07000672 1.33955119 0.00484301 0.00000000
2.98311411 1.59419793 -0.00138436 0.00000000
4.54354588 1.21037371 -0.00229033 0.00000000
0.96346662 0.17668713 -0.00293458 0.00000000
1.66908383 1.59830328 -0.00012683 0.00000000
3.33216031 1.76929425 0.00311932 0.00000000
4.42198407 1.50184820 -0.00578495 0.00000000
0.98382625 1.64451635 0.00308958 0.00000000
3.15415475 0.15744320 0.00056964 0.00000000
3.86199994 0.16600506 0.00201999 0.00000000
0.05426035 1.68377879 -0.00122250 0.00000000
4.40606121 0.75031511 0.00238514 0.00000000
1.67081894 1.39976060 0.00383935 0.00000000
3.32182498 0.41652811 0.00489614 0.00000000
0.27137983 0.46473525 -0.00319235 0.00000000
1.63481018 0.67839577 -0.00138416 0.00000000
2.05807657 0.02147523 0.00178018 0.00000000
2.20731355 0.54760333 -0.00137773 0.00000000
1.77753909 1.56730651 -0.00032294 0.00000000
1.87435381 0.08164860 0.00458156 0.00000000
0.23597211 0.16993115 0.00260081 0.00000000
0.03841343 1.56431520 -0.00088521 0.00000000
4.53943975 1.37025412 0.00161190 0.00000000
1.11015970 0.39868032 0.00216297 0.00000000
3.18045486 1.51945020 0.00027826 0.00000000
0.57373192 0.10475139 0.00227652 0.00000000
1.73776195 1.11126867 -0.00238275 0.00000000
3.58199312 0.30636059 0.00159071 0.00000000
4.04826626 1.31607148 0.00115490 0.00000000
0.73182106 1.30507194 0.00368590 0.00000000
3.48945331 0.45182225 0.00377032 0.00000000
2.58738880 0.47353679 -0.00183226 0.00000000
4.49941939 0.07630981 -0.00061747 0.00000000
4.77064485 0.73346341 0.00642948 0.00000000
1.39879387 0.86970393 0.00373188 0.00000000
1.36154780 1.50003962 0.00331175 0.00000000
2.82742232 0.04264043 0.00120080 0.00000000
1.24320781 0.47030856 -0.00102688 0.00000000
3.27016278 1.35757536 -0.00082504 0.00000000
0.99411212 1.70709421 -0.00080955 0.00000000
1.61775128 0.84380711 -0.00058467 0.00000000
3.50955933 1.73051006 -0.00306253 0.00000000
1.70170882 0.05546475 0.00352440 0.00000000
1.59651221 0.71920390 -0.00035624 0.00000000
2.61598436 1.54646490 0.00246143 0.00000000
1.33031521 0.09606461 0.00019296 0.00000000
3.36211638 0.44122888 0.00210088 0.00000000
1.40913992 1.47313501 -0.00084581 0.00000000
4.28551095 0.84540320 -0.00172088 0.00000000
4.45664143 0.81251883 -0.00468304 0.00000000
1.01832488 0.08670823 0.00271389 0.00000000
2.44975733 1.09627959 -0.00139957 0.00000000
4.53904456 0.40435420 -0.00245063 0.00000000
3.06149512 1.30351344 0.00092581 0.00000000
1.77673881 0.66177545 -0.00162184 0.00000000
3.59620377 0.88194696 -0.00013590 0.00000000
3.84316598 1.06402678 -0.00025885 0.00000000
0.64389373 1.77898772 0.00245708 0.00000000
0.84748002 0.27673599 -0.00037448 0.00000000
1.27362921 1.20307069 -0.00042496 0.00000000
1.90812647 0.59022840 0.00240306 0.00000000
0.48252191 0.02520147 0.00182387 0.00000000
1.66083274 1.63074850 -0.00138790 0.00000000
4.59005580 1.36033640 -0.00016527 0.00000000
0.49871393 0.64515362 0.00242586 0.00000000
1.24461670 1.13928824 -0.00050727 0.00000000
3.55839043 0.07933125 -0.00154789 0.00000000
3.29268376 0.52537905 -0.00106059 0.00000000
2.58787387 0.62442370 -0.00149390 0.00000000
1.46118155 1.77751516 0.00124984 0.00000000
4.76297198 1.47669551 -0.00254121 0.00000000
1.98188665 0.11291015 0.00322430 0.00000000
1.45539772 0.24617567 -0.00061377 0.00000000
2.45792989 1.33951652 0.00043157 0.00000000
1.22017888 1.33409944 0.00215849 0.00000000
1.65390633 0.68950603 0.00315045 0.00000000
3.17544635 0.42173124 0.00040378 0.00000000
2.12884254 0.17092298 -0.00393619 0.00000000
2.47786439 0.37824648 -0.00075786 0.00000000
1.84128267 1.41188962 0.00622369 0.00000000
1.54578350 0.91234166 0.00316364 0.00000000
0.54192381 0.19748222 -0.00068889 0.00000000
3.15447410 0.96314573 0.00308973 0.00000000
1.10315641 1.22379249 0.00098749 0.00000000
2.34909164 0.62150153 0.00188530 0.00000000
4.50977451 0.49879022 0.00023767 0.00000000
2.02119575 1.16798900 -0.00023689 0.00000000
1.01225796 1.74642013 -0.00109377 0.00000000
3.33813136 1.72715741 0.00379364 0.00000000
4.50684364 0.25786236 0.00056570 0.00000000
2.76722039 1.55575315 -0.00010679 0.00000000
0.96790376 0.57965755 -0.00135241 0.00000000
0.33351144 0.40808149 0.00297441 0.00000000
0.48494837 1.71311697 0.00457636 0.00000000
2.75093754 0.25792925 -0.00340892 0.00000000
0.63615146 0.44228888 -0.00386620 0.00000000
0.01529081 0.24199036 -0.00094845 0.00000000
4.10809931 1.08796379 -0.00276594 0.00000000
1.52444675 0.59995651 0.00184433 0.00000000
3.13697593 0.55430591 0.00249972 0.00000000
3.60332011 1.10934287 0.00153631 0.00000000
2.73586251 0.54737562 -0.00369081 0.00000000
4.86174661 0.08260174 -0.00129635 0.00000000
0.82348798 0.68719426 -0.00501614 0.00000000
4.30961258 1.78088571 0.00188639 0.00000000
4.53034143 0.36699163 -0.00252907 0.00000000
1.33785710 0.30224292 -0.00244220 0.00000000
4.20280772 1.26279658 0.00272291 0.00000000
4.45529143 1.70548248 0.00220729 0.00000000
1.16911189 1.40029565 0.00363956 0.00000000
0.87403438 1.31607434 0.00192111 0.00000000
3.36743542 0.02996586 -0.00184070 0.00000000
0.25200448 0.69575658 -0.00235245 0.00000000
2.58661227 1.49624081 -0.00161445 0.00000000
4.67397102 1.61523526 -0.00035780 0.00000000
4.66498534 0.57146382 0.00088487 0.00000000
4.42715936 0.01962410 0.00038894 0.00000000
1.92410711 0.79311964 -0.00167392 0.00000000
3.69831748 1.79673631 -0.00088788 0.00000000
4.50677549 1.73789323 -0.00458043 0.00000000
1.52398005 1.16643008 -0.00461600 0.00000000
0.83822869 1.39785875 -0.00073434 0.00000000
2.44974038 0.44841142 0.00625339 0.00000000
2.74920975 0.87292378 0.00104596 0.00000000
4.68215365 0.39346892 -0.00216487 0.00000000
0.86523053 1.67520937 -0.00034299 0.00000000
3.86845529 1.48732395 -0.00028967 0.00000000
4.81550024 0.04855080 0.00165715 0.00000000
2.68973508 1.05141401 0.00035770 0.00000000
2.62478090 0.07411869 0.00190899 0.00000000
4.06382164 0.69551348 -0.00092832 0.00000000
0.91113640 0.54586579 0.00034662 0.00000000
4.81791777 1.33085522 -0.00329256 0.00000000
4.47198050 0.45886972 -0.00022098 0.00000000
3.86133761 1.20471023 0.00471620 0.00000000
3.86991254 1.61657889 0.00228216 0.00000000
2.41052417 0.99126333 -0.00229924 0.00000000
2.83993456 1.68361107 0.00253284 0.00000000
2.51508593 0.68919820 -0.00152783 0.00000000
0.22118679 1.49375007 0.00131674 0.00000000
1.96918528 0.01026024 0.00082901 0.00000000
4.89309211 0.12032505 0.00060206 0.00000000
0.05276545 1.20197677 0.00106572 0.00000000
4.84956824 1.79246218 -0.00110049 0.00000000
2.04475808 1.69954894 -0.00032413 0.00000000
0.98878394 1.30448371 -0.00220012 0.00000000
1.04628922 1.23146377 -0.00589665 0.00000000
4.80638198 1.80279694 0.00214094 0.00000000
4.04283627 1.40541909 0.00343102 0.00000000
1.78554698 0.41903117 -0.00031319 0.00000000
0.20717935 1.75907265 0.00184668 0.00000000
4.77756245 0.71749421 0.00138262 0.00000000
0.40894681 0.47320156 -0.00103979 0.00000000
2.03725690 1.61825391 0.00235722 0.00000000
0.24952717 0.32361903 -0.00049861 0.00000000
3.43004051 1.36491866 0.00102379 0.00000000
0.15557402 0.99623276 0.00108068 0.00000000
3.99978718 1.07337918 0.00516397 0.00000000
0.34793179 1.78734560 -0.00323800 0.00000000
4.67968910 0.85233007 0.00222285 0.00000000
2.34626797 0.98382578 0.00211722 0.00000000
2.19735721 1.29743850 -0.00565844 0.00000000
3.06637030 1.21129087 0.00125914 0.00000000
1.88110982 0.41015735 0.00127762 0.00000000
3.24482096 1.50689368 0.00452811 0.00000000
3.33860059 1.01018589 -0.00104292 0.00000000
1.02593514 0.49032142 -0.00319995 0.00000000
0.89493069 0.70899808 -0.00006132 0.00000000
4.87708311 1.19314115 -0.00026228 0.00000000
4.82772449 0.06941291 -0.00224886 0.00000000
4.21782812 0.60958661 0.00157240 0.00000000
0.24283398 0.77503298 0.00335611 0.00000000
0.27692049 0.49929214 0.00129452 0.00000000
3.57041179 0.42270664 0.00313133 0.00000000
3.17164093 1.31378011 0.00168702 0.00000000
4.36612426 1.61866541 -0.00179696 0.00000000
2.13432763 1.36112555 -0.00263394 0.00000000
3.26297109 0.86228686 0.00307408 0.00000000
4.82853108 1.67795835 0.00227688 0.00000000
2.67303905 1.64210893 0.00375671 0.00000000
2.56285682 1.00835158 0.00349178 0.00000000
2.26552568 1.20114161 -0.00004190 0.00000000
2.89428927 0.90548823 0.00370580 0.00000000
2.96475741 1.07121222 0.00387400 0.00000000
2.01700553 0.57880918 -0.00250601 0.00000000
4.09067065 0.56454392 0.00206101 0.00000000
4.83576886 1.15017749 0.00354189 0.00000000
2.00784747 1.75841078 0.00227747 0.00000000
3.59791936 1.04232461 -0.00253771 0.00000000
4.65394118 0.06135913 -0.00444746 0.00000000
1.77121833 1.11264702 0.00322427 0.00000000
3.62077532 0.61635957 0.00165483 0.00000000
4.16188895 1.39489238 -0.00215626 0.00000000
0.30949148 0.82866333 0.00443540 0.00000000
1.87799989 1.18183318 -0.00176943 0.00000000
1.60344448 0.39554809 0.00152358 0.00000000
0.75382551 0.52830864 -0.00072924 0.00000000
3.27681251 1.09565260 -0.00173376 0.00000000
0.19988046 0.13038363 -0.00166636 0.00000000
4.08044720 0.16944387 0.00075089 0.00000000
4.83162667 0.76491958 -0.00019712 0.00000000
4.38484962 1.33652286 0.00267544 0.00000000
0.62551703 0.85579835 -0.00180682 0.00000000
2.11655136 0.30489896 0.00014367 0.00000000
0.48663711 0.97975057 0.00490068 0.00000000
1.70803617 1.28876301 -0.00041665 0.00000000
4.35239604 0.54154177 -0.00425828 0.00000000
1.68086799 0.66833245 0.00084606 0.00000000
4.14974360 1.30859103 0.00462606 0.00000000
4.24835997 1.02881893 -0.00105907 0.00000000
2.91940233 0.95258267 -0.00220088 0.00000000
1.03391757 1.10141187 0.00104429 0.00000000
4.20035562 1.72150669 -0.00181976 0.00000000
2.64194368 0.22509571 0.00054897 0.00000000
0.55095994 0.44930851 0.00493510 0.00000000
1.65098365 1.42546768 -0.00415861 0.00000000
0.64723037 0.69694258 0.00488383 0.00000000
2.24082645 0.35693906 0.00000892 0.00000000
0.41670608 1.69866587 -0.00070159 0.00000000
3.48388754 1.32438081 -0.00037669 0.00000000
1.47413875 1.01962046 -0.00034783 0.00000000
3.26617277 0.07194538 0.00476113 0.00000000
1.24126761 0.02799949 -0.00284842 0.00000000
2.80135224 1.31354151 0.00276230 0.00000000
1.10555213 0.99173205 0.00285960 0.00000000
4.01342564 1.28217018 -0.00115188 0.00000000
1.31060901 0.72470148 0.00312022 0.00000000
4.57014043 1.44152041 -0.00316085 0.00000000
1.68374336 1.78300057 -0.00220662 0.00000000
3.46509275 0.39781020 0.00213334 0.00000000
2.49533546 0.97345116 -0.00038007 0.00000000
3.36669868 0.69470770 0.00121309 0.00000000
3.67141559 1.64304001 -0.00104113 0.00000000
2.31758383 1.66958977 -0.00084653 0.00000000
4.90647040 1.53455523 -0.00101668 0.00000000
2.23927081 0.08180802 0.00566128 0.00000000
1.40879640 0.57374150 -0.00312571 0.00000000
3.90511779 0.40239879 -0.00534954 0.00000000
2.36849747 0.02305869 -0.00366265 0.00000000
2.41043529 0.02429830 0.00208183 0.00000000
4.71529766 0.66400969 -0.00374443 0.00000000
1.46237249 1.37611106 -0.00247632 0.00000000
4.68761416 0.43115505 -0.00171015 0.00000000
2.66796993 1.11592383 0.00158676 0.00000000
4.57211904 1.34308088 -0.00110417 0.00000000
2.34214591 1.28230589 0.00006794 0.00000000
4.15890301 1.18322285 -0.00259987 0.00000000
3.18475719 1.81543886 0.00267064 0.00000000
3.58636473 1.14074831 -0.00017649 0.00000000
2.79967737 1.00639598 0.00140939 0.00000000
0.88073276 1.69054650 -0.00177271 0.00000000
3.24510772 0.12598226 0.00150474 0.00000000
4.36194017 0.46907275 -0.00081443 0.00000000
0.83321256 0.86480186 -0.00029624 0.00000000
2.44983275 0.42036062 -0.00190471 0.00000000
0.78658892 1.70354552 0.00204173 0.00000000
0.90366783 0.44062174 0.00328143 0.00000000
3.96851076 1.26204020 0.00157821 0.00000000
2.59064513 1.62609019 0.00323772 0.00000000
2.32743151 1.04098205 -0.00125210 0.00000000
3.37640296 0.08664119 -0.00374310 0.00000000
3.08969403 1.35284266 -0.00021792 0.00000000
1.23102146 1.60359266 -0.00125703 0.00000000
3.37026240 0.69042311 -0.00075686 0.00000000
3.92804876 0.03762853 0.00022695 0.00000000
3.35448803 1.58523149 0.00359400 0.00000000
1.75452234 0.55358175 -0.00124857 0.00000000
4.81834714 0.08593670 0.00047810 0.00000000
3.36452179 1.52113371 -0.00086766 0.00000000
1.68332359 0.09822760 -0.00452394 0.00000000
2.20509249 0.99479943 -0.00088243 0.00000000
0.22377152 0.65213617 0.00065941 0.00000000
1.54884176 1.64719776 -0.00073943 0.00000000
0.98429491 0.84463918 -0.00003347 0.00000000
3.29975040 1.03265093 0.00106963 0.00000000
0.33898117 0.39197469 -0.00149159 0.00000000
1.04643771 0.91720440 -0.00192081 0.00000000
0.36551619 0.24448698 0.00449819 0.00000000
0.17884633 1.01696852 -0.00300572 0.00000000
1.21458825 1.78632754 0.00262130 0.00000000
4.89164146 0.92149953 -0.00020408 0.00000000
3.51051733 1.33008915 0.00100018 0.00000000
0.20830627 1.05832761 -0.00067841 0.00000000
1.30610989 1.14854662 0.00359203 0.00000000
2.19101846 0.14757465 0.00194432 0.00000000
1.87442626 1.13869882 0.00206338 0.00000000
1.33748388 1.36383667 -0.00163362 0.00000000
4.81308799 1.13079316 -0.00395722 0.00000000
3.97106830 0.53163784 -0.00165890 0.00000000
1.21759203 1.00606983 -0.00215781 0.00000000
2.69401891 1.25066622 0.00389411 0.00000000
2.70178282 1.59328100 -0.00160626 0.00000000
0.36115648 0.86291718 0.00270099 0.00000000
1.61202173 0.88740955 0.00216975 0.00000000
1.51160552 1.69334550 -0.00261838 0.00000000
0.50092294 1.13815000 -0.00122430 0.00000000
0.92874918 0.72469987 -0.00550353 0.00000000
3.47136723 0.57904662 0.00301394 0.00000000
4.73117424 1.19385063 -0.00172791 0.00000000
2.50991819 1.67223821 -0.00175823 0.00000000
0.61169356 0.01269014 0.00254207 0.00000000
2.87798704 0.14092659 0.00017078 0.00000000
3.36258355 0.45296022 0.00077108 0.00000000
2.32540687 0.29115921 -0.00020183 0.00000000
0.75602535 0.62637088 -0.00222916 0.00000000
4.28673803 1.32986328 0.00566684 0.00000000
0.12209249 0.23416600 0.00061274 0.00000000
0.51591101 0.08399130 -0.00107858 0.00000000
1.92080684 0.86531920 0.00038244 0.00000000
0.92915591 0.97215440 0.00012093 0.00000000
4.13532669 1.71202734 0.00092997 0.00000000
0.75634520 0.37848025 0.00145923 0.00000000
0.47544576 0.78243349 0.00083297 0.00000000
3.79934245 0.77241712 -0.00245320 0.00000000
3.95443475 0.15192726 0.00224095 0.00000000
0.65863140 0.96081892 0.00393591 0.00000000
2.33892944 0.53987882 0.00383567 0.00000000
3.78559779 0.32781908 -0.00023248 0.00000000
2.39839507 0.95464649 -0.00323813 0.00000000
3.57168001 1.30677663 0.00138734 0.00000000
3.32980558 1.64737812 0.00206425 0.00000000
1.98557689 0.99320877 0.00357963 0.00000000
1.79936464 1.82807996 -0.00009721 0.00000000
4.26256700 1.71697434 -0.00258185 0.00000000
1.84727796 0.10662691 0.00372541 0.00000000
0.28916964 0.36004238 0.00397249 0.00000000
2.90634294 0.16548099 0.00203718 0.00000000
4.54411914 1.66969842 0.00187097 0.00000000
1.60235176 1.61967316 0.00196401 0.00000000
3.72358083 1.33048483 -0.00519713 0.00000000
3.90778840 1.41393734 -0.00180405 0.00000000
2.92568631 0.31748289 -0.00309460 0.00000000
3.32392970 0.39373100 -0.00206616 0.00000000
2.70776637 1.34315196 0.00098072 0.00000000
3.41288507 1.83733995 -0.00141364 0.00000000
1.36001934 0.63926198 0.00094991 0.00000000
0.11889793 0.01436005 -0.00247642 0.00000000
2.87187652 0.91809278 0.00007112 0.00000000
0.59802354 0.94724663 -0.00682355 0.00000000
0.63021113 0.08706313 -0.00205679 0.00000000
0.14503485 0.40451857 0.00237581 0.00000000
4.57911842 1.14080478 0.00061151 0.00000000
3.47514052 0.35777623 -0.00092955 0.00000000
3.04286103 0.49654139 -0.00120990 0.00000000
4.19382130 0.77463767 0.00309608 0.00000000
3.87983959 0.87259332 0.00313769 0.00000000
2.94823830 1.20557762 0.00209574 0.00000000
3.14519393 1.71968605 -0.00051766 0.00000000
0.81591791 1.05636220 -0.00151289 0.00000000
0.30778849 1.36831907 -0.00037436 0.00000000
3.03680924 0.40489647 0.00373623 0.00000000
3.93209381 0.96330696 0.00244443 0.00000000
2.47509525 1.64862525 -0.00079748 0.00000000
0.00614116 0.91978696 0.00138084 0.00000000
2.97161228 0.22535916 -0.00035035 0.00000000
2.49454573 0.51822040 0.00267735 0.00000000
1.96119725 1.36273915 0.00265632 0.00000000
3.83487702 0.96001163 -0.00082280 0.00000000
1.74317747 1.73452767 0.00616989 0.00000000
2.53370285 0.45606454 -0.00089619 0.00000000
0.92042142 1.66301370 -0.00047004 0.00000000
2.27316312 1.11976232 -0.00316455 0.00000000
2.55431589 0.22916940 -0.00157223 0.00000000
4.41892059 1.66834029 -0.00202910 0.00000000
2.73878023 1.34131568 -0.00148043 0.00000000
1.50916928 1.28278728 -0.00035264 0.00000000
2.05591324 0.17011101 0.00145220 0.00000000
2.48926426 1.73268446 0.00111928 0.00000000
2.26169221 1.70437300 0.00180187 0.00000000
2.13024399 1.12665075 -0.00084534 0.00000000
0.09069514 1.26459217 0.00193936 0.00000000
2.56689209 1.30857921 -0.00288961 0.00000000
3.17712296 0.74065057 -0.00244167 0.00000000
4.55545389 0.85182932 -0.00089008 0.00000000
0.84929145 1.75537794 -0.00077309 0.00000000
1.51220689 0.92974788 -0.00230851 0.00000000
4.25614637 1.56155638 -0.00322418 0.00000000
3.01712554 0.94696664 0.00310857 0.00000000
2.26818306 1.55764372 0.00084429 0.00000000
1.02388942 0.81737012 -0.00314245 0.00000000
2.55207073 0.27921878 -0.00198714 0.00000000
4.19764106 1.57439643 0.00183727 0.00000000
3.24651248 0.88717680 0.00115134 0.00000000
4.69718301 0.18966229 -0.00141961 0.00000000
1.17014273 1.81745910 0.00044637 0.00000000
2.93803826 1.74474739 -0.00131714 0.00000000
3.87711060 0.19782127 -0.00006919 0.00000000
2.40733161 0.27341621 0.00201710 0.00000000
3.28373900 0.34977694 0.00034265 0.00000000
1.87310321 1.22410780 -0.00064463 0.00000000
2.55295539 0.32872631 -0.00229303 0.00000000
1.06765439 1.20314412 -0.00030452 0.00000000
2.62624770 0.47399029 0.00436301 0.00000000
2.85118534 0.22455269 -0.00133147 0.00000000
1.60317333 0.67615067 0.00118192 0.00000000
4.51496241 0.29564297 -0.00204739 0.00000000
4.17952272 1.50837987 0.00092101 0.00000000
2.35622751 0.46753907 -0.00372340 0.00000000
2.05503042 1.22677244 0.00151034 0.00000000
2.89097842 0.34965292 0.00210268 0.00000000
0.56879336 1.11988967 -0.00253170 0.00000000
2.29452311 0.22190692 0.00002958 0.00000000
3.41670813 0.12233541 0.00179272 0.00000000
3.46395092 0.20474296 -0.00230532 0.00000000
3.34288520 0.30837185 0.00269935 0.00000000
0.28664222 0.68198708 -0.00301793 0.00000000
0.93720391 1.75069693 0.00141682 0.00000000
4.24829701 1.59568279 0.00194585 0.00000000
3.33947696 0.65584605 0.00492493 0.00000000
4.07602159 0.18660903 0.00362139 0.00000000
2.74278279 1.47622862 0.00311903 0.00000000
2.29865750 0.06639974 0.00325864 0.00000000
2.00766574 0.60642643 0.00086182 0.00000000
2.93954374 1.01974509 -0.00210809 0.00000000
4.16774548 1.66345341 0.00019403 0.00000000
4.86623693 1.30863021 -0.00130449 0.00000000
0.03172083 0.37485227 -0.00223267 0.00000000
4.35225174 0.22711799 0.00032721 0.00000000
4.32308902 0.25314201 0.00025334 0.00000000
2.67079258 0.57356996 0.00005618 0.00000000
1.61435621 1.79932620 0.00011860 0.00000000
1.75728584 0.12680303 0.00111872 0.00000000
3.84163123 0.38659924 -0.00016095 0.00000000
1.90394966 0.82525420 -0.00110377 0.00000000
4.10755409 0.38569791 -0.00255929 0.00000000
1.79183080 1.52400839 0.00093992 0.00000000
0.43701377 0.51050160 0.00245417 0.00000000
0.22310502 0.99162368 0.00137822 0.00000000
1.02115318 0.12193952 0.00135042 0.00000000
2.33144475 1.51690049 0.00354264 0.00000000
0.10091383 1.49022816 -0.00159327 0.00000000
0.31507107 0.02457698 -0.00101264 0.00000000
2.72667384 0.30287262 -0.00251612 0.00000000
2.56096472 0.79616713 -0.00075870 0.00000000
1.65912744 0.57379241 0.00188932 0.00000000
0.04373986 1.24813097 -0.00335758 0.00000000
3.97299725 1.14437704 -0.00173557 0.00000000
4.51155276 0.42447609 -0.00215708 0.00000000
1.40036629 0.69303370 0.00045495 0.00000000
2.48484998 0.31406190 -0.00202936 0.00000000
0.79982453 0.15996738 -0.00183031 0.00000000
2.82803962 1.30842761 -0.00199998 0.00000000
4.59055605 1.01150266 -0.00014856 0.00000000
1.26344936 0.04067582 0.00072480 0.00000000
2.91736175 1.33470186 -0.00070343 0.00000000
4.20366809 0.09919441 -0.00211001 0.00000000
2.72131519 0.26718659 0.00029693 0.00000000
0.25868546 1.18660543 0.00372311 0.00000000
4.71036835 0.92299302 -0.00219427 0.00000000
1.84130841 0.34652750 0.00469615 0.00000000
0.81454020 0.15211813 -0.00016730 0.00000000
0.48686552 1.47162057 -0.00018915 0.00000000
3.18582075 1.23689893 0.00306826 0.00000000
4.48437624 1.21509957 0.00269969 0.00000000
0.56103857 0.39903074 0.00121759 0.00000000
1.25940071 0.71009649 0.00429347 0.00000000
1.82967228 1.75474588 0.00072071 0.00000000
3.95562562 0.79784711 0.00126551 0.00000000
3.19415392 1.08811302 0.00280061 0.00000000
1.32041407 0.61989620 -0.00180524 0.00000000
1.45072149 1.36816288 -0.00111955 0.00000000
1.18320205 1.56329547 0.00172796 0.00000000
3.45270625 0.23654046 -0.00213677 0.00000000
1.19087482 0.41706120 -0.00207612 0.00000000
1.24811087 1.14749381 0.00045426 0.00000000
2.72034110 0.72212666 0.00081486 0.00000000
0.39127475 0.18793499 -0.00143489 0.00000000
1.78765325 0.67446837 0.00131188 0.00000000
3.71227961 1.63323996 0.00281335 0.00000000
0.49673842 1.03768872 -0.00332699 0.00000000
1.85837829 0.88578257 -0.00071050 0.00000000
1.69205448 0.31968564 -0.00008175 0.00000000
4.09908523 1.62123399 0.00084111 0.00000000
3.74172484 1.10577808 -0.00533627 0.00000000
0.77194290 1.03485229 0.00130721 0.00000000
0.75905998 0.91139728 0.00107441 0.00000000
3.09347081 0.70825464 -0.00281490 0.00000000
1.78943589 1.53084455 -0.00072554 0.00000000
3.57341489 0.63189884 0.00396766 0.00000000
1.22390784 1.20204084 0.00291758 0.00000000
4.26873396 1.01814003 -0.00146946 0.00000000
4.71374994 1.68612668 -0.00255848 0.00000000
1.64785723 0.82828441 -0.00517263 0.00000000
3.85471494 0.89795739 0.00260243 0.00000000
0.27595743 1.03235986 -0.00321483 0.00000000
0.73273918 1.19856992 0.00391386 0.00000000
0.02656615 0.21085190 -0.00081943 0.00000000
3.55793155 0.77149927 0.00006567 0.00000000
1.48832313 0.05637735 0.00447334 0.00000000
0.39522662 0.39380382 0.00281515 0.00000000
0.96980791 0.61250925 0.00170761 0.00000000
2.18722252 1.60519595 -0.00161432 0.00000000
4.63758734 1.56500610 -0.00239873 0.00000000
1.05896541 0.41948029 -0.00247769 0.00000000
3.27125875 0.44591855 0.00018529 0.00000000
4.77004980 1.15946887 0.00176526 0.00000000
4.79971503 0.24437939 0.00225626 0.00000000
0.66639396 1.29883355 -0.00197933 0.00000000
0.98638899 1.83482798 -0.00037725 0.00000000
4.55134559 0.98497366 -0.00377105 0.00000000
1.87327690 0.45972755 0.00117751 0.00000000
3.86456401 1.54884437 0.00022182 0.00000000
4.38273690 0.97938286 0.00009920 0.00000000
4.30072359 1.72459352 0.00157013 0.00000000
2.43873036 1.26692991 -0.00144078 0.00000000
2.60686824 1.30980411 -0.00184169 0.00000000
1.26277337 0.60281787 0.00252555 0.00000000
4.38550303 0.08759695 -0.00555031 0.00000000
1.81426804 1.30096754 -0.00302736 0.00000000
3.02729107 0.45692949 0.00158425 0.00000000
3.37281582 1.32717568 0.00061635 0.00000000
3.98712720 1.39482425 0.00063798 0.00000000
3.86079601 0.78176780 -0.00080355 0.00000000
4.14599825 1.45230218 0.00161400 0.00000000
0.89427858 0.68803782 -0.00004409 0.00000000
2.77399971 0.96815020 -0.00273618 0.00000000
3.00226296 0.53810770 0.00146244 0.00000000
2.64047894 1.71505719 0.00301288 0.00000000
4.03428096 1.18917246 0.00313489 0.00000000
2.97027074 0.20657169 0.00303920 0.00000000
2.33813649 0.96738815 -0.00074409 0.00000000
3.21877057 1.36574188 0.00093852 0.00000000
0.90694685 0.63233768 0.00339698 0.00000000
1.01037182 1.53647458 0.00219775 0.00000000
1.81608583 0.63175517 -0.00197748 0.00000000
1.01569761 1.05499081 0.00057762 0.00000000
0.54862246 0.98854505 0.00021950 0.00000000
2.47555645 1.52407013 -0.00205897 0.00000000
1.02803401 0.35785449 0.00359824 0.00000000
3.02075525 0.87493048 0.00005495 0.00000000
0.51011038 1.30247552 -0.00085104 0.00000000
3.71212339 0.02512498 0.00012300 0.00000000
0.92540794 0.52103514 0.00047011 0.00000000
1.13601374 1.40503987 -0.00248737 0.00000000
0.92221972 1.51015422 -0.00423576 0.00000000
2.20354149 0.09232374 0.00171655 0.00000000
2.77773079 0.27044694 -0.00037492 0.00000000
2.16658329 0.76097648 -0.00195524 0.00000000
3.26127064 1.51745568 -0.00319681 0.00000000
0.47593824 1.40980872 -0.00172819 0.00000000
4.03087052 1.56153578 0.00015269 0.00000000
3.93747582 0.12162689 0.00216273 0.00000000
2.21845688 1.62305810 0.00402684 0.00000000
2.41947868 1.52736664 -0.00451657 0.00000000
2.19808015 1.12197203 0.00036368 0.00000000
4.76383588 1.21667633 -0.00087861 0.00000000
3.25788635 1.62352439 0.00460216 0.00000000
1.90334915 1.36123401 -0.00087881 0.00000000
0.91389898 0.65002185 0.00064269 0.00000000
1.94940662 1.58182991 0.00131309 0.00000000
2.35619840 1.80637688 0.00448596 0.00000000
0.38080294 1.59716587 0.00322449 0.00000000
4.74336037 1.51098374 0.00399120 0.00000000
3.32236656 0.27175917 0.00159822 0.00000000
4.49418924 1.62893798 -0.00319811 0.00000000
0.98252455 1.78941129 -0.00017407 0.00000000
2.32451561 0.75401124 0.00055388 0.00000000
3.80837084 1.01546042 -0.00152311 0.00000000
3.38411759 1.14363669 -0.00113585 0.00000000
2.38142315 1.74614117 -0.00055440 0.00000000
1.36614107 0.48149647 0.00248219 0.00000000
1.12058714 0.07888484 0.00100038 0.00000000
4.81291554 1.63435079 -0.00048320 0.00000000
3.81589392 0.41263776 0.00217478 0.00000000
0.85625793 0.79056871 -0.00177289 0.00000000
0.02336994 1.02043688 0.00042344 0.00000000
3.92231913 1.55081961 -0.00349889 0.00000000
2.10720084 1.50244001 -0.00345124 0.00000000
1.94318184 1.12362315 -0.00030904 0.00000000
2.73392767 0.67084224 0.00062320 0.00000000
0.70313312 0.09840637 -0.00017965 0.00000000
2.12481221 1.82373605 0.00227069 0.00000000
2.94655912 0.35416022 -0.00095932 0.00000000
2.09206346 0.76401198 0.00353452 0.00000000
3.70864331 1.17788355 -0.00180651 0.00000000
3.35160019 0.64653636 0.00326450 0.00000000
2.40507492 0.52091082 -0.00206128 0.00000000
3.67384281 1.32515048 0.00031359 0.00000000
0.31993657 1.59510136 0.00031451 0.00000000
1.79119130 1.64741857 -0.00058069 0.00000000
4.48921207 1.80729432 -0.00551100 0.00000000
4.62103555 0.44224618 0.00398214 0.00000000
1.04878356 0.41075235 0.00328730 0.00000000
4.04104547 0.91064423 -0.00266456 0.00000000
2.07475182 1.34186002 0.00001500 0.00000000
3.48197607 0.14253585 -0.00616023 0.00000000
1.11502359 1.48203201 -0.00131767 0.00000000
0.94589809 0.97915348 0.00250606 0.00000000
3.62359069 0.02934268 -0.00154348 0.00000000
1.82154277 1.73453327 -0.00095927 0.00000000
2.03383412 0.08353749 0.00144667 0.00000000
2.40077924 0.72050792 -0.00164619 0.00000000
1.33741814 1.27416206 -0.00520416 0.00000000
3.12638360 0.29579971 -0.00202784 0.00000000
4.39638920 1.51845167 -0.00381863 0.00000000
1.20781512 0.16950607 -0.00086000 0.00000000
2.49346422 1.70939447 -0.00074350 0.00000000
1.28367227 1.50133986 -0.00256879 0.00000000
4.25618946 0.44643880 0.00458507 0.00000000
0.34244424 0.25850815 -0.00100872 0.00000000
1.04053027 1.51881654 -0.00288988 0.00000000
2.61291388 0.68848329 0.00301689 0.00000000
3.05694744 0.06756826 0.00182630 0.00000000
1.05783363 0.87274013 -0.00459709 0.00000000
2.37690548 0.11872738 -0.00110467 0.00000000
2.31142761 0.62887047 -0.00231702 0.00000000
4.80214591 1.21978919 0.00011986 0.00000000
2.02265659 0.74396387 -0.00071064 0.00000000
2.85201245 0.11786538 0.00022346 0.00000000
0.73375516 0.56929667 0.00308496 0.00000000
2.18892828 1.36969513 0.00053353 0.00000000
2.38728393 1.63038417 0.00101642 0.00000000
2.78195235 0.92372244 0.00046497 0.00000000
3.19251847 1.23748106 -0.00234975 0.00000000
1.95161612 0.67637860 0.00326890 0.00000000
4.73294412 1.54195355 0.00448466 0.00000000
4.27637921 0.47542727 0.00350686 0.00000000
0.16428448 1.48712804 -0.00307275 0.00000000
3.48683266 1.45474083 0.00107486 0.00000000
3.86815155 1.37671900 -0.00117845 0.00000000
3.27956927 1.59237714 -0.00137990 0.00000000
0.80642802 1.26129160 0.00242924 0.00000000
2.04666370 1.29954071 0.00145884 0.00000000
0.42914893 1.61304693 0.00183705 0.00000000
0.64819554 0.28059602 -0.00006406 0.00000000
4.34299782 0.26600179 0.00316199 0.00000000
3.37288198 0.69195090 -0.00184775 0.00000000
2.34588377 1.21855535 -0.00324965 0.00000000
1.05997521 1.56777825 -0.00102865 0.00000000
0.51132151 1.75662144 -0.00443743 0.00000000
1.71751529 1.27638628 -0.00059175 0.00000000
4.82735069 1.36150422 0.00302211 0.00000000
1.51161772 1.65739384 -0.00279340 0.00000000
2.70930932 1.03888139 0.00332209 0.00000000
1.77978278 1.08087722 -0.00125767 0.00000000
3.84788642 0.47381970 -0.00119468 0.00000000
3.33306339 1.70006347 -0.00285148 0.00000000
1.67803502 1.35394533 -0.00285055 0.00000000
2.59322622 1.83081049 0.00021779 0.00000000
0.45171657 1.68138583 -0.00231950 0.00000000
4.25099537 1.48726199 0.00142517 0.00000000
0.26452797 1.29855936 -0.00192444 0.00000000
4.39554967 0.16757465 0.00274818 0.00000000
3.08921683 1.63622621 -0.00015595 0.00000000
1.37809672 0.34038778 0.00039363 0.00000000
0.37558374 0.17609356 -0.00041672 0.00000000
1.71606264 1.81631101 -0.00021676 0.00000000
0.46718887 0.49897202 -0.00175161 0.00000000
0.85336961 0.25894816 0.00513612 0.00000000
0.51789615 1.48414324 -0.00014010 0.00000000
0.27927108 0.99326943 0.00193963 0.00000000
3.53851051 0.21484870 0.00323026 0.00000000
2.80281223 0.49558967 0.00075649 0.00000000
3.00482358 0.75038724 -0.00017091 0.00000000
0.49877880 0.35863614 0.00084012 0.00000000
4.47651628 0.60421672 0.00212398 0.00000000
4.24721525 0.12811620 0.00139857 0.00000000
4.36852024 1.63240286 -0.00171275 0.00000000
1.03268864 1.58178269 0.00165162 0.00000000
1.71174780 1.76600834 -0.00288972 0.00000000
4.41789312 1.00200442 -0.00116801 0.00000000
0.40690677 1.60118557 -0.00071954 0.00000000
2.19128849 0.54698338 -0.00561055 0.00000000
4.81683903 1.25716663 0.00199585 0.00000000
3.56367171 1.71109034 0.00104784 0.00000000
1.81210702 0.01300996 0.00256973 0.00000000
3.53533974 1.08965437 -0.00142741 0.00000000
3.78386352 1.12982451 0.00165680 0.00000000
1.43492687 1.38312187 -0.00201049 0.00000000
4.40054177 1.63776964 -0.00085012 0.00000000
4.61539087 0.70209708 0.00385837 0.00000000
2.29367095 0.50454228 -0.00028125 0.00000000
2.36650736 0.15025336 0.00418132 0.00000000
0.54503277 0.61031782 0.00150827 0.00000000
2.18175370 1.16783976 0.00175691 0.00000000
4.27909375 1.07681423 -0.00237286 0.00000000
1.54655950 1.53207367 -0.00266282 0.00000000
4.19232408 1.68981585 -0.00142218 0.00000000
0.93978110 0.87628020 0.00157031 0.00000000
0.79592109 0.31499515 0.00049085 0.00000000
4.63132652 0.50068887 0.00210587 0.00000000
3.24064361 0.78653410 0.00180373 0.00000000
3.29274788 0.33819490 0.00044632 0.00000000
1.17223258 1.38273455 -0.00160094 0.00000000
0.42970154 1.42647091 0.00102714 0.00000000
1.43915858 0.96807155 -0.00025317 0.00000000
3.48076567 0.58522581 -0.00025607 0.00000000
3.85593175 0.24363556 -0.00395587 0.00000000
0.25998794 0.99671856 0.00021478 0.00000000
2.83651229 1.83418784 -0.00598596 0.00000000
1.90104623 0.97631297 -0.00267866 0.00000000
0.48002213 1.51909615 0.00382025 0.00000000
3.53227084 0.06002147 0.00014431 0.00000000
4.46658812 1.16254097 -0.00116282 0.00000000
1.63244072 0.29971216 -0.00101384 0.00000000
1.28777924 1.63078249 -0.00561506 0.00000000
3.13084014 1.44180298 -0.00321033 0.00000000
2.83270205 0.02831112 -0.00093950 0.00000000
0.74409543 0.73956969 0.00339840 0.00000000
4.56177338 0.58966111 -0.00229892 0.00000000
4.76987268 0.02907692 -0.00171496 0.00000000
4.10332295 0.74946831 -0.00114010 0.00000000
2.34794330 0.85257403 -0.00053271 0.00000000
1.21949736 1.69300824 0.00231805 0.00000000
3.96494994 1.02874636 -0.00003896 0.00000000
4.48005310 1.08646648 0.00346635 0.00000000
2.89152745 1.26543712 0.00221184 0.00000000
1.42145171 0.44853841 -0.00214188 0.00000000
1.44074645 0.73315180 -0.00084888 0.00000000
4.85346529 1.83150883 0.00102883 0.00000000
2.84635420 0.66090179 -0.00168354 0.00000000
2.04534878 0.27074322 0.00050594 0.00000000
2.40715544 1.33801765 -0.00278404 0.00000000
2.57365749 0.77527673 -0.00078996 0.00000000
2.63901951 0.97311445 0.00205692 0.00000000
3.16167163 1.79750002 0.00000871 0.00000000
1.35733927 1.67573413 -0.00040417 0.00000000
0.46568331 0.41559966 0.00420170 0.00000000
3.57168218 1.65109568 0.00574779 0.00000000
0.90401910 1.31059528 0.00147535 0.00000000
0.06841462 1.80845336 0.00073249 0.00000000
1.12199276 0.38066577 0.00002824 0.00000000
0.32520666 1.02446373 -0.00205476 0.00000000
3.37843473 0.75973733 -0.00248642 0.00000000
2.79882082 0.74732867 -0.00094513 0.00000000
2.78022325 0.55707192 -0.00055873 0.00000000
1.64295989 0.49763619 -0.00512886 0.00000000
1.48927632 1.19030476 0.00488029 0.00000000
1.99428079 0.26710034 0.00187438 0.00000000
2.94354665 0.27340496 -0.00427134 0.00000000
3.94699987 0.54382185 -0.00214885 0.00000000
0.42105036 1.58777883 -0.00233852 0.00000000
4.76282935 1.01028472 -0.00263487 0.00000000
0.18932320 0.59874118 -0.00031997 0.00000000
4.54347121 0.05104656 0.00270752 0.00000000
2.03697173 0.64360237 -0.00221736 0.00000000
3.24484708 0.31880249 0.00217142 0.00000000
1.81714406 1.79663952 -0.00494872 0.00000000
2.28747292 1.53531061 -0.00015991 0.00000000
0.62372361 0.92047265 -0.00021280 0.00000000
0.92807778 0.09876877 0.00064150 0.00000000
2.84549189 1.75722319 -0.00641876 0.00000000
1.74383373 0.98730317 -0.00273789 0.00000000
1.33123853 0.87249887 0.00213300 0.00000000
2.89302672 0.09163844 -0.00065639 0.00000000
2.56713589 1.31745799 -0.00283341 0.00000000
1.94599721 1.61512337 -0.00327726 0.00000000
3.70847961 0.88992817 -0.00001887 0.00000000
2.39943507 0.29013075 -0.00250529 0.00000000
0.00340557 0.69332102 -0.00577395 0.00000000
1.36899462 1.09868165 0.00448572 0.00000000
3.35810102 0.88476062 -0.00350310 0.00000000
1.78746061 1.61286767 0.00081581 0.00000000
0.21062381 0.29701208 0.00119881 0.00000000
4.16063845 1.81452057 0.00273923 0.00000000
3.71814757 1.37587313 -0.00228614 0.00000000
2.67216099 0.90691276 -0.00062403 0.00000000
0.75269289 0.99269472 -0.00623462 0.00000000
3.16620900 0.57276659 0.00322293 0.00000000
0.66793249 1.80455410 -0.00317084 0.00000000
4.49577371 1.65164805 -0.00348306 0.00000000
4.78729456 1.22675421 -0.00200411 0.00000000
3.90370306 1.55082653 0.00176000 0.00000000
2.87264427 1.12984635 -0.00125212 0.00000000
3.06862815 1.30013516 -0.00452516 0.00000000
0.50628668 1.28934527 0.00131266 0.00000000
2.67233266 0.21681489 -0.00103792 0.00000000
1.42436040 0.71971631 -0.00132926 0.00000000
1.13786514 0.58466057 0.00030798 0.00000000
0.67420576 0.58437114 -0.00296062 0.00000000
4.80437895 1.80440999 0.00371948 0.00000000
0.52646420 1.39543397 0.00179904 0.00000000
1.27633611 1.51599788 -0.00139005 0.00000000
4.16409256 1.22940114 -0.00111431 0.00000000
1.18942156 1.04770650 -0.00311543 0.00000000
2.97410344 1.63702037 -0.00244318 0.00000000
1.22324046 1.52095683 -0.00003322 0.00000000
3.98891901 0.83787934 0.00172970 0.00000000
2.28842375 1.53438438 -0.00202041 0.00000000
3.49236008 0.99486846 -0.00162665 0.00000000
2.35743318 0.72632109 -0.00388725 0.00000000
0.99934782 0.67133225 0.00094606 0.00000000
