0.19839756 0.97691423 0.00020093 0.00000000
2.91925950 0.08509769 0.00028511 0.00000000
1.15669029 1.21576435 0.00211632 0.00000000
0.84800188 0.70192951 0.00193278 0.00000000
0.40115203 0.57819317 -0.00099174 0.00000000
0.95003129 0.23643286 0.00199880 0.00000000
0.23972333 2.35068899 -0.00060079 0.00000000
2.11816827 1.95932915 0.00062039 0.00000000
3.70052420 0.22605312 -0.00216019 0.00000000
1.23798161 0.33460886 -0.00181797 0.00000000
2.72060560 2.06605546 -0.00043290 0.00000000
4.00843657 2.33413234 0.00137826 0.00000000
0.86041579 1.51800315 0.00184654 0.00000000
0.08006888 1.28999651 0.00158813 0.00000000
2.32179665 0.40861631 -0.00082604 0.00000000
2.21683108 1.26937233 0.00265471 0.00000000
1.30837908 1.50306710 -0.00149972 0.00000000
2.68886243 2.19981036 0.00208830 0.00000000
2.37265159 0.44488337 0.00011438 0.00000000
1.06557001 0.72137311 -0.00168115 0.00000000
0.78437103 0.74245861 0.00217082 0.00000000
3.65898439 1.83576643 -0.00105095 0.00000000
0.79902626 0.56892775 -0.00072092 0.00000000
2.91906351 1.69795426 0.00330478 0.00000000
3.39885869 1.82568741 0.00435141 0.00000000
2.64754739 0.37814940 0.00091911 0.00000000
1.80259276 0.84334474 -0.00541646 0.00000000
0.20030704 0.45817576 0.00038511 0.00000000
3.17895967 0.43954567 -0.00260256 0.00000000
1.71416245 1.84775306 -0.00356767 0.00000000
0.69262624 1.13685993 -0.00238553 0.00000000
0.99698809 1.11208647 0.00186054 0.00000000
1.89245283 1.87812156 -0.00195766 0.00000000
2.95681372 0.87668768 -0.00220767 0.00000000
2.83148849 0.49232484 0.00202590 0.00000000
2.10679255 0.88213931 0.00237834 0.00000000
4.13992964 1.67950411 -0.00010202 0.00000000
3.10947238 2.21404449 -0.00397233 0.00000000
3.25841380 2.28173078 0.00081602 0.00000000
1.79023047 0.56269459 0.00129694 0.00000000
1.66734767 0.21404428 0.00185665 0.00000000
2.63249427 0.52714078 0.00389668 0.00000000
1.03867839 1.30850503 0.00274144 0.00000000
0.44253254 1.16268234 0.00161254 0.00000000
0.05438184 0.67755460 -0.00030052 0.00000000
3.69868923 0.63882951 0.00057026 0.00000000
1.07416706 1.74936568 -0.00343650 0.00000000
0.31615591 0.91796615 0.00305040 0.00000000
2.93383238 0.12187047 0.00184820 0.00000000
2.75191208 0.85626236 -0.00239614 0.00000000
0.60109098 0.39699956 -0.00348972 0.00000000
2.99703644 2.01040977 0.00283955 0.00000000
3.21165211 1.31824892 -0.00062428 0.00000000
1.41625609 0.96629776 -0.00011348 0.00000000
1.70557886 0.79012457 0.00056073 0.00000000
1.40628401 1.44185751 -0.00295887 0.00000000
3.82588250 2.07889934 -0.00004696 0.00000000
3.40728115 0.76368959 -0.00188011 0.00000000
3.90446558 1.68778368 -0.00201495 0.00000000
1.16829128 0.40335736 -0.00081590 0.00000000
3.34108044 2.32547546 0.00254012 0.00000000
0.20505287 2.13564654 -0.00142803 0.00000000
0.51852803 1.79022910 0.00413047 0.00000000
2.48115614 0.59581285 0.00024392 0.00000000
2.91706668 0.06079639 -0.00145585 0.00000000
2.27611156 0.71230563 0.00200363 0.00000000
3.90550400 1.85590136 -0.00255717 0.00000000
2.33366713 2.30904728 0.00043495 0.00000000
3.16791744 1.87176086 0.00211071 0.00000000
2.42078306 1.82313962 0.00195718 0.00000000
0.69797821 0.42973862 0.00025798 0.00000000
2.12278648 1.23741137 0.00100307 0.00000000
0.41289270 0.10896443 -0.00442026 0.00000000
2.61720278 0.99829150 0.00331002 0.00000000
2.76772389 1.54666580 0.00135925 0.00000000
1.34587866 1.66543075 -0.00213478 0.00000000
1.96827536 2.03849024 0.00162659 0.00000000
0.72270893 0.36462476 0.00090573 0.00000000
2.22533112 0.35666970 -0.00009279 0.00000000
4.11915186 0.12151720 0.00206423 0.00000000
2.17443992 1.74634548 0.00122318 0.00000000
2.38652548 0.83396494 0.00219785 0.00000000
1.37552051 1.93330940 -0.00015570 0.00000000
0.50114230 1.88436893 0.00095073 0.00000000
2.57889676 2.25067189 -0.00020251 0.00000000
3.08449960 0.18739430 -0.00300463 0.00000000
1.71216756 1.31795544 0.00303301 0.00000000
2.37620053 1.13351075 -0.00205629 0.00000000
2.02339814 2.31142085 0.00167896 0.00000000
0.50058077 1.56951482 0.00016361 0.00000000
3.92086709 1.21774235 0.00618009 0.00000000
0.89327963 1.45148890 -0.00284028 0.00000000
2.67884933 1.13625252 0.00116704 0.00000000
0.31578674 2.20447461 0.00217284 0.00000000
0.25592996 1.62074547 0.00239270 0.00000000
1.38274019 1.91453383 -0.00659761 0.00000000
0.09725888 1.25261473 0.00011316 0.00000000
1.81998177 0.97732478 0.00016557 0.00000000
1.20855347 1.68109541 -0.00369977 0.00000000
2.02202423 2.13492782 -0.00171013 0.00000000
3.38784131 2.21350086 -0.00239185 0.00000000
0.49095160 0.27943755 -0.00170571 0.00000000
3.35512771 2.34614111 -0.00411030 0.00000000
1.08537243 2.08435959 0.00103598 0.00000000
2.73092018 1.89145734 -0.00381434 0.00000000
3.41801525 1.67574433 0.00103035 0.00000000
2.48596567 1.62973305 0.00081785 0.00000000
0.67481528 2.12543530 0.00091144 0.00000000
1.91183017 1.13438252 0.00293996 0.00000000
2.23483101 1.57741225 -0.00105745 0.00000000
2.57112893 0.77615601 -0.00274419 0.00000000
2.59481571 1.59212158 0.00100522 0.00000000
0.41503469 0.83701671 -0.00073336 0.00000000
0.18844667 1.55544534 -0.00355472 0.00000000
0.92491790 2.05156616 0.00367156 0.00000000
2.94632903 0.03741330 -0.00090599 0.00000000
1.39698023 0.61536469 0.00089451 0.00000000
1.69136251 1.82943478 -0.00277352 0.00000000
0.53758678 1.03312848 -0.00284641 0.00000000
0.42821110 1.98320491 -0.00011967 0.00000000
1.46982486 0.12428721 -0.00167940 0.00000000
1.85101808 1.12033543 -0.00594430 0.00000000
3.03846980 0.04306035 -0.00378505 0.00000000
0.40811406 1.55321222 -0.00004534 0.00000000
0.15541657 2.28338395 0.00216132 0.00000000
1.18150658 0.16156656 -0.00120952 0.00000000
2.17972287 1.09844121 -0.00430104 0.00000000
1.42947146 0.45018488 -0.00021536 0.00000000
1.54561531 0.74907172 -0.00333494 0.00000000
1.68980672 0.07743732 -0.00054944 0.00000000
2.81059203 1.53848005 0.00164871 0.00000000
3.57421591 1.24114868 0.00174483 0.00000000
2.35652225 1.58532256 0.00325135 0.00000000
1.86938089 1.50092952 -0.00112183 0.00000000
2.11470319 0.05434813 -0.00112252 0.00000000
0.38610288 1.60256240 -0.00265210 0.00000000
0.16682254 1.65168512 -0.00103040 0.00000000
0.63173514 2.15703466 0.00010133 0.00000000
2.42724142 1.75362294 0.00136837 0.00000000
1.50823143 1.77214765 -0.00177965 0.00000000
2.82145209 1.51627121 0.00094255 0.00000000
0.83055840 0.56875988 0.00473190 0.00000000
0.96650220 0.63386422 -0.00026679 0.00000000
2.10749268 1.24731739 -0.00036846 0.00000000
3.86972747 1.34745765 0.00235505 0.00000000
3.96062942 2.13675338 0.00057782 0.00000000
0.45436924 2.12685315 0.00232668 0.00000000
1.93266736 0.88015592 -0.00267740 0.00000000
0.73399086 0.22270725 -0.00110733 0.00000000
3.68705960 1.50341713 0.00315929 0.00000000
1.40114101 2.21460464 -0.00035737 0.00000000
0.84864377 1.18821751 0.00039747 0.00000000
2.84003500 0.47445756 0.00191491 0.00000000
0.61577118 0.68499549 0.00309279 0.00000000
1.47243499 0.47318970 -0.00114011 0.00000000
3.80892178 2.10119647 0.00144731 0.00000000
2.43911844 0.08559231 -0.00135638 0.00000000
4.11424754 1.34082234 0.00395590 0.00000000
1.78950718 0.58411207 0.00088057 0.00000000
3.12797852 1.63523074 0.00044791 0.00000000
0.48442819 0.37720612 0.00430583 0.00000000
2.50329855 0.94269934 0.00102560 0.00000000
3.03201446 0.41123457 0.00001862 0.00000000
1.06080201 1.28896519 -0.00496906 0.00000000
3.44626315 0.82111139 0.00160505 0.00000000
1.03866311 1.08479744 -0.00251579 0.00000000
1.73267684 0.87638083 0.00300941 0.00000000
1.20648158 1.13196349 0.00241550 0.00000000
1.64887281 0.43634146 0.00254715 0.00000000
0.91187555 0.54690188 -0.00305464 0.00000000
1.63797662 1.63711854 0.00547329 0.00000000
2.57560754 1.09431438 -0.00055373 0.00000000
3.57873952 1.02513096 -0.00120036 0.00000000
2.05219435 1.48044754 -0.00233214 0.00000000
3.32347238 0.92392470 0.00133547 0.00000000
1.18886172 1.07225916 0.00097804 0.00000000
3.91264333 2.18240547 0.00135768 0.00000000
3.35594866 0.84452323 0.00242211 0.00000000
2.83211500 2.29047194 0.00610072 0.00000000
1.89163877 0.65883862 0.00080458 0.00000000
1.85832551 1.68997930 0.00011245 0.00000000
2.48669337 1.48297970 -0.00134478 0.00000000
1.96973207 1.05408205 0.00265197 0.00000000
0.45208636 1.60572421 0.00078030 0.00000000
0.60521771 0.53574074 -0.00222415 0.00000000
1.68112592 0.44221849 0.00146747 0.00000000
3.23032090 1.34324755 0.00362256 0.00000000
2.65968693 1.84476852 0.00007991 0.00000000
1.28370648 2.30942452 0.00057188 0.00000000
1.90358813 0.81487287 -0.00142058 0.00000000
3.70443411 0.13624989 -0.00143884 0.00000000
4.09403085 2.21045949 0.00089772 0.00000000
2.80759619 1.71935285 0.00163368 0.00000000
1.72030280 0.44361680 0.00631468 0.00000000
3.51695302 0.96175875 0.00208586 0.00000000
2.67427788 0.92544635 -0.00258554 0.00000000
2.18088950 2.20863953 -0.00179022 0.00000000
1.40547659 1.73503633 -0.00192073 0.00000000
0.39950426 1.29535143 -0.00414316 0.00000000
0.64584689 2.23759525 -0.00578039 0.00000000
1.91106634 0.00831312 0.00126748 0.00000000
2.85362067 0.27599493 0.00393869 0.00000000
2.69478653 2.28412666 0.00043495 0.00000000
3.41575603 1.09930379 -0.00066681 0.00000000
3.96137556 1.08182894 -0.00113493 0.00000000
2.78309170 1.26920915 -0.00236705 0.00000000
2.02645584 1.26461654 0.00013073 0.00000000
1.81541254 0.38089995 -0.00244484 0.00000000
2.93095356 1.33009012 0.00272254 0.00000000
0.27699062 0.82339474 -0.00175607 0.00000000
3.36118715 1.53567828 0.00468583 0.00000000
1.03701696 2.05809583 -0.00068562 0.00000000
2.85414387 2.18583840 0.00537053 0.00000000
3.35627094 1.55421477 0.00071400 0.00000000
1.28615239 1.96471425 0.00366436 0.00000000
0.91616722 0.07299193 0.00412454 0.00000000
3.65546362 0.70860235 0.00318960 0.00000000
0.85323665 1.43350558 0.00034298 0.00000000
3.73924598 0.77827433 -0.00134812 0.00000000
1.60993394 2.16304022 0.00039664 0.00000000
1.90649455 1.43360743 0.00152210 0.00000000
2.64899525 1.25887006 0.00127814 0.00000000
2.73834584 0.01479365 0.00371370 0.00000000
2.37810881 0.29628365 -0.00035628 0.00000000
2.08759560 0.80470412 -0.00162324 0.00000000
3.66127800 1.62030036 -0.00134145 0.00000000
2.92565761 1.93940107 0.00342551 0.00000000
3.37824870 2.10892289 -0.00486089 0.00000000
3.12586152 1.42700853 0.00163438 0.00000000
2.83931344 1.90042205 0.00650622 0.00000000
3.38125025 0.06819537 -0.00237019 0.00000000
2.11963584 0.52846233 0.00545429 0.00000000
1.73810457 0.24221806 0.00362101 0.00000000
2.04223263 0.11410817 0.00090181 0.00000000
3.75882928 0.61296903 0.00270992 0.00000000
4.06937101 0.06471401 0.00021369 0.00000000
3.16709627 2.16515085 -0.00263522 0.00000000
1.60805503 1.96986047 0.00054142 0.00000000
1.34063478 1.24604953 -0.00174784 0.00000000
0.06893539 2.25166708 0.00435532 0.00000000
4.06768067 0.65184040 -0.00000204 0.00000000
0.23844835 2.34006338 0.00308697 0.00000000
3.11189338 2.33019156 -0.00094732 0.00000000
0.59873307 2.24215446 0.00228993 0.00000000
3.00951858 0.05107129 0.00214192 0.00000000
2.42145956 0.44907042 -0.00007151 0.00000000
0.79760360 1.64087812 -0.00253273 0.00000000
0.85792448 0.70731901 -0.00115565 0.00000000
0.25227032 0.27777891 0.00319418 0.00000000
3.52692328 0.20416537 -0.00100686 0.00000000
1.81836353 2.14287303 0.00134984 0.00000000
1.37705557 1.79533846 0.00063423 0.00000000
0.15660585 2.24241459 -0.00089015 0.00000000
4.09134299 2.31747670 0.00092994 0.00000000
3.54543142 2.18234381 0.00116054 0.00000000
2.00492115 1.39946123 0.00118055 0.00000000
2.36180175 0.10004260 -0.00184654 0.00000000
3.45975011 1.10828070 -0.00233783 0.00000000
3.78596635 0.36164943 0.00043731 0.00000000
0.00345275 0.24480224 -0.00174250 0.00000000
4.15262540 0.12177704 0.00114331 0.00000000
0.55519662 2.03894262 0.00179635 0.00000000
2.33462275 2.31572515 -0.00333204 0.00000000
1.58041040 0.39752212 0.00356806 0.00000000
1.64271695 1.71912697 0.00304336 0.00000000
0.36733133 1.47549478 -0.00202395 0.00000000
2.82197155 0.93857637 -0.00477576 0.00000000
3.84551472 0.32024671 0.00198809 0.00000000
3.77825380 1.97651974 0.00052225 0.00000000
2.13837600 1.85862244 0.00014881 0.00000000
1.62737777 1.87658699 -0.00272282 0.00000000
2.44130150 1.99221296 -0.00074900 0.00000000
0.88273593 1.52951037 -0.00182961 0.00000000
0.60763217 1.94661234 -0.00334676 0.00000000
2.05858244 0.01054819 0.00249739 0.00000000
1.83256430 0.11355132 0.00097733 0.00000000
4.02131352 0.93953106 0.00145643 0.00000000
0.82120275 2.12717809 0.00041724 0.00000000
3.13110301 1.01596035 0.00365761 0.00000000
2.08498263 0.34604664 -0.00261153 0.00000000
2.07566478 1.92717912 -0.00046504 0.00000000
3.87752790 0.25555612 -0.00157886 0.00000000
3.65957511 0.42283485 0.00510796 0.00000000
3.77682119 0.11684007 -0.00226342 0.00000000
4.07852887 1.23693078 0.00143619 0.00000000
1.61781564 1.65384036 -0.00763365 0.00000000
0.50844768 1.71913466 -0.00163759 0.00000000
0.37263837 1.23756618 -0.00043165 0.00000000
3.14400251 1.42989927 0.00415525 0.00000000
4.11357923 2.02124202 0.00141976 0.00000000
1.48938551 0.03541805 0.00121873 0.00000000
0.43199043 1.36521879 0.00302292 0.00000000
0.08945768 0.76585047 0.00137465 0.00000000
1.25885285 0.07423148 0.00193246 0.00000000
2.46454375 1.92137199 -0.00260981 0.00000000
0.12159528 1.79915675 0.00163833 0.00000000
1.20734718 0.59936464 0.00013827 0.00000000
3.33947482 1.95235842 -0.00046456 0.00000000
2.52470481 1.87661612 -0.00247842 0.00000000
1.87658814 0.60076289 -0.00079084 0.00000000
0.80878848 1.22366627 -0.00023650 0.00000000
0.32568509 1.69497717 -0.00313499 0.00000000
0.86058528 1.55652582 -0.00232626 0.00000000
1.77213594 0.95719037 -0.00284966 0.00000000
3.08472151 1.26188355 0.00025527 0.00000000
1.53958855 1.48620627 0.00081511 0.00000000
2.93318492 1.99230046 0.00271547 0.00000000
3.28458700 0.96500416 0.00548087 0.00000000
3.22070193 0.80836154 -0.00212973 0.00000000
1.97198879 0.57419404 -0.00171458 0.00000000
3.58468695 1.38719956 0.00081883 0.00000000
3.18128420 0.99510742 -0.00023153 0.00000000
0.42393306 0.06972560 -0.00182523 0.00000000
3.00306529 2.34692332 -0.00147605 0.00000000
4.02476134 1.14735100 0.00048302 0.00000000
1.23888246 1.15401236 0.00203859 0.00000000
1.38890309 1.56357553 -0.00051839 0.00000000
3.05975697 0.18248965 -0.00317974 0.00000000
1.22533981 1.14063522 -0.00222229 0.00000000
2.91845908 0.86618122 -0.00512720 0.00000000
1.88993036 1.61483557 -0.00023056 0.00000000
4.07681517 0.24382267 -0.00040636 0.00000000
2.59511593 0.60262718 -0.00138928 0.00000000
3.42123419 1.90205490 0.00287621 0.00000000
2.70117064 2.26936080 -0.00182597 0.00000000
2.83000332 0.69948892 0.00031258 0.00000000
3.21660775 0.76943091 -0.00038494 0.00000000
1.81205442 1.71691164 -0.00000568 0.00000000
2.14822362 1.14097584 0.00144640 0.00000000
3.58212180 2.34988028 0.00178910 0.00000000
1.48299139 0.87769211 0.00119083 0.00000000
3.24659063 2.31879801 0.00501883 0.00000000
1.41039466 0.05924387 -0.00005775 0.00000000
0.45433585 0.31120318 0.00194125 0.00000000
3.23224897 1.03673340 0.00180254 0.00000000
2.49630859 1.92576913 0.00069575 0.00000000
2.97538379 1.56909227 -0.00306013 0.00000000
2.70325325 0.44249031 -0.00536636 0.00000000
0.91969044 1.42727234 -0.00287369 0.00000000
3.24794066 1.61509283 -0.00379351 0.00000000
1.50103339 1.93503609 -0.00234210 0.00000000
0.24568346 2.02529240 0.00295476 0.00000000
2.94899564 1.84055360 0.00099168 0.00000000
2.48189869 2.24096056 -0.00091596 0.00000000
0.47448476 0.88437898 -0.00233948 0.00000000
2.40108215 0.29304219 -0.00351987 0.00000000
2.08549380 0.90124849 0.00065992 0.00000000
0.38506115 2.26464273 -0.00251350 0.00000000
4.08821805 1.92298512 0.00023913 0.00000000
1.58981444 0.72229275 -0.00215382 0.00000000
4.13920754 0.02594799 -0.00417082 0.00000000
1.88912987 0.72052901 -0.00111309 0.00000000
0.98075674 1.54372433 -0.00038142 0.00000000
3.90598371 2.04748107 -0.00137895 0.00000000
0.88707710 1.47305867 -0.00228371 0.00000000
3.29975408 1.18391456 0.00072511 0.00000000
2.11777690 1.20717285 0.00039074 0.00000000
3.60974847 0.89083743 0.00209928 0.00000000
1.32338799 1.54971876 -0.00090861 0.00000000
2.12583765 0.49412395 0.00063833 0.00000000
4.08620307 1.31242663 -0.00199839 0.00000000
1.72230739 0.02928122 -0.00084373 0.00000000
1.79869233 1.46330483 -0.00263036 0.00000000
2.45690225 2.02119058 -0.00376863 0.00000000
0.98009739 2.16922624 -0.00181797 0.00000000
0.01265086 0.03261306 -0.00050559 0.00000000
0.55498763 2.31272495 0.00345749 0.00000000
3.82087711 0.77115374 0.00096839 0.00000000
0.64456921 1.68516964 -0.00219925 0.00000000
2.85933050 2.29548592 -0.00097858 0.00000000
0.50912607 0.77449820 -0.00067855 0.00000000
2.81867927 0.56256228 0.00037516 0.00000000
1.70354456 1.52520730 -0.00089977 0.00000000
2.09427897 1.42715642 0.00155928 0.00000000
1.45992687 1.34569973 0.00115335 0.00000000
3.35647571 0.23727115 0.00112216 0.00000000
1.00585695 1.70271927 0.00329175 0.00000000
0.60116865 1.35256039 -0.00198758 0.00000000
2.43010569 1.90006213 -0.00370368 0.00000000
0.72402270 1.47204685 -0.00394983 0.00000000
1.50282230 2.06489794 0.00215883 0.00000000
0.14124997 0.32891380 -0.00161723 0.00000000
2.71714045 0.38011794 -0.00285521 0.00000000
2.50443643 1.17987057 -0.00158268 0.00000000
3.87299148 0.39520535 -0.00203474 0.00000000
1.52703301 0.57715054 -0.00075491 0.00000000
3.87340539 1.21353756 0.00196390 0.00000000
4.07838027 0.02696264 0.00456919 0.00000000
1.83141158 0.01252427 -0.00096655 0.00000000
2.75296364 0.78091298 -0.00240302 0.00000000
1.30365669 1.67604536 -0.00307195 0.00000000
2.74129420 1.54540016 0.00246947 0.00000000
4.12853109 1.70460752 -0.00379214 0.00000000
1.76309888 1.76090792 -0.00394872 0.00000000
1.56966019 1.21137891 -0.00439669 0.00000000
3.71434999 1.34921302 -0.00420628 0.00000000
1.21590422 1.77568022 0.00619953 0.00000000
2.08373843 1.77589035 0.00390509 0.00000000
1.69330481 1.80344949 0.00259273 0.00000000
1.39435868 2.09821677 -0.00177905 0.00000000
1.40396003 1.59526797 -0.00309692 0.00000000
2.15674079 1.79422512 -0.00269900 0.00000000
1.51368051 2.03701636 0.00005850 0.00000000
0.69473436 1.83326024 -0.00035316 0.00000000
2.30604789 0.65910238 0.00071877 0.00000000
1.45706836 1.73684803 0.00339138 0.00000000
2.06552534 1.94011133 -0.00204132 0.00000000
0.24097743 1.90478049 -0.00482175 0.00000000
1.81699520 1.49435159 -0.00096689 0.00000000
2.49106499 1.64453957 -0.00149153 0.00000000
2.90105679 0.37729471 0.00315584 0.00000000
0.07039996 1.04882704 0.00219692 0.00000000
2.55100415 2.07758585 -0.00116772 0.00000000
0.87750772 1.62697591 -0.00195739 0.00000000
3.37636295 0.41035023 -0.00008956 0.00000000
2.79638967 1.91459801 0.00137791 0.00000000
1.36236650 0.82102229 -0.00299279 0.00000000
2.16161173 0.37404512 0.00288331 0.00000000
1.88599459 2.00358615 -0.00101357 0.00000000
1.93737645 1.12048658 -0.00156593 0.00000000
1.96118267 0.97218170 0.00207778 0.00000000
2.31129507 1.20816113 0.00270035 0.00000000
0.95758017 0.76124924 -0.00216085 0.00000000
2.35038542 0.66067657 0.00379022 0.00000000
0.85304300 2.04487282 -0.00287567 0.00000000
2.44419438 2.01019033 -0.00239204 0.00000000
1.06799216 0.63549040 -0.00032053 0.00000000
1.32180503 0.00491717 -0.00077616 0.00000000
1.05334497 0.24572289 0.00213530 0.00000000
3.65959874 1.41163881 -0.00178002 0.00000000
0.33209650 1.82589299 -0.00283131 0.00000000
1.36794240 1.95649811 0.00141435 0.00000000
2.36806502 0.93554819 0.00108692 0.00000000
2.84274065 0.07922949 0.00186466 0.00000000
3.65805930 1.99478080 0.00034619 0.00000000
3.66583396 0.82263819 -0.00135948 0.00000000
0.89104073 1.46176292 -0.00220963 0.00000000
3.51063836 2.23340900 -0.00088273 0.00000000
4.08403601 0.25193992 -0.00203799 0.00000000
0.96706660 1.51197757 0.00013837 0.00000000
3.59547922 0.91339215 -0.00585572 0.00000000
3.77814851 0.64793434 0.00561703 0.00000000
2.29878421 1.00705222 0.00102039 0.00000000
3.16688673 0.10549524 -0.00116247 0.00000000
3.26951138 1.96191826 0.00085060 0.00000000
3.40283416 0.45708526 0.00118432 0.00000000
0.21534716 0.03521952 -0.00139344 0.00000000
1.87324635 1.29310608 0.00054137 0.00000000
1.37268767 0.98163924 -0.00169581 0.00000000
2.44665110 0.77803083 0.00341912 0.00000000
1.95859777 0.38165511 0.00118785 0.00000000
3.95740986 1.02681626 -0.00122983 0.00000000
0.86068482 1.70706322 0.00193584 0.00000000
2.38272958 1.40963795 -0.00147166 0.00000000
3.23814219 1.27768262 0.00139733 0.00000000
0.93914177 1.89010908 -0.00161699 0.00000000
3.70233248 1.61186731 0.00169728 0.00000000
2.08748221 0.36084634 -0.00348976 0.00000000
4.05196245 0.70570916 0.00025466 0.00000000
1.04500812 2.31943798 0.00085844 0.00000000
2.44039810 0.50995413 -0.00203928 0.00000000
2.49471285 2.11253617 -0.00032396 0.00000000
2.33296276 1.61697096 -0.00290601 0.00000000
0.14867204 0.20208123 0.00099781 0.00000000
2.55496742 1.49650602 0.00034501 0.00000000
0.78202000 0.89171060 -0.00142901 0.00000000
0.60602416 1.18464375 -0.00009454 0.00000000
1.31346475 0.98960972 -0.00272091 0.00000000
1.52964925 0.51697067 -0.00369441 0.00000000
3.43562936 2.27187297 -0.00138467 0.00000000
0.57697119 1.05861031 0.00322108 0.00000000
2.23585986 0.39401880 0.00216082 0.00000000
0.47575042 1.27017922 -0.00185260 0.00000000
3.38357187 2.02966755 -0.00116677 0.00000000
2.88905977 1.07568120 0.00207639 0.00000000
0.68963570 2.31089639 -0.00193887 0.00000000
1.19423025 0.70572247 0.00011680 0.00000000
1.19622785 1.42096334 0.00404178 0.00000000
2.70902962 2.16433917 0.00000485 0.00000000
1.45249208 0.69253341 0.00318490 0.00000000
4.11550354 1.29382978 0.00291385 0.00000000
1.44206054 1.57751409 -0.00250445 0.00000000
4.07688427 0.03375286 -0.00132907 0.00000000
0.15566105 0.09050423 -0.00274908 0.00000000
2.37951441 1.58143003 0.00020774 0.00000000
1.58871592 1.38498758 0.00200444 0.00000000
2.88929548 2.20580184 -0.00101116 0.00000000
1.87142145 0.10168597 0.00379630 0.00000000
1.74245701 1.88040933 0.00150502 0.00000000
0.77408878 0.22954293 -0.00191429 0.00000000
0.62832262 0.96268840 -0.00009310 0.00000000
2.94817791 0.34899081 -0.00139510 0.00000000
1.76548289 0.29291484 0.00186483 0.00000000
3.94882696 0.53054334 0.00090359 0.00000000
0.14031483 0.50853560 -0.00351392 0.00000000
3.02618567 1.37258280 0.00140582 0.00000000
1.39684961 2.02757020 -0.00334157 0.00000000
3.12486913 1.89127972 0.00044515 0.00000000
2.46051565 2.29919769 0.00225663 0.00000000
3.11744243 0.25943204 -0.00210869 0.00000000
1.04625246 0.47604952 0.00462886 0.00000000
1.18379943 1.66558896 0.00426474 0.00000000
3.39222496 2.26176563 0.00218088 0.00000000
2.26083707 0.20103377 -0.00199133 0.00000000
2.07151465 0.80888315 -0.00101133 0.00000000
0.83441348 0.36374816 0.00032817 0.00000000
0.41785967 1.15015918 -0.00100374 0.00000000
1.82487959 0.41478324 0.00422877 0.00000000
1.90474890 1.30464488 -0.00314924 0.00000000
0.28923866 1.70972444 0.00095587 0.00000000
2.57557636 0.75985453 0.00159830 0.00000000
2.30077244 1.34618245 -0.00333460 0.00000000
3.07596981 0.89461234 -0.00087158 0.00000000
0.53849887 1.30943036 -0.00321785 0.00000000
1.43842788 1.00820443 0.00152155 0.00000000
3.10366668 1.30626618 -0.00061081 0.00000000
0.77749216 0.77386036 -0.00221454 0.00000000
2.73902689 1.64463422 0.00002104 0.00000000
3.85672621 1.39786311 -0.00306474 0.00000000
2.65006454 1.49567855 -0.00186409 0.00000000
2.20691418 1.63972645 -0.00034095 0.00000000
2.59973268 0.74654954 -0.00248302 0.00000000
3.93336975 2.13720497 0.00309457 0.00000000
0.52296535 1.88869292 -0.00261592 0.00000000
2.30337014 1.44539333 -0.00297609 0.00000000
2.49662336 0.55080653 0.00104254 0.00000000
0.65349716 2.22132700 -0.00109752 0.00000000
2.64884158 0.25380944 -0.00190674 0.00000000
2.22134056 0.54590703 -0.00270969 0.00000000
3.65918895 0.89727453 -0.00250075 0.00000000
3.84240077 0.91025102 0.00479350 0.00000000
0.06825680 0.83646611 0.00056564 0.00000000
2.50545302 2.28257962 0.00060800 0.00000000
1.64270440 1.73704679 -0.00354787 0.00000000
0.73196674 0.28429967 -0.00075565 0.00000000
3.84636085 1.78190263 -0.00041155 0.00000000
3.83843813 0.50124493 0.00011024 0.00000000
2.24148405 2.10033202 -0.00173872 0.00000000
1.13684624 1.09121512 0.00381364 0.00000000
1.59718468 1.05652578 0.00035352 0.00000000
1.91835827 0.41106339 -0.00309400 0.00000000
1.35836852 0.17574389 0.00261344 0.00000000
2.90174544 1.30717226 0.00112809 0.00000000
2.59619102 0.55001590 -0.00539835 0.00000000
1.01856516 1.04702751 0.00376331 0.00000000
0.19324933 1.00032128 0.00261955 0.00000000
0.45765340 1.93729678 0.00409026 0.00000000
2.65998600 2.04377199 -0.00126851 0.00000000
0.72965260 1.87609116 0.00237268 0.00000000
2.12166574 1.60047906 0.00060002 0.00000000
1.41774727 0.37059957 0.00069173 0.00000000
3.65269845 0.65418999 -0.00208648 0.00000000
0.88950812 0.37308506 -0.00224584 0.00000000
2.62771613 1.37919802 -0.00083188 0.00000000
2.72088056 0.72516879 0.00068707 0.00000000
0.68076860 1.32590033 0.00021739 0.00000000
4.03858503 1.21869261 -0.00358875 0.00000000
0.94720709 1.59525268 -0.00052438 0.00000000
0.98880175 1.36513812 -0.00173736 0.00000000
2.58127877 2.31771383 -0.00469840 0.00000000
3.91600659 1.76012539 0.00164996 0.00000000
2.17667369 2.20266701 0.00067877 0.00000000
2.86519566 1.69746265 0.00168899 0.00000000
1.79232406 2.00296270 -0.00048870 0.00000000
1.04296577 1.00931538 0.00068671 0.00000000
4.04062073 1.96994781 -0.00600379 0.00000000
4.00987398 1.32954018 -0.00454194 0.00000000
1.74797221 2.14268940 -0.00066982 0.00000000
3.56829097 1.49487496 -0.00050099 0.00000000
0.46813668 1.53180245 0.00058643 0.00000000
2.00403029 1.90483520 -0.00474633 0.00000000
3.61464806 0.38074655 -0.00202794 0.00000000
1.12151526 1.17146207 0.00018189 0.00000000
2.01334460 1.82348501 0.00014474 0.00000000
4.10621490 0.33703280 0.00363205 0.00000000
2.83912359 1.81404838 0.00092766 0.00000000
0.23594861 1.01506449 0.00707956 0.00000000
1.89086322 2.25053866 0.00377853 0.00000000
2.69230063 2.18529405 0.00039813 0.00000000
4.09794053 1.49900921 -0.00342592 0.00000000
1.13312423 0.04660487 0.00058894 0.00000000
0.71568160 0.93792281 -0.00140722 0.00000000
2.35268608 1.72245929 -0.00011963 0.00000000
1.85836786 1.33502387 0.00311088 0.00000000
0.86008955 1.50014608 -0.00305263 0.00000000
3.73882862 0.57715855 0.00320988 0.00000000
2.57444496 2.32007990 -0.00250193 0.00000000
0.79209443 1.03972498 -0.00059797 0.00000000
2.04427780 1.10613839 0.00239164 0.00000000
3.67851062 2.22524168 -0.00202168 0.00000000
3.19098504 0.09527443 -0.00119248 0.00000000
3.42472182 2.29726872 -0.00152362 0.00000000
1.85158509 1.67375207 -0.00193555 0.00000000
2.91078475 0.37803525 0.00258475 0.00000000
3.75308369 0.21126970 0.00494177 0.00000000
3.31382438 0.42692250 0.00050316 0.00000000
1.75410410 1.38881686 0.00092524 0.00000000
2.73314848 0.05178365 0.00152718 0.00000000
4.07505811 1.57815969 0.00092124 0.00000000
2.62171278 2.02847391 -0.00006757 0.00000000
3.94260087 0.58700065 -0.00260481 0.00000000
1.04562587 0.47531226 -0.00028622 0.00000000
0.81173479 1.85630249 0.00168833 0.00000000
3.63558081 1.10051789 -0.00377683 0.00000000
0.34699609 1.18997938 0.00264289 0.00000000
0.63673562 1.10433192 0.00207583 0.00000000
0.68003234 0.32879626 -0.00191870 0.00000000
3.12493176 0.10810785 -0.00667211 0.00000000
0.81041437 0.19655511 0.00010528 0.00000000
1.11549471 1.51507644 -0.00036911 0.00000000
3.02994306 0.97297907 -0.00004234 0.00000000
1.78571009 1.77841394 -0.00499236 0.00000000
2.63899579 0.92733332 0.00127554 0.00000000
0.54646361 0.78095143 0.00051370 0.00000000
3.18834109 1.86061537 0.00398195 0.00000000
4.01158298 0.17079387 0.00133072 0.00000000
0.51940549 0.88849457 0.00082409 0.00000000
1.07775413 1.64749767 0.00076867 0.00000000
1.22061684 1.66037187 0.00377862 0.00000000
3.01809826 0.05337145 0.00144203 0.00000000
3.72568203 2.21095069 0.00020295 0.00000000
1.78540794 2.31055261 0.00192657 0.00000000
0.00432211 1.62397053 -0.00039999 0.00000000
2.65112201 0.69801608 -0.00258656 0.00000000
1.13384820 0.79330395 0.00043333 0.00000000
3.89669407 1.97408715 0.00440533 0.00000000
0.72187082 0.06897249 0.00075071 0.00000000
2.47793508 0.95333625 0.00117534 0.00000000
1.39814183 0.50266251 -0.00349981 0.00000000
3.05823778 1.12699284 -0.00324916 0.00000000
1.49105029 0.80068928 0.00020802 0.00000000
3.27629237 2.07025802 0.00092447 0.00000000
2.37814538 0.09162707 0.00125265 0.00000000
3.76791843 2.34105645 -0.00080978 0.00000000
2.49447800 1.83202571 -0.00084158 0.00000000
0.80702544 1.53411975 0.00029718 0.00000000
0.32986728 0.98276227 0.00306357 0.00000000
0.19777770 1.59091600 0.00361087 0.00000000
4.02114307 0.04550967 -0.00267115 0.00000000
2.38093019 1.94058567 0.00141201 0.00000000
0.30156563 0.59810643 -0.00140487 0.00000000
2.51236711 0.81813290 -0.00300338 0.00000000
1.46014937 2.24090333 -0.00105178 0.00000000
0.14865534 0.57778813 0.00217591 0.00000000
0.68793981 0.50500967 -0.00036522 0.00000000
2.38970192 2.03781160 -0.00330055 0.00000000
3.50676905 0.78591063 -0.00103722 0.00000000
0.79178114 0.44838741 0.00206549 0.00000000
4.11642560 0.71809756 -0.00251761 0.00000000
0.71469966 0.12448301 0.00075808 0.00000000
2.14152953 0.19682514 0.00179152 0.00000000
2.17781907 0.66960208 -0.00091983 0.00000000
2.47509997 2.13268801 -0.00176224 0.00000000
1.52794299 1.17345064 0.00000690 0.00000000
2.16833888 0.64408031 0.00449366 0.00000000
0.41953155 2.03537988 -0.00197386 0.00000000
3.93284422 2.14921845 -0.00086833 0.00000000
0.04425569 1.75144219 -0.00424427 0.00000000
2.30975488 1.30825629 -0.00334516 0.00000000
0.73259300 0.62144094 -0.00114501 0.00000000
0.49822985 0.52808079 -0.00586639 0.00000000
3.26294604 1.86772981 0.00124566 0.00000000
2.61389815 0.21048643 0.00205586 0.00000000
3.44612149 2.09553180 0.00213071 0.00000000
3.23030785 2.33134932 -0.00035773 0.00000000
2.18981112 1.31008697 0.00321080 0.00000000
2.54153818 1.64667376 -0.00059005 0.00000000
3.00608715 0.76498329 0.00049412 0.00000000
0.79751265 1.48794596 -0.00317203 0.00000000
3.82303276 1.09316820 0.00193255 0.00000000
0.79958641 1.30584714 -0.00142751 0.00000000
1.63775024 1.54249768 -0.00370624 0.00000000
1.31660443 0.57509146 0.00052875 0.00000000
2.13910619 1.81890819 0.00166884 0.00000000
2.78128083 2.12596241 0.00058272 0.00000000
3.11732242 1.60579931 -0.00116900 0.00000000
0.13309003 2.19314548 0.00190260 0.00000000
1.42409307 1.79032683 0.00137570 0.00000000
0.59005639 1.77801141 0.00085369 0.00000000
0.06513039 1.42860582 0.00219859 0.00000000
0.34833966 1.20493406 -0.00081854 0.00000000
1.66166121 0.59405488 -0.00165082 0.00000000
2.18812695 1.12074402 0.00132798 0.00000000
3.30947284 0.81944656 0.00210001 0.00000000
2.75514082 1.19675750 -0.00508221 0.00000000
2.64410091 2.00554527 -0.00338264 0.00000000
2.00304984 0.75481177 -0.00105740 0.00000000
2.40221985 1.63393390 0.00453332 0.00000000
0.65363441 1.17395483 -0.00354817 0.00000000
4.05669810 1.63114960 -0.00268270 0.00000000
2.62875435 1.92205675 -0.00377186 0.00000000
0.64532571 1.22321360 0.00036807 0.00000000
2.80923762 1.50904296 -0.00090495 0.00000000
1.44575248 0.37011400 0.00075029 0.00000000
0.85007797 0.95801100 -0.00018429 0.00000000
3.54206111 1.04900804 0.00225146 0.00000000
0.00895039 1.91617198 -0.00098853 0.00000000
3.04216488 0.73358549 -0.00105492 0.00000000
1.02695477 0.02640989 -0.00259557 0.00000000
2.14081593 1.70575858 -0.00238149 0.00000000
1.99075039 2.11708134 0.00114892 0.00000000
2.42005129 0.99612673 0.00223589 0.00000000
0.45073994 2.30931070 0.00579664 0.00000000
1.45263784 2.11705941 -0.00327623 0.00000000
4.03959914 2.31992906 -0.00239952 0.00000000
0.59847744 1.71715710 -0.00136116 0.00000000
1.03391877 0.49784614 0.00292116 0.00000000
0.11954799 0.01910437 0.00294057 0.00000000
3.43441161 0.28661168 0.00463960 0.00000000
1.03407047 2.25540819 0.00007256 0.00000000
3.98342824 1.16168130 0.00025243 0.00000000
3.08214201 1.90329178 -0.00064779 0.00000000
0.11950700 1.77022638 -0.00112743 0.00000000
1.34944752 0.30156645 -0.00255840 0.00000000
0.79927402 1.31372395 -0.00191966 0.00000000
0.72732173 0.71815042 -0.00549353 0.00000000
0.53074741 1.45534607 -0.00209371 0.00000000
1.15035227 0.41315514 0.00282983 0.00000000
3.31510293 1.93795589 0.00223299 0.00000000
0.89034121 1.37894621 0.00021133 0.00000000
0.33070382 0.65455851 -0.00139685 0.00000000
0.32243916 1.94485616 -0.00588398 0.00000000
1.08375283 2.18614121 -0.00408248 0.00000000
3.06437362 0.92300471 0.00154301 0.00000000
3.56071231 1.73438949 -0.00405871 0.00000000
0.92354745 1.76724823 -0.00076809 0.00000000
3.75059676 1.62237587 0.00272835 0.00000000
1.76557177 1.30789972 -0.00063788 0.00000000
1.59128057 0.43235524 0.00097447 0.00000000
2.04341584 0.18262930 -0.00139798 0.00000000
0.64482204 0.82076778 -0.00002891 0.00000000
0.74532708 1.99668634 0.00322089 0.00000000
3.00419144 1.27559407 0.00244766 0.00000000
4.08392739 1.95727967 -0.00191260 0.00000000
2.18809065 1.43006670 0.00490688 0.00000000
3.67906738 1.95981031 0.00259075 0.00000000
2.11578848 0.87519314 -0.00041432 0.00000000
0.41366051 1.63530389 -0.00135016 0.00000000
1.56283405 1.47859816 -0.00106410 0.00000000
1.04692944 1.97170653 0.00449442 0.00000000
1.48094977 0.94363566 -0.00203093 0.00000000
4.01732822 1.61838483 0.00098664 0.00000000
1.43487354 2.18239181 -0.00424234 0.00000000
3.97922521 1.37329794 0.00065819 0.00000000
3.04085044 1.58938689 -0.00247312 0.00000000
0.21618044 1.81842883 0.00010504 0.00000000
3.45755734 1.33825173 -0.00339490 0.00000000
0.55269116 1.39668015 0.00030570 0.00000000
0.92135879 1.17088683 0.00153133 0.00000000
3.27763929 1.01020862 0.00143089 0.00000000
4.13124954 1.11615891 0.00091352 0.00000000
3.09331649 0.16226091 0.00248953 0.00000000
0.60061501 0.34252864 0.00322110 0.00000000
2.61503423 0.85590538 -0.00306190 0.00000000
4.15717503 0.65401626 0.00045844 0.00000000
3.60527125 0.99335510 -0.00449923 0.00000000
2.42080440 1.65281177 0.00163191 0.00000000
1.50988230 0.19933562 -0.00067197 0.00000000
3.48897332 0.90871956 -0.00015277 0.00000000
4.10863067 0.58514510 -0.00036311 0.00000000
4.00665231 2.29846811 -0.00372071 0.00000000
2.05926913 0.21380917 -0.00070580 0.00000000
0.56524041 0.00146248 -0.00031877 0.00000000
2.85731425 1.06524326 -0.00259236 0.00000000
0.36286096 0.19855506 -0.00238739 0.00000000
1.71535063 0.13975703 -0.00133062 0.00000000
1.51405440 2.16761465 -0.00081692 0.00000000
0.97127998 2.24366638 0.00080736 0.00000000
0.89725754 0.25555552 0.00094561 0.00000000
0.23014357 0.60272429 -0.00072568 0.00000000
0.45999190 0.49384776 -0.00202131 0.00000000
3.09649806 1.67077518 0.00076129 0.00000000
3.78188079 1.21716390 -0.00017276 0.00000000
2.45271279 1.95541677 0.00433599 0.00000000
3.67224551 0.57447617 -0.00056106 0.00000000
3.41106274 1.24394079 0.00037362 0.00000000
3.22637262 0.70151312 0.00009795 0.00000000
3.62230660 0.48593850 0.00196457 0.00000000
3.38972211 1.38169199 0.00050051 0.00000000
0.86526399 2.02228914 0.00247595 0.00000000
0.19390543 1.34568568 -0.00039640 0.00000000
3.96906539 0.83049026 0.00531059 0.00000000
0.53951601 1.29182894 0.00206874 0.00000000
0.23813342 0.52519598 0.00141929 0.00000000
1.16823648 0.54838027 -0.00245141 0.00000000
3.67748126 0.71877285 0.00218949 0.00000000
0.04212161 0.84040627 0.00046198 0.00000000
0.68172339 0.50087707 0.00526181 0.00000000
3.11180193 0.13013780 -0.00129317 0.00000000
2.08523506 2.04902224 -0.00177305 0.00000000
1.40839719 0.34276594 -0.00498536 0.00000000
3.12917066 1.59622938 -0.00220332 0.00000000
2.43939383 1.42746243 -0.00047281 0.00000000
2.65166599 0.14904815 0.00377203 0.00000000
2.56566556 0.67481063 -0.00238932 0.00000000
2.39878238 1.47796816 0.00063998 0.00000000
2.21497097 1.54846818 0.00362625 0.00000000
0.69785409 1.52128966 -0.00078972 0.00000000
4.12649189 1.72130868 -0.00252619 0.00000000
3.12417659 2.03214455 -0.00002168 0.00000000
3.07990258 0.08020654 0.00256449 0.00000000
2.43394625 0.70219044 -0.00135912 0.00000000
1.94294647 2.09639596 0.00274031 0.00000000
0.70491060 1.53577977 -0.00014655 0.00000000
3.14387856 0.10851885 0.00048081 0.00000000
2.75103173 0.93040597 -0.00227508 0.00000000
3.92989241 2.11605115 -0.00230301 0.00000000
2.99267344 1.60422458 0.00081457 0.00000000
1.93960398 2.11163632 0.00151551 0.00000000
1.12917921 0.36816411 0.00095730 0.00000000
3.21002519 0.97192390 0.00255085 0.00000000
3.24370308 0.30473254 0.00070865 0.00000000
2.43473206 0.57039321 -0.00029351 0.00000000
3.15913719 2.04096718 -0.00138925 0.00000000
1.07773935 2.21591521 -0.00102016 0.00000000
3.56698555 2.28420570 0.00135981 0.00000000
0.86499171 0.20039020 -0.00176318 0.00000000
3.91433909 1.51730867 -0.00043530 0.00000000
4.10321751 1.02347432 -0.00206633 0.00000000
2.37610498 2.28616977 -0.00083039 0.00000000
2.37778547 1.85618105 -0.00493434 0.00000000
0.57626565 0.42621447 0.00122954 0.00000000
1.39164257 0.04665487 -0.00245553 0.00000000
0.28341804 0.35080741 0.00032070 0.00000000
1.95131659 2.32330187 0.00006009 0.00000000
2.86589143 0.94836409 -0.00064791 0.00000000
0.39363283 1.34171286 -0.00160725 0.00000000
0.96360950 0.92420801 0.00281867 0.00000000
2.01745589 1.68158853 -0.00102107 0.00000000
4.01542236 0.34497459 -0.00440426 0.00000000
2.42010609 2.22263332 0.00166208 0.00000000
0.79715762 1.68332098 0.00364477 0.00000000
2.82463547 0.55519287 -0.00149615 0.00000000
2.26727280 1.91533015 -0.00343813 0.00000000
0.15028270 2.19245094 -0.00080458 0.00000000
3.20558011 1.19038627 0.00186103 0.00000000
3.53834274 0.62934684 -0.00179204 0.00000000
2.29021229 0.80742333 -0.00113801 0.00000000
4.08281759 0.65507902 -0.00065439 0.00000000
0.32787845 2.11179806 -0.00199483 0.00000000
1.05708211 1.26456517 0.00312414 0.00000000
2.56992116 0.54828761 -0.00134354 0.00000000
1.22729297 1.34924506 -0.00144275 0.00000000
3.11353457 0.23839680 -0.00216795 0.00000000
4.14215854 0.57413184 0.00128568 0.00000000
1.55118412 0.97966025 -0.00337731 0.00000000
2.47046264 0.41516691 0.00351681 0.00000000
2.38868625 2.05772203 0.00253564 0.00000000
3.85325922 0.47519105 0.00140721 0.00000000
1.03314015 2.34947774 -0.00147964 0.00000000
1.95564391 0.25590603 0.00293336 0.00000000
0.63931197 0.15794054 -0.00547106 0.00000000
2.25151939 1.12224494 0.00267660 0.00000000
0.14902679 1.71253655 -0.00038646 0.00000000
1.90322826 0.96136728 -0.00123581 0.00000000
3.59449210 2.15567777 -0.00258282 0.00000000
3.74707638 2.14352333 -0.00098811 0.00000000
0.90576056 1.25018276 -0.00463429 0.00000000
0.20100245 1.84624688 -0.00001249 0.00000000
0.86202189 0.45584174 0.00193806 0.00000000
0.36527256 0.50605345 0.00086219 0.00000000
2.06474242 0.40040646 -0.00125400 0.00000000
3.56177938 0.26789858 0.00196511 0.00000000
0.33252648 2.33091746 -0.00126454 0.00000000
0.89415694 0.16238518 -0.00173829 0.00000000
2.43930275 0.07739878 0.00184592 0.00000000
3.43115923 0.77754875 -0.00123305 0.00000000
3.41969923 0.68975966 0.00079589 0.00000000
3.72815271 1.10023355 -0.00316974 0.00000000
0.43262561 0.31829004 0.00129811 0.00000000
3.37914810 0.35489836 -0.00198067 0.00000000
0.75334639 0.20331373 -0.00055662 0.00000000
1.88286772 1.29115903 -0.00102325 0.00000000
0.19040274 0.79586681 0.00146269 0.00000000
3.44628930 0.22649401 -0.00259236 0.00000000
2.42126853 2.30068004 -0.00249368 0.00000000
1.24850496 1.29292580 0.00141864 0.00000000
1.89790500 1.18820899 0.00024822 0.00000000
0.86664813 0.45255624 0.00352726 0.00000000
2.22515768 0.48362817 0.00260286 0.00000000
2.12990431 2.29630766 0.00019691 0.00000000
2.64645050 1.14886819 0.00991715 0.00000000
1.63135813 0.18882502 -0.00109217 0.00000000
3.43557320 0.09500361 0.00307797 0.00000000
0.29483626 1.46439317 -0.00011901 0.00000000
1.51748771 1.42745581 0.00358950 0.00000000
2.51577178 1.42916875 -0.00023961 0.00000000
2.25698058 1.33908245 0.00050593 0.00000000
0.07203390 0.33166525 0.00133753 0.00000000
1.37090524 1.01829956 -0.00179921 0.00000000
0.21454818 0.85763906 -0.00381396 0.00000000
1.07115202 1.80758161 0.00048270 0.00000000
0.18156360 0.11033773 0.00392575 0.00000000
1.91760509 1.34207126 0.00347411 0.00000000
2.67415495 0.79233069 -0.00122912 0.00000000
1.57844572 1.94461343 -0.00036003 0.00000000
0.71276332 0.28821858 -0.00865211 0.00000000
1.66360690 2.21934456 0.00023947 0.00000000
0.84749702 1.63231214 0.00173896 0.00000000
1.85223059 2.09865602 0.00028745 0.00000000
3.41304879 0.47351976 -0.00383926 0.00000000
2.46920752 0.49462432 -0.00069144 0.00000000
0.19828437 2.23882584 0.00563185 0.00000000
2.06268290 1.78264486 -0.00020497 0.00000000
3.25512868 0.71143390 -0.00069761 0.00000000
0.65723547 0.91082518 0.00343623 0.00000000
1.08054095 1.18273022 -0.00352722 0.00000000
1.82461640 0.14522034 0.00201529 0.00000000
0.73531852 0.47263437 0.00061714 0.00000000
0.70757745 0.62083121 -0.00063918 0.00000000
1.35903769 1.16052442 -0.00508667 0.00000000
1.59388914 0.51010290 0.00464651 0.00000000
1.64984935 1.55345074 0.00375071 0.00000000
1.25960099 1.78531117 -0.00366847 0.00000000
0.20438026 0.43943765 0.00358166 0.00000000
1.51342979 1.31941972 0.00318681 0.00000000
0.13476813 1.72748017 -0.00078640 0.00000000
0.58096199 0.05065178 -0.00672837 0.00000000
3.71212421 0.35920240 0.00315965 0.00000000
3.33785936 0.94821449 0.00130126 0.00000000
3.60955472 1.93704571 -0.00044534 0.00000000
0.17235162 1.34717923 -0.00188195 0.00000000
2.59776082 2.04755986 -0.00399471 0.00000000
1.98576718 0.71656202 0.00242361 0.00000000
0.88090162 1.80910030 -0.00144419 0.00000000
0.75360095 0.82109264 0.00137478 0.00000000
0.68920326 2.10670567 -0.00170283 0.00000000
4.05522102 1.76723465 -0.00505752 0.00000000
3.84190692 0.80555097 -0.00262477 0.00000000
2.93001900 0.76953459 0.00246019 0.00000000
2.91653612 1.68431505 0.00164811 0.00000000
0.17628291 0.13520393 -0.00001406 0.00000000
4.15261054 1.50289392 -0.00248216 0.00000000
3.79602216 0.20286036 -0.00046557 0.00000000
3.75287199 1.56023040 0.00333827 0.00000000
3.76560152 1.25051492 0.00366525 0.00000000
2.11951001 1.01449811 0.00167759 0.00000000
0.21976685 0.67357256 0.00273561 0.00000000
2.16319251 1.78012356 -0.00325384 0.00000000
4.15480421 1.17211578 0.00173889 0.00000000
3.34598543 1.31486357 -0.00315634 0.00000000
0.36679696 2.31140782 0.00055138 0.00000000
2.62889897 1.77749152 -0.00322812 0.00000000
2.53437224 0.07620099 -0.00104255 0.00000000
0.61766387 1.07302572 0.00103831 0.00000000
3.43587795 1.97260149 -0.00102418 0.00000000
2.90092763 2.29796045 0.00186494 0.00000000
3.96359725 2.05927711 0.00169266 0.00000000
2.44301318 2.15147954 -0.00012383 0.00000000
2.33649606 0.85510381 -0.00030500 0.00000000
0.89815446 2.01837598 0.00188014 0.00000000
3.60352355 0.19018856 0.00103782 0.00000000
3.78092780 1.43355990 -0.00030383 0.00000000
0.09548097 1.12456801 -0.00098994 0.00000000
1.97876150 0.73862411 0.00221054 0.00000000
2.12250649 2.35424614 0.00331592 0.00000000
2.16859635 0.96953198 0.00073426 0.00000000
3.17234478 1.91004880 0.00394719 0.00000000
0.68826179 0.72087701 0.00148447 0.00000000
2.52564730 1.35460560 -0.00198716 0.00000000
0.52790422 1.41500821 0.00296582 0.00000000
0.08195749 0.08988858 0.00227131 0.00000000
2.02400422 2.10311638 -0.00134270 0.00000000
0.40016359 1.12611271 -0.00083679 0.00000000
2.51570963 0.97709650 0.00035568 0.00000000
3.42397356 1.57706341 -0.00065348 0.00000000
2.22528019 2.07249162 0.00029352 0.00000000
2.21824151 1.33963012 -0.00109215 0.00000000
2.38686102 1.18069702 -0.00001007 0.00000000
0.21340662 0.67226818 0.00020525 0.00000000
2.44980071 1.53891849 0.00091035 0.00000000
1.63659004 1.08892002 -0.00037912 0.00000000
1.16509975 1.00705295 0.00158117 0.00000000
0.65068229 0.39852605 -0.00065648 0.00000000
2.98169595 1.84064982 0.00138689 0.00000000
0.84228788 1.68382164 0.00197576 0.00000000
3.31930197 1.93068491 0.00020381 0.00000000
3.94014198 0.72460623 0.00187528 0.00000000
3.38481650 1.82288835 0.00268942 0.00000000
3.31134297 0.34036935 -0.00057918 0.00000000
1.90188756 1.62572041 -0.00355256 0.00000000
3.80787625 0.08132573 0.00409969 0.00000000
2.08246796 2.19508843 0.00071281 0.00000000
2.55136044 2.06618576 -0.00184534 0.00000000
3.21817564 0.84264843 -0.00156101 0.00000000
3.59252548 0.90216765 -0.00104203 0.00000000
1.78607958 0.17988858 -0.00374844 0.00000000
2.31031841 1.98837318 -0.00033559 0.00000000
3.05706433 1.99741825 -0.00276874 0.00000000
0.48594321 1.09097451 -0.00041531 0.00000000
2.24553989 0.73593162 0.00318449 0.00000000
2.34574417 2.05375164 0.00375474 0.00000000
3.77045899 0.42625751 0.00021723 0.00000000
0.24826517 0.09045882 0.00203759 0.00000000
3.07368565 0.74095016 -0.00275523 0.00000000
0.13351651 0.25975925 0.00086431 0.00000000
0.24005026 1.01282209 -0.00070348 0.00000000
2.50041694 1.98036882 -0.00006988 0.00000000
0.25803496 0.75473395 -0.00170318 0.00000000
2.03932936 1.56876197 0.00215549 0.00000000
2.19723969 2.35913792 -0.00421912 0.00000000
0.35040566 1.73834260 -0.00256981 0.00000000
2.05539339 1.79681725 -0.00550047 0.00000000
1.23157862 1.19892644 0.00070080 0.00000000
1.54748658 0.64997152 0.00039567 0.00000000
2.22086182 0.59894499 0.00176549 0.00000000
3.88239053 1.72179728 -0.00010993 0.00000000
1.65458362 0.42830426 0.00066402 0.00000000
3.71795363 0.10513544 -0.00108936 0.00000000
3.31928437 0.16568869 0.00445550 0.00000000
0.84814912 0.96671054 -0.00344906 0.00000000
0.75922583 1.56360142 0.00110886 0.00000000
1.99875559 1.34254047 0.00376833 0.00000000
1.74648871 0.25660418 0.00051998 0.00000000
2.69962003 0.35198530 -0.00177954 0.00000000
2.24722546 0.04334919 -0.00148410 0.00000000
0.47851607 2.16123523 0.00160857 0.00000000
1.89559578 0.92306184 0.00077642 0.00000000
4.13350756 0.94716906 0.00282911 0.00000000
0.90118178 0.59587589 -0.00035425 0.00000000
2.85550475 0.04741068 0.00044916 0.00000000
1.84783653 0.78848542 -0.00048755 0.00000000
2.96738703 2.31342792 0.00203246 0.00000000
0.86050462 0.10337587 -0.00242997 0.00000000
2.45691756 0.55991176 0.00446022 0.00000000
1.01930190 1.78416930 0.00012403 0.00000000
2.47380279 1.75196732 -0.00011636 0.00000000
2.82412869 2.07705870 -0.00174783 0.00000000
0.27017110 1.09512261 -0.00456661 0.00000000
1.07892024 1.40995357 -0.00569014 0.00000000
0.01725320 1.19013371 -0.00271438 0.00000000
2.93244246 1.00018178 -0.00229012 0.00000000
0.66149318 1.79825324 0.00317719 0.00000000
1.63806384 0.70232179 0.00314591 0.00000000
3.82614305 0.61577982 0.00194644 0.00000000
3.71121562 1.90963921 0.00320928 0.00000000
3.93105490 1.28604662 -0.00150354 0.00000000
2.04936433 1.22626237 0.00461254 0.00000000
0.10524069 0.02078213 0.00381125 0.00000000
0.48288324 0.55074121 -0.00545243 0.00000000
1.90799622 1.39256269 -0.00385528 0.00000000
3.91715585 2.34994987 -0.00120512 0.00000000
2.28798505 1.43276489 0.00004949 0.00000000
0.30357877 0.76554434 -0.00314019 0.00000000
2.93480672 0.82181351 -0.00024185 0.00000000
1.68475135 0.54309529 -0.00023893 0.00000000
2.67933097 0.79118639 0.00105324 0.00000000
1.05608327 1.31129422 0.00141825 0.00000000
1.79706864 1.97900663 0.00244133 0.00000000
3.22907767 0.09424142 0.00009863 0.00000000
3.65207716 1.54571581 0.00069222 0.00000000
1.07703006 0.10868612 0.00226347 0.00000000
3.66155116 0.26325752 0.00086268 0.00000000
3.55408970 0.17286464 0.00025670 0.00000000
0.36692302 0.53194657 0.00337005 0.00000000
3.78591588 1.59755104 -0.00131294 0.00000000
0.77973451 1.29142620 0.00429918 0.00000000
1.02398307 0.48461640 0.00135877 0.00000000
3.71406711 0.45257559 -0.00055308 0.00000000
2.11503108 1.97788371 -0.00031228 0.00000000
3.48391105 0.87792361 0.00076222 0.00000000
3.21697074 0.67163118 -0.00024558 0.00000000
1.83911388 0.81155502 -0.00090109 0.00000000
2.68360250 0.72753335 0.00386721 0.00000000
3.17145795 0.39685850 -0.00218626 0.00000000
1.49014829 1.26069491 0.00484031 0.00000000
2.58036149 0.26788555 0.00431341 0.00000000
1.92054877 0.88714946 0.00027371 0.00000000
1.68768418 2.05021853 0.00024637 0.00000000
2.87194973 0.78549156 -0.00107876 0.00000000
2.73267050 1.31568479 -0.00494730 0.00000000
3.21627639 0.62591125 -0.00041893 0.00000000
0.75228498 0.65906040 -0.00444547 0.00000000
0.52642917 1.38095219 -0.00104038 0.00000000
3.79863906 1.92541034 -0.00077013 0.00000000
2.97766057 0.70795519 -0.00130401 0.00000000
0.95742089 0.11522930 -0.00066072 0.00000000
1.04990943 0.58899281 -0.00330179 0.00000000
