2.98350471 0.63925063 -0.00397302 0.00000000
1.58350210 0.36609613 0.00412820 0.00000000
0.33901023 0.35226227 -0.00321374 0.00000000
2.25555711 1.03150853 0.00037628 0.00000000
3.82272226 0.31509830 0.00348026 0.00000000
2.39739603 1.07106314 -0.00488245 0.00000000
0.03532848 1.08845301 -0.00131755 0.00000000
0.59846113 1.48476867 0.00070243 0.00000000
2.81665695 0.86294911 0.00453547 0.00000000
1.46541007 1.97370430 0.00240038 0.00000000
2.45956275 1.58030976 -0.00063020 0.00000000
1.71884866 2.14345733 -0.00297204 0.00000000
1.45072434 1.62246291 0.00197803 0.00000000
3.45671537 0.72435039 0.00255735 0.00000000
1.36686478 0.51311344 -0.00161108 0.00000000
0.13094147 0.15827887 -0.00238179 0.00000000
0.42188526 1.66408567 -0.00097888 0.00000000
2.09407498 0.47248207 -0.00114033 0.00000000
2.08037846 0.62666826 0.00268638 0.00000000
1.51220041 0.57250882 -0.00163882 0.00000000
2.92025894 0.13989998 -0.00613257 0.00000000
1.45626082 2.21809130 0.00129983 0.00000000
1.86473943 1.99131386 -0.00248745 0.00000000
1.18001200 0.84514134 0.00205401 0.00000000
3.53193381 1.20985616 0.00083380 0.00000000
3.79857494 0.07015347 -0.00086553 0.00000000
3.38210065 1.91904423 0.00233626 0.00000000
3.33679724 0.39191105 -0.00035915 0.00000000
0.76173442 0.00844201 -0.00448931 0.00000000
1.79175587 0.04915621 0.00178484 0.00000000
1.87625787 0.88690026 -0.00230626 0.00000000
1.85753413 0.42157242 -0.00156003 0.00000000
3.56613496 0.51354638 0.00249835 0.00000000
0.02919630 1.46369483 -0.00097707 0.00000000
2.47697788 0.37113447 0.00084446 0.00000000
2.11201738 1.29558301 0.00016848 0.00000000
0.16065579 0.60898232 -0.00106124 0.00000000
2.71412649 2.21905255 -0.00235765 0.00000000
0.36116002 1.19393224 -0.00572145 0.00000000
0.76043219 0.06501106 0.00143030 0.00000000
1.62611879 0.92744402 0.00053878 0.00000000
1.97817261 0.13840650 -0.00126986 0.00000000
3.83483198 0.42805310 0.00073891 0.00000000
1.64914651 0.96229546 -0.00125648 0.00000000
1.87424614 1.57844690 -0.00092243 0.00000000
2.18269354 1.62900491 -0.00284189 0.00000000
2.62819362 0.01355507 0.00116057 0.00000000
0.56996383 0.65709404 -0.00408936 0.00000000
1.29443599 0.74617943 -0.00088946 0.00000000
3.73547898 1.09813576 0.00374940 0.00000000
0.54515588 1.29446289 -0.00231545 0.00000000
2.46171313 1.85347963 0.00057285 0.00000000
1.50050939 0.29230324 -0.00087963 0.00000000
3.48123651 1.50308431 -0.00014419 0.00000000
0.88969192 2.21593808 0.00089579 0.00000000
3.82180337 0.00440547 0.00025316 0.00000000
1.41310699 1.59759229 -0.00058611 0.00000000
1.60643413 2.19135325 -0.00387265 0.00000000
0.63360191 0.16801134 0.00222156 0.00000000
3.50712568 2.01321019 0.00012056 0.00000000
0.16721339 1.54104565 0.00085003 0.00000000
0.32572424 1.21618818 0.00295466 0.00000000
2.53104555 1.96663459 0.00205798 0.00000000
0.00184191 0.95656183 0.00046827 0.00000000
4.06233089 0.30239096 -0.00236543 0.00000000
3.11469546 0.37702240 0.00127790 0.00000000
0.18352457 2.06865833 -0.00268750 0.00000000
1.30599627 2.21592163 -0.00215991 0.00000000
0.12956208 1.72629439 -0.00054232 0.00000000
1.20533701 0.91955888 -0.00494410 0.00000000
2.66658020 1.37335384 0.00242045 0.00000000
2.68292304 2.18571693 0.00060892 0.00000000
0.58247236 0.75003067 -0.00107126 0.00000000
2.45607092 1.67258716 -0.00469579 0.00000000
1.97995661 2.17803807 -0.00144901 0.00000000
2.29138494 1.86029078 -0.00235696 0.00000000
2.63212034 0.11020493 -0.00174003 0.00000000
2.72370095 0.83690079 0.00248219 0.00000000
0.84116779 0.01129457 0.00251918 0.00000000
2.55967376 0.41816350 0.00114605 0.00000000
1.71480396 0.23837076 -0.00265451 0.00000000
0.59811707 0.16130793 0.00016931 0.00000000
4.02912561 0.01718110 0.00595315 0.00000000
3.39272126 0.31800388 -0.00306499 0.00000000
3.26529704 0.58836199 0.00028477 0.00000000
1.50092972 0.05310294 0.00000225 0.00000000
3.95986734 0.85018637 -0.00061712 0.00000000
2.56156943 0.44657184 -0.00024911 0.00000000
0.03262655 1.26522692 -0.00142951 0.00000000
0.80428010 2.21628819 -0.00051882 0.00000000
3.26549527 0.21959377 0.00007853 0.00000000
3.24784872 1.55146514 -0.00391503 0.00000000
3.33678619 0.98970996 0.00276316 0.00000000
3.10651532 1.32645064 -0.00454731 0.00000000
3.51978847 2.09277313 -0.00012175 0.00000000
2.77366499 2.06882768 0.00575997 0.00000000
2.92796380 1.45169173 -0.00380374 0.00000000
3.60160572 1.95715304 -0.00333357 0.00000000
0.35846963 1.96043688 -0.00263691 0.00000000
2.74271689 0.42935258 0.00027348 0.00000000
2.09519181 1.84611915 -0.00238119 0.00000000
0.39536420 1.14952529 -0.00177797 0.00000000
2.52595169 2.02048770 -0.00331989 0.00000000
0.19587151 0.02474115 -0.00293143 0.00000000
3.20612127 2.12815088 0.00184912 0.00000000
2.50486578 0.58358093 -0.00313371 0.00000000
3.53900598 0.05198382 -0.00183061 0.00000000
4.10444058 2.22249134 0.00132850 0.00000000
4.13136052 0.55593349 -0.00236430 0.00000000
0.65877003 1.61976450 -0.00235169 0.00000000
1.88763165 1.20828724 -0.00156604 0.00000000
0.73554765 1.42614672 -0.00165652 0.00000000
0.77246697 1.94039830 -0.00048652 0.00000000
2.48320259 0.47671649 -0.00338671 0.00000000
2.23962164 1.08561651 0.00280418 0.00000000
3.29473438 1.40639110 -0.00096627 0.00000000
0.44297825 0.32209268 0.00073985 0.00000000
1.77229675 0.25392893 0.00072809 0.00000000
1.54670931 1.17726585 -0.00328700 0.00000000
2.96913261 0.97947405 0.00033208 0.00000000
3.11572345 2.20113814 0.00073011 0.00000000
3.91914267 1.94071732 0.00205495 0.00000000
3.61915650 0.14869002 -0.00248162 0.00000000
4.09035594 0.87843818 0.00136573 0.00000000
4.14271913 1.66090008 0.00247955 0.00000000
4.04087835 0.80859744 0.00371132 0.00000000
0.04821965 0.82882973 -0.00208717 0.00000000
2.75389558 0.52462664 0.00086231 0.00000000
0.18182643 1.48942771 0.00650909 0.00000000
0.05911957 1.72834542 0.00006034 0.00000000
3.27780459 0.11872506 -0.00147063 0.00000000
1.81380343 1.36791054 0.00308837 0.00000000
2.40361082 2.21480995 -0.00121518 0.00000000
1.57764168 1.98449319 -0.00120253 0.00000000
2.88019031 0.46809989 0.00031616 0.00000000
0.77284691 1.91568316 0.00107609 0.00000000
2.99719210 1.98493892 0.00543636 0.00000000
0.57633140 2.06050867 -0.00247296 0.00000000
3.09239780 0.25029243 -0.00293361 0.00000000
2.36262036 1.77713029 -0.00299844 0.00000000
1.83606042 1.35552714 -0.00064126 0.00000000
2.56226611 1.62208161 -0.00044374 0.00000000
2.78417493 0.48975596 -0.00011769 0.00000000
3.75414452 1.34758296 0.00214570 0.00000000
2.47910779 1.48852549 -0.00181957 0.00000000
2.39438608 0.26236277 -0.00272181 0.00000000
2.26520309 0.36166407 0.00193562 0.00000000
2.46101793 1.35885072 -0.00131149 0.00000000
0.88427756 1.06707714 -0.00215354 0.00000000
0.69631410 1.23751693 0.00779147 0.00000000
1.09359140 2.13697178 -0.00159453 0.00000000
3.21125511 0.09431573 0.00387040 0.00000000
0.50950944 0.22539541 0.00170248 0.00000000
0.51042279 1.62376525 0.00149238 0.00000000
1.71145526 1.15178119 -0.00150464 0.00000000
0.10902073 2.20129184 0.00041019 0.00000000
3.33329395 0.56612827 -0.00055307 0.00000000
2.76919929 1.63754816 -0.00240990 0.00000000
0.60349864 1.42859685 0.00036595 0.00000000
0.48250165 0.30875294 -0.00559185 0.00000000
2.04175853 0.28808806 -0.00103798 0.00000000
3.63179147 0.83725044 -0.00165283 0.00000000
3.31892666 0.23903334 0.00060843 0.00000000
1.35038454 1.67377034 0.00528285 0.00000000
0.02498699 0.08467842 -0.00134151 0.00000000
4.13602734 0.40353394 -0.00191796 0.00000000
3.44633937 0.01991608 -0.00230845 0.00000000
2.02853824 1.84079674 0.00013462 0.00000000
1.50209175 0.71310648 -0.00166068 0.00000000
3.74519531 0.48808081 -0.00427733 0.00000000
1.93634132 0.68643425 -0.00261596 0.00000000
1.52251484 0.24251677 0.00430357 0.00000000
2.51314790 0.43731201 -0.00495080 0.00000000
2.64008282 2.02811715 -0.00213330 0.00000000
3.48862153 0.92647985 -0.00465584 0.00000000
3.05855694 0.26668251 0.00258901 0.00000000
1.36992311 0.01710756 -0.00384331 0.00000000
2.53420289 0.38877660 -0.00062745 0.00000000
1.26086174 0.22768240 0.00013699 0.00000000
1.04725023 0.86266780 -0.00063871 0.00000000
2.10058068 0.24960911 -0.00078600 0.00000000
2.15207088 2.20786001 -0.00028639 0.00000000
3.35115256 0.56648796 0.00133696 0.00000000
3.43822670 1.98166883 0.00078183 0.00000000
3.90225804 0.72769164 0.00144298 0.00000000
2.37695157 0.43485814 0.00028793 0.00000000
0.59062380 0.98394932 -0.00557459 0.00000000
1.53838837 1.88891686 0.00325111 0.00000000
1.42987352 1.28343458 0.00171551 0.00000000
3.95782935 0.69785695 -0.00126818 0.00000000
1.62423981 0.10826353 -0.00473851 0.00000000
1.62975546 0.20888916 -0.00214730 0.00000000
3.78412895 0.00663676 0.00109426 0.00000000
4.00767550 0.32089079 0.00029069 0.00000000
2.68125212 1.78287210 -0.00193664 0.00000000
1.43492532 0.69312349 -0.00249638 0.00000000
2.84230505 1.96099729 0.00023221 0.00000000
2.02000744 0.54233289 -0.00302053 0.00000000
0.05124173 1.91548075 -0.00285992 0.00000000
0.43336765 2.00415503 0.00161863 0.00000000
2.09885498 1.50922268 0.00188556 0.00000000
1.21198878 0.80660244 0.00279332 0.00000000
3.77681968 2.19584822 -0.00163522 0.00000000
1.99734415 1.36470235 -0.00207419 0.00000000
0.93419935 1.25557381 0.00523953 0.00000000
1.00681539 0.90896463 -0.00591996 0.00000000
2.15547389 1.61896069 -0.00014176 0.00000000
2.25571044 0.63767315 0.00023212 0.00000000
0.13717741 0.06282874 -0.00358354 0.00000000
0.29934035 0.88104269 0.00204418 0.00000000
0.22632112 1.31297053 0.00142635 0.00000000
0.76939558 2.04005697 -0.00431498 0.00000000
3.18749178 0.72963438 0.00135485 0.00000000
0.72198253 0.46988653 -0.00002421 0.00000000
0.37007569 2.05598043 0.00199099 0.00000000
3.11854945 0.03770417 -0.00101513 0.00000000
1.49463157 0.19883070 -0.00032855 0.00000000
0.20570884 1.54322030 0.00143697 0.00000000
3.44408830 1.91927975 -0.00127634 0.00000000
4.01675310 1.35488138 -0.00396819 0.00000000
2.91511587 0.13044914 -0.00027638 0.00000000
1.84739715 2.15820212 -0.00330326 0.00000000
2.05347615 1.76191668 0.00058500 0.00000000
1.03278676 1.11398099 -0.00240470 0.00000000
4.15845243 0.69678926 0.00123927 0.00000000
2.61196762 1.68133412 0.00231435 0.00000000
1.65004109 1.56122486 -0.00125156 0.00000000
2.90336630 2.16121835 -0.00535912 0.00000000
0.02674351 1.79140002 0.00350737 0.00000000
0.97584431 1.87086101 -0.00133106 0.00000000
3.47956440 0.09531569 -0.00480042 0.00000000
2.36664958 2.16246661 -0.00058769 0.00000000
1.18347967 1.37086145 -0.00175805 0.00000000
1.44689267 0.60355948 0.00023792 0.00000000
0.67273786 2.06017886 -0.00251850 0.00000000
3.47522035 1.83008014 -0.00036911 0.00000000
2.82733043 2.06206003 0.00088012 0.00000000
0.09800516 0.76060052 0.00102480 0.00000000
2.04404719 1.27321798 -0.00033980 0.00000000
1.94892076 0.24407196 0.00093407 0.00000000
1.10981666 0.71207735 -0.00362933 0.00000000
3.13233859 1.54069516 0.00496505 0.00000000
1.39889830 1.28255736 -0.00157372 0.00000000
0.09629646 1.82600633 -0.00047560 0.00000000
3.62115838 1.80950212 0.00381122 0.00000000
0.62054982 1.82281476 0.00028277 0.00000000
3.12539675 1.54336704 0.00467116 0.00000000
2.97791819 0.54894449 0.00127514 0.00000000
0.17045944 1.43170611 -0.00291260 0.00000000
0.74371701 1.99771889 0.00239611 0.00000000
1.31388560 1.65544128 0.00462573 0.00000000
1.87324204 0.19462858 -0.00189604 0.00000000
2.10900863 1.22785848 -0.00276003 0.00000000
1.85115542 0.38799418 -0.00276020 0.00000000
0.15469811 0.57118659 -0.00307901 0.00000000
3.68969518 0.98506130 0.00110732 0.00000000
1.20194358 0.20172367 0.00028196 0.00000000
1.25819541 0.33051706 0.00291314 0.00000000
4.02689589 2.03268709 0.00247498 0.00000000
3.06118174 1.39145076 0.00089839 0.00000000
2.82085230 2.07059422 0.00005373 0.00000000
1.94117957 1.29487336 0.00231934 0.00000000
0.70700026 1.47175129 0.00436441 0.00000000
1.08552341 0.68694212 0.00116411 0.00000000
0.55650597 0.37318452 0.00066132 0.00000000
0.48560286 1.86183059 -0.00241984 0.00000000
2.12331045 1.38376569 0.00085520 0.00000000
2.36847722 1.79325158 0.00012727 0.00000000
0.81121322 1.49372415 -0.00190411 0.00000000
2.88219377 1.51578611 0.00176981 0.00000000
0.43701965 1.29015126 -0.00215183 0.00000000
2.63762807 0.48186167 0.00131029 0.00000000
1.13671254 0.88512291 0.00477438 0.00000000
4.01211051 0.87451231 0.00156546 0.00000000
2.27288335 1.81507243 -0.00090054 0.00000000
1.34391148 0.83994861 -0.00415992 0.00000000
1.99644942 0.42024530 -0.00139429 0.00000000
0.06584118 0.34067981 0.00217596 0.00000000
0.87312667 2.21727450 0.00363199 0.00000000
0.00264509 0.45687620 -0.00360529 0.00000000
2.50352102 2.00087553 -0.00529105 0.00000000
3.42247611 0.65970311 0.00146553 0.00000000
3.61668609 1.31938203 0.00805790 0.00000000
3.73956977 2.01509377 0.00251070 0.00000000
0.75353620 1.88455227 -0.00007675 0.00000000
0.98913341 1.56898503 -0.00088483 0.00000000
0.07536926 0.52846607 0.00207111 0.00000000
0.76620428 1.67908256 -0.00043941 0.00000000
1.92650842 0.84887508 0.00080556 0.00000000
0.01522770 0.98102890 0.00101451 0.00000000
2.07260761 0.20434965 0.00063256 0.00000000
0.41387462 0.14709901 0.00036907 0.00000000
0.95457312 1.05797975 0.00274690 0.00000000
3.45848661 1.39393184 0.00100705 0.00000000
1.33014321 1.85478360 0.00109055 0.00000000
0.09459998 0.27293430 -0.00098977 0.00000000
0.06270430 1.38284609 -0.00085721 0.00000000
1.58073087 1.98101825 -0.00119034 0.00000000
1.02200427 0.73187347 0.00057436 0.00000000
3.54229410 0.99816273 0.00094170 0.00000000
3.72243387 1.72497853 0.00168553 0.00000000
2.08867591 1.67778818 0.00006818 0.00000000
0.56862027 1.35204234 0.00137947 0.00000000
2.25813409 0.68542040 -0.00318250 0.00000000
1.80583756 1.73581859 -0.00344769 0.00000000
3.03472963 0.42412104 -0.00002708 0.00000000
3.74941401 1.61928654 0.00053269 0.00000000
1.37107203 0.61146964 0.00118150 0.00000000
2.82600176 1.05532096 0.00143384 0.00000000
2.78620862 1.51069516 -0.00396521 0.00000000
2.17865144 0.14322567 -0.00423075 0.00000000
0.32300349 2.03670603 -0.00022700 0.00000000
2.27925276 1.83357164 0.00287554 0.00000000
0.31090388 1.04839159 0.00051223 0.00000000
1.22197922 0.33685829 0.00147207 0.00000000
3.28595350 1.39858282 0.00199413 0.00000000
1.28396740 0.78159911 -0.00229226 0.00000000
0.99726733 1.87866406 0.00089425 0.00000000
0.91861183 0.48052858 0.00749816 0.00000000
3.65598138 0.73650889 -0.00058335 0.00000000
2.04856451 1.39262640 -0.00243944 0.00000000
1.24334854 0.21391115 -0.00159109 0.00000000
2.84112302 2.13319476 -0.00195663 0.00000000
2.19052468 0.17033303 -0.00247476 0.00000000
1.52124695 1.34104138 -0.00236432 0.00000000
0.86913401 1.50950979 0.00442655 0.00000000
1.66285621 1.65963951 0.00101026 0.00000000
0.26262629 1.26512352 -0.00200784 0.00000000
3.21973396 1.17725583 0.00144643 0.00000000
2.08981429 0.43908553 0.00142687 0.00000000
1.43462245 0.46029229 0.00299569 0.00000000
2.80270647 2.13904591 -0.00254885 0.00000000
3.09765721 0.77495949 0.00540759 0.00000000
1.06312635 0.74326334 -0.00044932 0.00000000
1.11973527 0.44098489 -0.00070748 0.00000000
1.02289872 1.57191963 0.00007227 0.00000000
3.57057467 0.33579016 -0.00054726 0.00000000
1.93423505 0.02763538 -0.00228019 0.00000000
2.18628182 1.56818485 0.00144761 0.00000000
0.39658394 2.18354089 -0.00017778 0.00000000
1.36168995 0.86253100 -0.00561517 0.00000000
2.66931023 1.63319613 0.00096056 0.00000000
0.25567590 1.65114774 0.00454483 0.00000000
0.68526441 0.57875237 0.00002178 0.00000000
0.33224266 2.19576490 -0.00290922 0.00000000
2.64607943 0.05047821 0.00150156 0.00000000
3.44862584 0.80604588 -0.00195972 0.00000000
2.14463844 0.86449936 0.00219742 0.00000000
3.94055554 0.01418738 -0.00243599 0.00000000
0.25343097 1.60322882 0.00505102 0.00000000
1.59670869 1.72440730 -0.00175858 0.00000000
4.00338802 2.19235643 0.00153013 0.00000000
0.31250020 0.35765239 -0.00069832 0.00000000
2.64816540 0.34865770 -0.00372732 0.00000000
0.25408037 2.21738312 0.00588684 0.00000000
1.58630901 1.52978280 0.00396978 0.00000000
3.91564833 0.51273321 0.00078111 0.00000000
0.76497218 0.14802269 -0.00022495 0.00000000
1.75583671 0.28260082 0.00148313 0.00000000
1.49425096 1.54832271 -0.00507848 0.00000000
3.88491957 0.15578153 0.00086498 0.00000000
0.11172208 2.08639137 0.00124908 0.00000000
1.62494677 1.61609759 0.00127337 0.00000000
3.41516025 0.58171055 -0.00138803 0.00000000
1.95735319 2.05942608 -0.00272885 0.00000000
3.61375488 0.34018374 -0.00392481 0.00000000
1.85476830 1.43429345 -0.00016666 0.00000000
2.46945721 1.74548727 0.00111087 0.00000000
2.35695012 2.02068516 0.00023126 0.00000000
3.09375798 1.96459688 -0.00342472 0.00000000
3.60150939 1.14923054 0.00016762 0.00000000
3.66389942 1.34138325 0.00095161 0.00000000
1.28967530 2.08362407 0.00021259 0.00000000
1.20054539 1.17981716 -0.00229415 0.00000000
2.29534537 0.12487557 0.00419854 0.00000000
1.04662282 0.21873559 0.00157657 0.00000000
0.03012674 0.41795402 -0.00424468 0.00000000
2.05734398 1.02614800 -0.00313264 0.00000000
3.86176919 0.64925322 -0.00135466 0.00000000
3.42568485 0.95924595 -0.00505450 0.00000000
2.12060482 0.93098604 0.00146353 0.00000000
1.44867740 2.00129160 0.00135014 0.00000000
2.17513175 0.12774503 0.00275319 0.00000000
3.35357584 2.00973659 -0.00517815 0.00000000
2.16270744 2.21836680 0.00334969 0.00000000
2.17165624 0.86808669 0.00098557 0.00000000
3.42912830 0.54635926 0.00458629 0.00000000
3.17255339 1.84458612 -0.00532018 0.00000000
0.30368861 0.50081655 0.00785677 0.00000000
0.60453169 0.96316586 0.00625663 0.00000000
0.27604111 0.41954051 0.00348902 0.00000000
3.65032030 1.46208769 -0.00287431 0.00000000
0.86721803 2.04856977 0.00167786 0.00000000
1.14720464 0.52985756 -0.00088220 0.00000000
3.29265782 1.21688112 0.00046688 0.00000000
1.15311327 1.34536040 0.00298609 0.00000000
4.11443955 2.05525177 0.00162744 0.00000000
3.80561222 1.30407526 -0.00213518 0.00000000
4.03246743 1.11940971 0.00208291 0.00000000
1.55511195 0.42909474 -0.00180365 0.00000000
1.64016585 1.93270098 -0.00184043 0.00000000
0.00398412 1.32787616 -0.00032187 0.00000000
0.51552163 0.62547448 0.00141112 0.00000000
0.36948686 1.89623731 -0.00451067 0.00000000
3.80441698 0.09515225 0.00004779 0.00000000
2.64913365 0.64865113 -0.00233184 0.00000000
0.04651997 1.69867463 0.00006564 0.00000000
3.20992803 1.58834355 -0.00026118 0.00000000
3.07140141 0.18049636 0.00321309 0.00000000
1.75097400 1.94354684 -0.00461350 0.00000000
1.08506019 0.98123449 -0.00067155 0.00000000
3.84306903 0.93866791 0.00405920 0.00000000
1.27814919 2.20574388 0.00024295 0.00000000
3.16689438 0.29584221 -0.00182769 0.00000000
2.36669020 1.81253995 -0.00144803 0.00000000
0.77114035 2.09234110 0.00426659 0.00000000
2.95498422 0.70636358 -0.00040106 0.00000000
0.15894598 1.66015971 0.00012224 0.00000000
2.75930201 1.31687418 -0.00313532 0.00000000
0.90798266 0.84116961 0.00088282 0.00000000
0.93637200 0.71666060 -0.00263722 0.00000000
1.05286567 0.67577854 -0.00110555 0.00000000
1.34133158 1.59549563 -0.00236884 0.00000000
2.31660901 1.00909546 0.00358738 0.00000000
0.94484719 0.79226079 -0.00287905 0.00000000
1.29498983 0.85663877 -0.00204917 0.00000000
1.83264237 0.43487998 -0.00017624 0.00000000
1.20985554 1.26906511 0.00124669 0.00000000
0.15068949 1.80777020 0.00023849 0.00000000
3.13448369 2.05900816 -0.00075913 0.00000000
3.48516549 1.15519784 -0.00283831 0.00000000
3.98403635 0.90949296 0.00126843 0.00000000
0.65808612 1.41275256 0.00147514 0.00000000
3.94201044 0.26045357 -0.00280561 0.00000000
1.95143838 0.17004312 0.00069670 0.00000000
2.70583773 0.20616336 0.00310747 0.00000000
2.17688714 0.64066352 0.00382009 0.00000000
2.70932912 1.63600317 -0.00295974 0.00000000
2.63174044 1.62368308 -0.00140259 0.00000000
3.68205225 0.49610440 0.00092956 0.00000000
3.81828807 1.35300241 -0.00494393 0.00000000
2.39018131 1.27232676 0.00562866 0.00000000
2.41250707 1.91995577 0.00377452 0.00000000
3.03965513 1.26915017 -0.00060849 0.00000000
0.71638508 0.60339783 -0.00105937 0.00000000
2.01783357 0.80970192 -0.00027587 0.00000000
2.58858968 0.13050655 -0.00091966 0.00000000
0.28303859 0.90984956 0.00086714 0.00000000
2.09239757 0.32087122 0.00395313 0.00000000
3.16064413 2.18073217 -0.00242746 0.00000000
0.63996340 0.93676147 0.00814499 0.00000000
0.12432118 2.04735667 -0.00123513 0.00000000
1.81455906 1.57774427 0.00356416 0.00000000
1.51298596 1.06944104 -0.00434935 0.00000000
1.36338886 2.16388511 0.00273564 0.00000000
1.87732457 1.29728694 -0.00305549 0.00000000
2.28736947 1.09590699 -0.00063230 0.00000000
1.41516362 2.07665300 0.00178043 0.00000000
3.45532307 0.81938633 -0.00267305 0.00000000
3.73488647 1.10535512 -0.00450085 0.00000000
1.02684390 0.92518270 -0.00174133 0.00000000
0.56917365 1.87221956 0.00683571 0.00000000
3.34751283 0.68217525 0.00306322 0.00000000
0.85516851 1.47278486 -0.00060270 0.00000000
0.44287658 1.93798904 0.00007918 0.00000000
1.69595123 1.38474667 0.00113248 0.00000000
3.07961333 1.72253148 0.00015351 0.00000000
2.04164797 1.51944713 0.00222581 0.00000000
2.39336010 0.78035596 -0.00259057 0.00000000
1.87418603 1.82698810 -0.00034500 0.00000000
1.82591147 0.99487407 -0.00315103 0.00000000
1.05156935 0.04214386 -0.00158655 0.00000000
0.05940717 2.06420957 -0.00219762 0.00000000
0.11703903 0.47931316 0.00451693 0.00000000
1.04753449 1.13700292 -0.00268857 0.00000000
3.56718186 0.43357465 0.00226435 0.00000000
0.06052120 0.50827814 0.00432714 0.00000000
2.99093764 0.66725187 -0.00373614 0.00000000
1.69061593 0.87345262 -0.00025433 0.00000000
4.07893523 2.10974853 -0.00325240 0.00000000
2.38938847 1.59789498 -0.00148034 0.00000000
0.18632428 1.35873084 -0.00080665 0.00000000
0.57169115 0.11540365 -0.00053640 0.00000000
0.19017394 1.38395005 -0.00244497 0.00000000
4.09406314 1.59686271 -0.00020854 0.00000000
1.78188057 1.69054682 -0.00148271 0.00000000
3.85340563 1.56411777 -0.00320438 0.00000000
1.61832484 1.76120520 0.00470648 0.00000000
0.22159440 1.94195518 -0.00287083 0.00000000
0.60186034 0.75713058 0.00080990 0.00000000
1.27326650 0.64391838 0.00483971 0.00000000
1.80898639 1.01234813 0.00244765 0.00000000
1.82745280 0.89990082 0.00024820 0.00000000
2.23808194 0.93963089 -0.00221189 0.00000000
3.57777443 2.12396741 0.00063594 0.00000000
1.59532265 1.22409714 0.00058648 0.00000000
0.64156260 0.33564446 -0.00030212 0.00000000
0.22894941 0.07207071 0.00002506 0.00000000
2.47821718 1.13369861 -0.00116894 0.00000000
0.86475161 1.08704633 0.00338034 0.00000000
2.05034793 1.74353242 0.00223033 0.00000000
3.97164957 2.08668005 0.00276631 0.00000000
3.07174103 0.14458432 0.00378514 0.00000000
2.85958529 1.62735610 0.00069952 0.00000000
1.88587009 1.84240528 0.00249937 0.00000000
3.10565630 2.02231633 0.00212994 0.00000000
1.01906720 0.83886373 -0.00644472 0.00000000
0.29504404 0.04470096 0.00172276 0.00000000
0.73904451 0.01832511 -0.00407081 0.00000000
3.81155866 0.93814952 -0.00127000 0.00000000
1.34373352 0.92731581 -0.00063591 0.00000000
3.63867685 2.08151267 -0.00179783 0.00000000
2.34499404 0.93548771 -0.00026768 0.00000000
0.54067515 1.00073975 0.00024933 0.00000000
2.88931966 1.67861952 -0.00329569 0.00000000
3.17128360 1.69471349 -0.00033123 0.00000000
0.11363449 -0.00002465 -0.00069562 1.00000000
2.60149187 -0.00088717 0.00160918 1.00000000
1.88454969 -0.00004309 -0.00466456 1.00000000
0.05858530 0.00219740 -0.00584199 1.00000000
0.05543897 0.00039246 -0.00030085 1.00000000
2.17707629 0.00203054 0.00215040 1.00000000
3.34015291 0.00055347 -0.00098297 1.00000000
1.89786628 -0.00100372 -0.00251531 1.00000000
2.38623549 -0.00184495 0.00449541 1.00000000
0.79040045 0.00014978 0.00156796 1.00000000
0.32373502 -0.00157587 0.00053241 1.00000000
0.64190245 -0.00096531 -0.00230141 1.00000000
3.20203760 -0.00066565 -0.00013474 1.00000000
1.28032088 0.00113525 -0.00330440 1.00000000
1.94138955 -0.00470657 -0.00021169 1.00000000
0.04396225 0.00104085 -0.00207883 1.00000000
0.86918548 0.00025223 -0.00339688 1.00000000
3.43737337 -0.00078877 0.00243381 1.00000000
2.18010909 0.00110351 -0.00014271 1.00000000
2.75024312 -0.00090129 -0.00422229 1.00000000
1.10748680 -0.00223235 -0.00286390 1.00000000
-0.00236579 0.00041200 0.00133177 1.00000000
1.05107105 0.00088111 0.00434621 1.00000000
0.17983894 0.00204205 -0.00166780 1.00000000
0.31278101 -0.00063000 0.00103937 1.00000000
2.00530186 -0.00335190 0.00212931 1.00000000
3.46524336 0.00094419 0.00238544 1.00000000
1.88608649 0.00469664 -0.00340854 1.00000000
4.12785172 0.00338682 0.00128373 1.00000000
0.42192028 0.00200299 0.00484469 1.00000000
0.19586258 -0.00033539 0.00289318 1.00000000
0.66308106 -0.00204847 0.00093037 1.00000000
0.95542179 -0.00264192 0.00122644 1.00000000
1.39480120 0.00134087 -0.00465768 1.00000000
2.35625394 0.00345289 0.00091683 1.00000000
2.62819959 -0.00276781 0.00231326 1.00000000
1.35447383 -0.00281000 -0.00038546 1.00000000
0.81224873 0.00048751 0.00057054 1.00000000
4.00323272 0.00038065 0.00172198 1.00000000
0.39914571 0.00102836 -0.00067564 1.00000000
1.06200286 0.00173730 -0.00235943 1.00000000
1.60053483 -0.00189252 0.00131262 1.00000000
1.22520359 0.00059155 -0.00106026 1.00000000
2.53805390 -0.00155288 0.00394312 1.00000000
3.57940964 0.00244343 -0.00120499 1.00000000
1.41931514 0.00313895 -0.00129466 1.00000000
3.52350814 -0.00291131 0.00419541 1.00000000
0.04090611 0.00247908 0.00014167 1.00000000
3.87656525 -0.00293615 -0.00122913 1.00000000
0.92926512 -0.00081525 0.00100402 1.00000000
1.61424053 0.00331325 0.00392344 1.00000000
2.96094080 -0.00041125 -0.00295622 1.00000000
2.95254304 -0.00239314 -0.00228482 1.00000000
2.34979070 -0.00172759 -0.00116586 1.00000000
2.27598475 -0.00229198 -0.00198789 1.00000000
2.05706726 -0.00005196 -0.00076320 1.00000000
2.43338599 0.00065859 -0.00451966 1.00000000
1.23596604 0.00262404 0.00173224 1.00000000
0.41570357 0.00060530 0.00123470 1.00000000
3.80214474 -0.00022178 0.00319442 1.00000000
1.50716687 -0.00127366 -0.00056329 1.00000000
2.73210394 0.00210590 0.00283656 1.00000000
1.79886458 -0.00046484 0.00400270 1.00000000
0.76406790 0.00305693 -0.00433046 1.00000000
1.05267068 0.00356667 0.00516602 1.00000000
0.77748057 0.00045326 -0.00344514 1.00000000
3.91236444 -0.00242529 0.00520740 1.00000000
0.50011225 0.00286009 -0.00083331 1.00000000
0.50502331 0.00064167 -0.00097275 1.00000000
1.17964164 0.00049453 -0.00172908 1.00000000
4.11326555 0.00029393 0.00104351 1.00000000
1.79020766 -0.00021249 -0.00210541 1.00000000
2.10425748 -0.00394769 -0.00079583 1.00000000
3.03421167 0.00019862 -0.00052666 1.00000000
0.27954790 -0.00098966 0.00090029 1.00000000
0.59550307 0.00100107 0.00385004 1.00000000
1.86586673 -0.00272160 -0.00393926 1.00000000
1.89652188 0.00178224 -0.00072323 1.00000000
3.70335151 0.00053249 0.00343833 1.00000000
0.54542943 -0.00040698 0.00668297 1.00000000
3.82995451 0.00280156 0.00489453 1.00000000
0.73289765 -0.00011055 0.00640143 1.00000000
2.09252875 0.00097408 -0.00031809 1.00000000
0.58806407 -0.00352172 0.00054790 1.00000000
2.61698796 -0.00334780 0.00078206 1.00000000
1.49029103 -0.00022550 0.00074211 1.00000000
2.27911219 0.00500776 0.00253766 1.00000000
1.48524085 -0.00169547 0.00426264 1.00000000
1.83287333 -0.00038186 0.00004781 1.00000000
3.53893123 0.00248323 0.00062675 1.00000000
2.08052118 -0.00004154 -0.00319900 1.00000000
0.97400328 -0.00374791 -0.00503623 1.00000000
3.66512472 0.00196905 0.00421571 1.00000000
1.98758545 0.00172192 -0.00173010 1.00000000
2.23583343 -0.00223548 0.00149657 1.00000000
1.04389173 -0.00151688 -0.00142171 1.00000000
2.39860523 -0.00140099 -0.00631359 1.00000000
0.74460852 0.00281470 0.00409831 1.00000000
1.65239976 -0.00095123 -0.00014216 1.00000000
3.80119523 0.00165169 0.00174310 1.00000000
2.69992343 -0.00267313 0.00202269 1.00000000
3.75740955 0.00176458 0.00472804 1.00000000
3.20334547 0.00317762 -0.00107073 1.00000000
2.91149161 0.00025546 0.00049362 1.00000000
2.77419122 -0.00117578 -0.00196463 1.00000000
3.18312722 0.00184821 0.00464992 1.00000000
1.19296119 -0.00267566 0.00048626 1.00000000
0.47020571 -0.00663702 -0.00235947 1.00000000
2.15252496 0.00042742 -0.00519708 1.00000000
4.16060427 0.00468215 -0.00139818 1.00000000
1.55298587 -0.00063023 -0.00265140 1.00000000
0.32447567 -0.00019772 -0.00504607 1.00000000
0.76128723 0.00351660 -0.00164990 1.00000000
3.96085906 -0.00063873 0.00306450 1.00000000
0.84783974 0.00220961 0.00374390 1.00000000
2.82765380 0.00276385 0.00151972 1.00000000
3.32135600 0.00454861 0.00142515 1.00000000
0.21363789 0.00484656 0.00066470 1.00000000
3.28422644 0.00567046 0.00304936 1.00000000
1.80747766 0.00086694 0.00187794 1.00000000
0.42735095 0.00083986 -0.00054099 1.00000000
0.66425733 -0.00184941 -0.00050495 1.00000000
3.75416342 0.00103816 0.00004402 1.00000000
0.26054708 0.00044775 -0.00039498 1.00000000
1.87967640 -0.00004019 0.00033709 1.00000000
0.38983628 -0.00012828 0.00101501 1.00000000
1.78769425 -0.00537306 0.00066253 1.00000000
1.36409738 -0.00237438 -0.00417734 1.00000000
2.21315420 0.00233342 -0.00178550 1.00000000
0.54652354 0.00270358 -0.00095744 1.00000000
3.72098324 -0.00166735 -0.00093775 1.00000000
0.14023515 0.00157035 0.00096808 1.00000000
0.86823588 -0.00263777 -0.00144612 1.00000000
0.76406722 0.00068907 -0.00047894 1.00000000
1.16570490 0.00320547 0.00216103 1.00000000
2.05150407 0.00061556 0.00484659 1.00000000
3.71145141 -0.00039370 0.00788518 1.00000000
2.76641993 -0.00038333 -0.00370723 1.00000000
2.96054534 -0.00098129 0.00246082 1.00000000
1.46757576 0.00198778 0.00368443 1.00000000
0.98899873 -0.00072989 0.00450255 1.00000000
1.49498200 0.00285345 0.00032544 1.00000000
3.88878625 0.00102297 -0.00136650 1.00000000
0.44330991 -0.00511046 0.00068996 1.00000000
1.68340488 -0.00276383 -0.00050687 1.00000000
3.08171771 -0.00138921 -0.00238206 1.00000000
2.77108905 -0.00072317 0.00317021 1.00000000
1.07890914 -0.00111573 0.00507724 1.00000000
3.99105634 -0.00024380 -0.00020048 1.00000000
0.72214071 -0.00018127 0.00283888 1.00000000
0.00366185 -0.00037420 -0.00261453 1.00000000
1.52325132 -0.00349191 -0.00106989 1.00000000
1.61397088 -0.00278881 -0.00233340 1.00000000
1.80267335 -0.00279816 -0.00021901 1.00000000
3.04541669 0.00188712 -0.00205001 1.00000000
4.15556785 -0.00220349 0.00264017 1.00000000
3.52531984 -0.00297118 0.00254548 1.00000000
1.58343875 0.00195064 -0.00146553 1.00000000
0.01704698 -0.00192081 -0.00097292 1.00000000
0.08668952 -0.00109870 0.00354501 1.00000000
1.76133955 0.00054929 -0.00007772 1.00000000
2.91373374 -0.00069462 -0.00141098 1.00000000
0.25010677 0.00150848 -0.00111261 1.00000000
1.60532343 0.00300435 0.00097445 1.00000000
1.92673966 0.00253517 0.00557520 1.00000000
1.13031812 0.00389536 -0.00036558 1.00000000
0.41887153 0.00296142 0.00538326 1.00000000
3.43300140 0.00012364 -0.00289274 1.00000000
3.89855179 -0.00016995 0.00014166 1.00000000
2.42839090 -0.00128439 0.00676311 1.00000000
3.81880253 -0.00085858 0.00164893 1.00000000
3.24734938 -0.00153369 0.00151442 1.00000000
2.63109221 -0.00040472 0.00338865 1.00000000
3.64330189 0.00213632 -0.00322576 1.00000000
1.38308166 -0.00211156 -0.00386830 1.00000000
1.68295818 -0.00329701 -0.00160109 1.00000000
1.39610798 -0.00034383 -0.00082811 1.00000000
2.40788376 -0.00226579 0.00284217 1.00000000
2.31499285 -0.00007293 0.00078837 1.00000000
1.65831899 0.00013646 -0.00088649 1.00000000
2.13223066 -0.00089892 -0.00331231 1.00000000
2.02010799 0.00226548 -0.00414792 1.00000000
1.47817138 0.00263671 -0.00062248 1.00000000
1.77934028 -0.00336436 0.00230060 1.00000000
2.29617800 -0.00021710 0.00314068 1.00000000
3.12493316 -0.00108426 0.00161224 1.00000000
0.88429410 -0.00381859 0.00215379 1.00000000
3.18425302 0.00100085 -0.00076259 1.00000000
2.07734186 -0.00347525 0.00038551 1.00000000
2.26669067 -0.00146202 0.00072381 1.00000000
1.42682361 -0.00307027 0.00030059 1.00000000
3.51526678 0.00069346 0.00133068 1.00000000
3.18189356 -0.00066089 -0.00091686 1.00000000
1.02067062 0.00307295 -0.00241044 1.00000000
2.72372120 -0.00182959 -0.00255488 1.00000000
1.59749955 0.00214581 -0.00059466 1.00000000
0.49569036 0.00000961 -0.00578112 1.00000000
3.78762172 0.00122761 -0.00007260 1.00000000
2.58932905 0.00173997 0.00259136 1.00000000
0.94372759 -0.00328834 0.00003823 1.00000000
2.22862013 -0.00188695 -0.00397348 1.00000000
0.40463533 -0.00020397 -0.00042333 1.00000000
0.68431749 -0.00077347 0.00215830 1.00000000
3.79307718 0.00072522 0.00510462 1.00000000
1.31350455 -0.00169814 0.00144423 1.00000000
1.34255768 -0.00061688 0.00198699 1.00000000
3.32914733 0.00115958 0.00160097 1.00000000
1.79987308 0.00255702 0.00233228 1.00000000
1.73292843 -0.00131850 0.00245733 1.00000000
3.33617712 -0.00116112 0.00246717 1.00000000
2.62305837 0.00350229 -0.00009492 1.00000000
1.51983392 -0.00330767 0.00235725 1.00000000
1.33613424 -0.00216329 0.00142557 1.00000000
2.39923452 0.00672772 -0.00152926 1.00000000
1.09020106 0.00123857 -0.00556673 1.00000000
3.60884927 -0.00132696 -0.00072257 1.00000000
3.35146626 -0.00018180 -0.00568061 1.00000000
0.60563994 -0.00130731 0.00246540 1.00000000
3.94801581 -0.00053937 -0.00215796 1.00000000
1.84218763 -0.00328927 -0.00247316 1.00000000
2.11176480 0.00712787 0.00255764 1.00000000
2.66645204 0.00050892 0.00143567 1.00000000
1.23963570 0.00218145 0.00083732 1.00000000
1.97539980 0.00081063 -0.00178725 1.00000000
0.02560298 0.00018434 0.00322583 1.00000000
1.53222652 -0.00135436 -0.03411463 0.00000000
1.94650125 -0.00354771 -0.03568059 0.00000000
3.36592875 0.00047711 -0.07028080 0.00000000
2.47669665 0.00065206 -0.05088773 0.00000000
3.18534917 -0.00046400 -0.00903292 0.00000000
2.19244024 0.00054420 -0.01184528 0.00000000
2.32695077 -0.00050477 -0.08250654 0.00000000
1.19430547 0.00071184 -0.02733730 0.00000000
1.86166027 0.00032192 -0.00025717 0.00000000
0.77962023 0.00044817 -0.04463192 0.00000000
3.77742245 -0.00188026 -0.04291069 0.00000000
0.93960389 0.00108803 -0.05300680 0.00000000
1.18091386 -0.00088053 -0.02587788 0.00000000
1.78122474 -0.00217061 -0.09466531 0.00000000
0.59893783 0.00098339 -0.05828266 0.00000000
1.80656933 -0.00350989 -0.09980779 0.00000000
2.75940700 -0.00247732 -0.10331632 0.00000000
3.95801747 0.00298706 -0.01754939 0.00000000
1.01014011 0.00245569 -0.02964632 0.00000000
2.12602354 0.00221962 -0.03284366 0.00000000
3.73812305 -0.00064080 -0.03069919 0.00000000
1.35532573 -0.00726336 -0.06741813 0.00000000
3.78236373 -0.00366844 -0.05371930 0.00000000
3.68290355 -0.00267547 -0.11070055 0.00000000
0.61470775 0.00048443 -0.01324315 0.00000000
2.86866623 0.00145736 -0.07279842 0.00000000
1.73006558 -0.00099231 -0.01686400 0.00000000
0.69312774 -0.00737012 -0.05798317 0.00000000
0.00420890 -0.00317128 -0.04757283 0.00000000
1.79033895 -0.00486115 -0.05820097 0.00000000
3.16923648 0.00360143 -0.09403458 0.00000000
3.07367779 -0.00296448 -0.06531167 0.00000000
1.42320172 -0.00175810 -0.11576487 0.00000000
0.32849473 -0.00057207 -0.04153181 0.00000000
3.91817914 -0.00215162 -0.04988958 0.00000000
1.35234413 0.00013667 -0.09437780 0.00000000
1.95044834 0.00277920 -0.10500071 0.00000000
1.71934049 0.00066043 -0.05387841 0.00000000
4.10118271 0.00245202 -0.04892277 0.00000000
0.69070779 -0.00027035 -0.05810988 0.00000000
3.28816572 -0.00188968 -0.09649864 0.00000000
2.22582931 -0.00307433 -0.08461031 0.00000000
0.23016951 0.00209296 -0.02839584 0.00000000
0.72593163 0.00052388 -0.03805790 0.00000000
3.40459525 -0.00179922 -0.03291164 0.00000000
0.44373578 -0.00080013 -0.10566072 0.00000000
0.17295753 -0.00256029 -0.00318965 0.00000000
1.08338526 0.00042727 -0.02859248 0.00000000
2.97189811 -0.00026750 -0.11458562 0.00000000
2.87766886 -0.00008151 -0.01795728 0.00000000
1.18970460 -0.00039108 -0.06256312 0.00000000
1.94294055 -0.00193924 -0.11012243 0.00000000
2.12831025 0.00025104 -0.05880463 0.00000000
0.20723912 -0.00142946 -0.08733066 0.00000000
0.93712266 0.00046558 -0.08412556 0.00000000
2.09364740 -0.00653511 -0.07245338 0.00000000
3.09988866 -0.00094797 -0.01751720 0.00000000
0.24493658 -0.00471659 -0.10270824 0.00000000
1.03996539 -0.00100907 -0.01236917 0.00000000
0.41903493 -0.00016829 -0.00120298 0.00000000
0.38668930 0.00013587 -0.11169954 0.00000000
4.13318151 0.00113270 -0.00979939 0.00000000
0.78311815 -0.00273761 -0.09373469 0.00000000
0.82984360 -0.00180728 -0.05860561 0.00000000
2.17021136 0.00262829 -0.04053786 0.00000000
2.76115443 0.00336839 -0.01242418 0.00000000
0.00490711 -0.00245759 -0.06759812 0.00000000
3.78162170 -0.00231696 -0.02292038 0.00000000
1.09925273 0.00042561 -0.01566868 0.00000000
0.39000763 -0.00074242 -0.06495769 0.00000000
4.13867898 -0.00352885 -0.11863356 0.00000000
2.33190783 -0.00301544 -0.08003471 0.00000000
1.94301727 -0.00526350 -0.05425560 0.00000000
3.34202281 -0.00211562 -0.04926788 0.00000000
3.23390967 -0.00037740 -0.07360779 0.00000000
3.10981832 -0.00011961 -0.07740443 0.00000000
0.81188112 0.00060264 -0.06192601 0.00000000
3.44745279 -0.00291474 -0.07492478 0.00000000
3.05272516 -0.00474435 -0.10458090 0.00000000
1.02070727 -0.00459231 -0.05210760 0.00000000
1.67153205 0.00300979 -0.03677886 0.00000000
1.81574593 0.00077230 -0.02766179 0.00000000
1.86800040 0.00172757 -0.03196726 0.00000000
2.67286851 -0.00139374 -0.11651934 0.00000000
0.89159974 -0.00489218 -0.05707679 0.00000000
1.51462987 -0.00224331 -0.10262391 0.00000000
3.01483079 -0.00320681 -0.01702684 0.00000000
0.07029961 -0.00346255 -0.11322610 0.00000000
0.02501762 0.00457061 -0.04095366 0.00000000
2.15303631 -0.00435524 -0.03902060 0.00000000
1.22398981 -0.00016839 -0.08801999 0.00000000
3.32712312 0.00060795 -0.02782772 0.00000000
4.11046066 -0.00291772 -0.00379072 0.00000000
0.83775023 0.00091489 -0.08318066 0.00000000
0.01132341 -0.00337604 -0.10332829 0.00000000
3.42006490 0.00077777 -0.07953837 0.00000000
1.64232228 -0.00105448 -0.10745558 0.00000000
2.42912399 -0.00274498 -0.11919598 0.00000000
3.22179701 -0.00185364 -0.06572649 0.00000000
2.38150566 -0.00110409 -0.04929697 0.00000000
2.15043160 -0.00547239 -0.08062673 0.00000000
1.36212078 -0.00247110 -0.02311350 0.00000000
2.25062808 -0.00180174 -0.05867512 0.00000000
2.27692343 -0.00458834 -0.07425294 0.00000000
0.28492377 -0.00123671 -0.07672704 0.00000000
0.82927200 -0.00098226 -0.06439056 0.00000000
3.90757991 -0.00106259 -0.00790336 0.00000000
0.86530973 -0.00304263 -0.03560744 0.00000000
1.81843447 0.00087432 -0.02713658 0.00000000
0.30524230 0.00133345 -0.02136586 0.00000000
2.94655969 -0.00195304 -0.08534139 0.00000000
1.48777467 -0.00105635 -0.08847712 0.00000000
3.39892345 -0.00227679 -0.01226917 0.00000000
3.58982035 -0.00294850 -0.10042541 0.00000000
2.20142747 -0.00109927 -0.10433509 0.00000000
2.16943978 -0.00080697 -0.09826150 0.00000000
1.97231236 0.00602202 -0.07616511 0.00000000
0.75427127 -0.00370410 -0.03024916 0.00000000
2.59796344 -0.00426545 -0.04672143 0.00000000
3.77176163 -0.00336191 -0.11991481 0.00000000
4.01535483 0.00056661 -0.04799384 0.00000000
1.19683371 0.00067904 -0.04819859 0.00000000
0.05855296 -0.00138633 -0.03829745 0.00000000
2.46761952 -0.00402166 -0.08615922 0.00000000
3.53773232 -0.00102253 -0.04956363 0.00000000
1.52744348 -0.00061807 -0.01171508 0.00000000
1.33401688 0.00034506 -0.05349180 0.00000000
0.19555135 -0.00230036 -0.01617929 0.00000000
4.11784661 0.00385195 -0.02845426 0.00000000
3.77255462 0.00240103 -0.03349933 0.00000000
3.60970358 -0.00325119 -0.09851472 0.00000000
1.59331466 0.00174484 -0.03275886 0.00000000
1.17512581 -0.00311598 -0.10930278 0.00000000
0.99705511 -0.00101817 -0.12056831 0.00000000
3.19663488 -0.00182853 -0.06802021 0.00000000
1.98333618 -0.00074324 -0.10787876 0.00000000
0.85547087 0.00041648 -0.02121974 0.00000000
1.55943944 -0.00072303 -0.07649084 0.00000000
2.15994274 -0.00058909 -0.00770535 0.00000000
0.69444984 -0.00217814 -0.04053190 0.00000000
2.27696006 -0.00263160 -0.04896441 0.00000000
3.66569603 -0.00152594 -0.11377104 0.00000000
3.20398344 -0.00315688 -0.08265723 0.00000000
0.10980028 -0.00497364 -0.03082805 0.00000000
0.72127563 -0.00116343 -0.05506001 0.00000000
1.33953275 0.00208143 -0.09660120 0.00000000
1.53860332 0.00220432 -0.07515346 0.00000000
2.05110899 0.00032058 -0.07330607 0.00000000
0.90701098 0.00488880 -0.01379261 0.00000000
1.15657590 -0.00142578 -0.06580967 0.00000000
2.33684088 -0.00005375 -0.08236721 0.00000000
1.15458792 -0.00093610 -0.02072519 0.00000000
2.06987116 0.00124707 -0.04984715 0.00000000
1.38117984 -0.00480701 -0.04720191 0.00000000
1.25746202 -0.00217536 -0.03345324 0.00000000
1.56781703 -0.00042012 -0.07730824 0.00000000
3.90972937 -0.00062615 -0.08651389 0.00000000
0.66024313 -0.00313959 -0.02638569 0.00000000
3.18671830 0.00090886 -0.07744082 0.00000000
2.93853098 -0.00034789 -0.09753175 0.00000000
0.47542614 0.00391463 -0.01600889 0.00000000
0.23169990 -0.00376425 -0.06324015 0.00000000
2.68485510 0.00047247 -0.01790947 0.00000000
2.94905097 -0.00015297 -0.00912321 0.00000000
1.69910366 -0.00277261 -0.07016093 0.00000000
0.11946647 -0.00983039 -0.09471816 0.00000000
0.06294791 -0.00168132 -0.05913454 0.00000000
1.11750398 0.00197746 -0.10524426 0.00000000
4.07193869 -0.00312863 -0.05249938 0.00000000
0.04660644 -0.00482200 -0.11055619 0.00000000
2.14735224 -0.00235900 -0.04702098 0.00000000
1.00701348 -0.00453145 -0.06875527 0.00000000
2.58847474 -0.00186073 -0.04099921 0.00000000
2.33962012 0.00484855 -0.06558329 0.00000000
0.11673585 -0.00011837 -0.06094935 0.00000000
0.85914868 0.00269364 -0.01782062 0.00000000
3.28211453 0.00052129 -0.10158330 0.00000000
3.78075453 -0.00262142 -0.02346289 0.00000000
4.12199186 -0.00347364 -0.09899722 0.00000000
3.70274131 0.00126215 -0.10929577 0.00000000
1.63815131 -0.00011226 -0.11435078 0.00000000
1.18225153 -0.00240344 -0.08453571 0.00000000
2.33406873 -0.00818737 -0.04595773 0.00000000
0.95852995 0.00143510 -0.03173429 0.00000000
1.15564384 0.00291404 -0.09238330 0.00000000
3.21196076 0.00171856 -0.00012236 0.00000000
1.19521772 -0.00071504 -0.04531304 0.00000000
2.27717453 -0.00506993 -0.10465947 0.00000000
3.45630465 0.00292958 -0.06907504 0.00000000
3.11767677 -0.00289533 -0.10558019 0.00000000
3.64343116 0.00143818 -0.04065206 0.00000000
0.16273696 -0.00274063 -0.03946434 0.00000000
3.27764366 0.00105889 -0.01997696 0.00000000
0.34986504 -0.00479859 -0.05127897 0.00000000
1.19369636 -0.00199863 -0.00408924 0.00000000
0.58859417 -0.00432609 -0.04580863 0.00000000
2.56882750 0.00141210 -0.02988912 0.00000000
2.39545893 -0.00088338 -0.00984269 0.00000000
3.29776038 -0.00292995 -0.10532238 0.00000000
0.96277345 -0.00072364 -0.10552288 0.00000000
2.20041810 -0.00162717 -0.05383127 0.00000000
0.49014627 0.00157657 -0.08540445 0.00000000
0.75302097 -0.00019403 -0.04874475 0.00000000
4.00851707 0.00049799 -0.04564735 0.00000000
1.90620604 0.00144206 -0.04815176 0.00000000
0.73624768 -0.00621763 -0.09419451 0.00000000
2.31798660 -0.00348528 -0.05782169 0.00000000
2.73859982 0.00223928 -0.00564063 0.00000000
2.77662110 -0.00216901 -0.01725534 0.00000000
3.03583934 -0.00341350 -0.03429357 0.00000000
2.99171023 -0.00313092 -0.10082375 0.00000000
1.59109172 0.00385243 -0.06586434 0.00000000
0.73449403 0.00185423 -0.01266273 0.00000000
0.49527827 0.00013553 -0.05833897 0.00000000
1.38163381 -0.00075662 -0.09093438 0.00000000
4.15258965 -0.00094740 -0.12179586 0.00000000
0.29473023 0.00225898 -0.08082821 0.00000000
1.21084522 -0.00069789 -0.03057617 0.00000000
2.17628556 -0.00206732 -0.04749767 0.00000000
0.55188419 0.00097646 -0.07567159 0.00000000
3.24508430 0.00511765 -0.02498297 0.00000000
1.02308720 -0.00236789 -0.10985701 0.00000000
1.84408173 0.00119616 -0.05411730 0.00000000
0.20424583 -0.00255089 -0.00102336 0.00000000
0.32457511 -0.00344116 -0.01291996 0.00000000
3.77137116 -0.00098249 -0.12018296 0.00000000
1.74284884 -0.00290531 -0.08056142 0.00000000
2.53725152 -0.00073118 -0.02642835 0.00000000
1.17458365 -0.00033280 -0.11856924 0.00000000
4.04142011 -0.00218994 -0.04926632 0.00000000
0.85749797 -0.00509836 -0.02709444 0.00000000
2.52521500 -0.00390240 -0.05150735 0.00000000
0.15735474 0.00235939 -0.00855510 0.00000000
2.80968202 0.00130095 -0.08623179 0.00000000
2.58479251 -0.00344643 -0.08808844 0.00000000
2.64709471 0.00059316 -0.09814075 0.00000000
1.94827711 0.00342431 -0.04868487 0.00000000
0.48475790 -0.00405427 -0.09369642 0.00000000
3.78619447 0.00050618 -0.02690657 0.00000000
1.74920641 -0.00049080 -0.09335870 0.00000000
1.25339367 -0.00037089 -0.04144308 0.00000000
1.48931494 -0.00003110 -0.01106381 0.00000000
0.21981375 -0.00206489 -0.09826792 0.00000000
2.32561401 -0.00207041 -0.08699560 0.00000000
2.55902658 0.00101246 -0.02401821 0.00000000
2.98316527 -0.00067911 -0.03820043 0.00000000
2.24562110 -0.00133791 -0.07512453 0.00000000
2.93366471 0.00117710 -0.06303292 0.00000000
3.45885608 -0.00039349 -0.00793420 0.00000000
2.00408809 -0.00052605 -0.10867742 0.00000000
3.99696992 -0.00321287 -0.10077385 0.00000000
1.26002739 -0.00100050 -0.06030029 0.00000000
2.34997334 0.00189014 -0.01917196 0.00000000
1.00711063 0.00155669 -0.07679050 0.00000000
3.52480168 -0.00366885 -0.04107116 0.00000000
2.69461420 -0.00486132 -0.11599967 0.00000000
2.18516260 0.00136244 -0.03879199 0.00000000
0.66834102 -0.00047119 -0.00272269 0.00000000
2.37073907 -0.00214666 -0.02363665 0.00000000
2.26479071 0.00021095 -0.01574383 0.00000000
1.25276621 -0.00063026 -0.00782911 0.00000000
1.06104522 -0.00035016 -0.08858921 0.00000000
2.06013199 -0.00216013 -0.02264179 0.00000000
4.12658616 -0.00628734 -0.07048778 0.00000000
0.86883839 -0.00373384 -0.06389377 0.00000000
0.98542965 0.00106051 -0.01888333 0.00000000
0.76406032 -0.00686940 -0.08768961 0.00000000
0.95850585 0.00555829 -0.10484528 0.00000000
1.38806004 -0.00014815 -0.03755092 0.00000000
3.09540387 -0.00183948 -0.09483929 0.00000000
2.85091382 -0.00321961 -0.05233921 0.00000000
1.71487636 -0.00455080 -0.02503301 0.00000000
3.40380126 0.00000716 -0.00542316 0.00000000
0.49128579 0.00050789 -0.00154247 0.00000000
0.76227483 -0.00291257 -0.09633650 0.00000000
0.93164699 -0.00233102 -0.03511765 0.00000000
3.97621849 -0.00217518 -0.00584512 0.00000000
1.51187602 -0.00398987 -0.06891367 0.00000000
2.01489204 -0.00193726 -0.10753776 0.00000000
2.80047281 0.00005630 -0.01649362 0.00000000
3.71854273 -0.00017048 -0.08818185 0.00000000
2.80723011 0.00405018 -0.04719456 0.00000000
2.29913913 0.00305455 -0.00219070 0.00000000
1.59750119 0.00093118 -0.10079712 0.00000000
3.16836534 -0.00072260 -0.01635020 0.00000000
0.39335877 0.00047461 -0.05279346 0.00000000
2.24445174 0.00209443 -0.01289126 0.00000000
3.25842946 0.00112563 -0.01154457 0.00000000
0.56406015 0.00030641 -0.03981829 0.00000000
3.94956053 0.00318414 -0.00050414 0.00000000
2.08431463 -0.00153816 -0.09720502 0.00000000
1.37570020 -0.00953825 -0.09926429 0.00000000
2.70836238 -0.00369598 -0.10209237 0.00000000
4.06612457 0.00025422 -0.04538298 0.00000000
0.19901699 -0.00560972 -0.09786867 0.00000000
3.55458128 0.00084306 -0.11339216 0.00000000
3.44943344 -0.00100070 -0.01422153 0.00000000
1.68966781 0.00018888 -0.05748446 0.00000000
1.84430925 -0.00432041 -0.05544509 0.00000000
2.72196694 -0.00330076 -0.00512981 0.00000000
0.60272651 0.00112693 -0.01355991 0.00000000
2.79317280 -0.00875116 -0.09306748 0.00000000
0.78068579 0.00055584 -0.01884718 0.00000000
0.60090017 0.00117840 -0.08588239 0.00000000
3.38958242 0.00177324 -0.10689372 0.00000000
3.32952065 0.00325102 -0.08753307 0.00000000
3.16563674 0.00255677 -0.00878057 0.00000000
2.75057168 -0.00081645 -0.05556967 0.00000000
1.89026451 0.00052399 -0.01298996 0.00000000
1.87662324 0.00026684 -0.00222472 0.00000000
3.71759003 0.00540094 -0.06815361 0.00000000
0.43421624 -0.00231717 -0.01666723 0.00000000
0.69112776 -0.00026784 -0.06840287 0.00000000
4.09030759 -0.00233374 -0.08024942 0.00000000
0.83850404 0.00279306 -0.02912931 0.00000000
0.23986995 -0.00342812 -0.10418347 0.00000000
1.52014784 -0.00109421 -0.05920312 0.00000000
0.77512964 -0.00521723 -0.05834723 0.00000000
2.76811178 -0.00030442 -0.04675859 0.00000000
2.98882029 -0.00027289 -0.06698091 0.00000000
3.77050269 -0.00266051 -0.06974524 0.00000000
2.31235602 0.00059134 -0.03587562 0.00000000
2.66716084 0.00435081 -0.00495247 0.00000000
4.16068854 -0.00388805 -0.02695349 0.00000000
3.50203395 -0.00639307 -0.10906907 0.00000000
2.10562179 -0.00091414 -0.11721402 0.00000000
