1.410493 1.273469 0.000861 0.0
1.454531 1.930511 0.000573 0.0
1.778907 1.484115 -0.000024 0.0
3.096661 1.232774 0.001543 0.0
0.845420 0.922944 0.004044 0.0
3.581409 0.562114 0.001956 0.0
2.859939 1.700005 -0.000209 0.0
0.815450 1.717868 0.001939 0.0
0.934389 0.773783 0.001800 0.0
3.812147 1.057635 -0.002403 0.0
0.815040 0.348440 0.002941 0.0
1.384652 1.687117 -0.002987 0.0
3.516010 2.198695 0.005275 0.0
1.723635 1.610077 -0.003883 0.0
2.263180 1.816883 0.000485 0.0
2.076518 2.202180 0.001383 0.0
2.056715 1.876608 -0.000472 0.0
1.606452 0.398912 0.001482 0.0
4.853256 1.257376 -0.002335 0.0
4.034200 2.045797 0.000770 0.0
1.212829 0.164537 -0.002551 0.0
1.470477 1.500354 0.000869 0.0
0.066514 0.260394 0.003075 0.0
2.072013 1.228946 -0.000047 0.0
0.514738 0.305979 0.001340 0.0
2.282134 1.831794 -0.001227 0.0
0.250367 1.042060 0.000893 0.0
1.697175 0.624919 0.000298 0.0
0.038459 1.614163 0.001753 0.0
4.560876 1.360076 0.002871 0.0
3.700095 0.771706 0.001599 0.0
1.367960 1.868719 -0.002323 0.0
3.407704 1.516265 -0.002064 0.0
2.861573 0.873514 0.000921 0.0
1.461802 0.400077 0.002722 0.0
2.156517 1.489681 0.005167 0.0
2.790807 1.830447 0.000725 0.0
2.086733 1.725021 -0.002372 0.0
0.407916 0.880750 -0.003019 0.0
0.899039 0.920818 -0.001989 0.0
3.443748 1.724958 -0.000200 0.0
1.769185 1.373546 -0.001804 0.0
0.946292 0.160497 -0.004665 0.0
4.561776 1.367577 0.002381 0.0
4.152263 2.129024 0.000788 0.0
1.491844 2.164136 -0.000792 0.0
3.342147 0.837904 0.000975 0.0
2.176864 0.319687 0.001106 0.0
2.822574 0.866657 -0.000531 0.0
0.685252 1.275167 -0.002427 0.0
2.546210 1.401497 -0.000105 0.0
1.635896 1.667025 -0.000709 0.0
0.143934 1.276423 -0.000765 0.0
4.832738 1.450024 -0.004479 0.0
0.631864 1.512729 0.001134 0.0
1.976087 0.604801 0.002480 0.0
1.702088 1.481668 -0.004170 0.0
3.151929 1.613634 -0.004153 0.0
3.316740 1.544791 0.000499 0.0
4.010834 1.815079 0.001130 0.0
2.004536 1.996422 0.001449 0.0
4.375400 1.701921 -0.000143 0.0
3.714257 0.179299 0.000112 0.0
0.162377 1.442444 0.007505 0.0
3.194872 1.911082 0.003523 0.0
4.051330 0.887315 -0.003435 0.0
2.229294 0.962891 0.002951 0.0
1.001768 1.736517 0.007736 0.0
3.363072 1.661011 0.001208 0.0
4.339319 1.193898 0.002364 0.0
2.297460 0.968386 0.000065 0.0
0.242301 1.192671 0.001297 0.0
3.841559 0.754174 0.006094 0.0
2.796197 1.415654 -0.004639 0.0
1.880475 0.996378 -0.002129 0.0
2.128001 0.150641 -0.001501 0.0
1.021583 1.415044 0.000541 0.0
4.049111 1.498873 -0.007603 0.0
3.051278 2.160338 0.000986 0.0
1.049408 2.042327 0.000572 0.0
2.088303 1.810010 0.002483 0.0
2.250085 0.735571 -0.000868 0.0
0.243061 0.473069 0.002961 0.0
4.552063 1.388776 -0.000510 0.0
3.599922 0.704674 -0.000385 0.0
4.166643 1.998467 0.001749 0.0
2.788204 0.269197 -0.001160 0.0
3.300356 0.246110 0.000613 0.0
1.500693 1.012113 -0.002650 0.0
1.889227 0.102284 -0.000714 0.0
0.741457 0.283274 0.002420 0.0
1.176655 1.380261 -0.000519 0.0
4.061253 1.729283 -0.000178 0.0
3.527667 0.635599 -0.001994 0.0
3.323483 1.841089 -0.003418 0.0
0.741187 1.068497 -0.001997 0.0
2.334402 1.287186 -0.000528 0.0
2.385374 1.178895 0.001242 0.0
1.179970 2.098798 0.003615 0.0
0.436336 1.608119 0.000111 0.0
3.569433 2.115319 -0.000026 0.0
0.698052 0.036074 0.001956 0.0
3.632948 0.094641 0.000045 0.0
0.523461 0.840634 0.000419 0.0
3.258061 1.387712 -0.001548 0.0
2.873690 0.644325 -0.004380 0.0
4.893196 1.009266 -0.001554 0.0
4.492598 1.310681 0.001639 0.0
4.020020 2.021857 0.000664 0.0
3.686869 0.605897 -0.002327 0.0
1.607706 1.110513 0.000556 0.0
0.033476 0.335639 -0.000226 0.0
0.641287 1.312685 0.002926 0.0
1.832867 1.015392 -0.002298 0.0
2.273841 1.509233 -0.003957 0.0
2.548070 0.558176 0.000118 0.0
2.684150 1.848003 0.000041 0.0
3.435332 1.196813 0.002661 0.0
4.457104 0.304932 -0.000580 0.0
3.069798 2.183453 0.003418 0.0
0.655856 1.421154 0.000665 0.0
1.486695 0.361595 -0.003020 0.0
2.814156 0.585163 -0.000897 0.0
3.366317 1.099242 0.002464 0.0
3.484847 1.263777 0.002518 0.0
4.073244 0.898406 0.000486 0.0
0.539322 0.265016 0.003936 0.0
0.772488 1.305411 0.001813 0.0
4.776005 0.440219 -0.000292 0.0
1.306335 0.930882 -0.002465 0.0
3.442886 0.256543 0.000077 0.0
0.005009 0.077117 0.001226 0.0
4.897607 2.154938 -0.002347 0.0
4.421755 0.326465 -0.001323 0.0
3.921607 0.867900 -0.003060 0.0
0.337822 0.386713 0.003592 0.0
0.666546 0.658968 0.005015 0.0
4.590087 1.619348 0.002866 0.0
1.577602 1.673275 0.001086 0.0
1.346787 0.697689 0.000116 0.0
4.027597 1.204002 0.000952 0.0
4.376595 1.356345 0.001623 0.0
2.489292 1.219704 -0.000657 0.0
2.002542 0.552542 -0.003230 0.0
2.203873 1.613075 -0.000362 0.0
0.452969 1.507855 -0.002061 0.0
4.014108 1.801097 0.000225 0.0
0.316243 1.193878 0.003656 0.0
1.094499 1.549285 0.001777 0.0
0.014836 0.928099 -0.002083 0.0
3.594872 2.197611 -0.005014 0.0
2.239025 1.179537 0.001858 0.0
2.699925 0.258104 0.001546 0.0
4.453198 0.263574 -0.003161 0.0
0.085988 1.645608 -0.000913 0.0
2.549482 0.338440 0.002523 0.0
0.042783 0.887257 -0.000343 0.0
3.237991 1.472950 -0.000417 0.0
2.697835 0.705583 -0.001368 0.0
0.449234 0.359341 0.002879 0.0
2.530892 0.053850 0.003332 0.0
0.821871 0.486829 -0.002202 0.0
1.701700 1.570597 -0.001443 0.0
3.064667 0.392012 -0.005665 0.0
3.659635 0.950411 0.000661 0.0
1.038898 0.013496 0.002122 0.0
1.467524 1.249500 -0.004232 0.0
2.103843 0.508264 -0.001839 0.0
0.643576 2.016643 0.004574 0.0
4.128299 0.021646 0.002325 0.0
1.457191 0.868254 0.000306 0.0
4.398713 1.783118 0.003633 0.0
3.516785 1.228903 0.003237 0.0
0.991068 1.939160 0.003504 0.0
3.726748 0.332109 0.002861 0.0
0.679715 2.058127 0.003609 0.0
0.942064 2.103163 -0.002461 0.0
0.382937 1.864603 -0.002898 0.0
0.686474 1.054362 0.000605 0.0
3.991622 0.265347 -0.003229 0.0
3.889779 0.922436 -0.001456 0.0
0.476979 1.588522 -0.002111 0.0
0.498691 1.415104 0.001277 0.0
1.735660 2.187380 0.001211 0.0
3.028289 2.185175 -0.000759 0.0
3.428441 1.424996 0.001378 0.0
0.809143 1.025154 0.000704 0.0
4.413217 1.901278 0.001579 0.0
1.304566 0.917154 -0.003259 0.0
2.743111 0.666009 -0.004918 0.0
0.376897 1.804444 0.000135 0.0
3.506343 0.420267 0.000996 0.0
1.807715 1.601230 0.001477 0.0
1.013884 0.104406 -0.002665 0.0
2.209764 1.098224 -0.001067 0.0
1.683297 1.285202 0.001432 0.0
0.027076 1.802828 0.001072 0.0
4.059998 2.163618 0.000035 0.0
4.822736 0.023859 0.001438 0.0
2.057765 1.292080 0.003601 0.0
4.593769 0.696915 0.000693 0.0
4.622733 1.266980 0.004380 0.0
4.262251 2.125476 0.000533 0.0
4.869972 1.089391 -0.000533 0.0
0.481180 1.161754 0.002832 0.0
2.783065 1.076911 -0.000195 0.0
3.417905 0.321364 -0.001287 0.0
3.800106 0.827556 -0.000547 0.0
2.014921 0.122160 0.002212 0.0
0.747067 0.806249 0.001913 0.0
1.739155 1.625407 0.000895 0.0
3.347353 1.337179 -0.002016 0.0
4.517322 1.439774 0.000068 0.0
0.059767 1.623323 0.004529 0.0
3.851366 1.258925 -0.003389 0.0
2.445577 1.372358 -0.001313 0.0
4.267583 0.696078 0.002774 0.0
1.460847 0.672609 -0.001636 0.0
3.339342 0.845855 0.002963 0.0
1.305263 1.293359 -0.002064 0.0
2.651784 0.241452 -0.002726 0.0
3.184118 0.473727 -0.000365 0.0
4.656085 1.909008 -0.003362 0.0
4.355925 0.409999 0.000270 0.0
0.280218 1.968134 0.000597 0.0
2.798544 1.342162 -0.002338 0.0
2.944265 1.067573 -0.000424 0.0
2.169172 0.789858 -0.006521 0.0
1.308988 0.278499 0.001150 0.0
2.589188 0.401123 0.000884 0.0
4.765433 0.667138 0.002077 0.0
2.896023 1.184721 0.000580 0.0
4.670476 0.975767 0.001094 0.0
0.699361 1.905645 -0.003316 0.0
3.612653 0.148107 -0.000895 0.0
2.036491 2.198613 0.000895 0.0
0.087916 0.072924 0.002152 0.0
3.841891 2.077441 0.001950 0.0
2.542058 1.620031 0.000082 0.0
2.389652 0.658586 -0.001233 0.0
1.093831 1.417754 0.000848 0.0
3.121897 0.146798 0.000478 0.0
1.592020 0.842562 0.000757 0.0
0.859171 2.115078 -0.001090 0.0
4.389189 1.166828 -0.000766 0.0
3.964464 2.202226 0.001549 0.0
1.250518 1.450817 -0.000071 0.0
2.942116 1.520706 -0.000059 0.0
3.579995 2.133132 0.001667 0.0
0.590828 0.965606 0.000202 0.0
3.299035 1.238907 0.001976 0.0
4.433522 1.959633 -0.004811 0.0
1.443625 0.058328 0.000149 0.0
1.206161 0.449222 0.001102 0.0
3.813390 1.402171 0.001588 0.0
1.133526 1.387425 0.002207 0.0
2.382513 0.048287 0.001697 0.0
0.339586 0.243598 -0.002992 0.0
3.497651 0.679468 0.001757 0.0
3.813610 0.673096 -0.002160 0.0
0.929096 0.840371 -0.002046 0.0
2.395983 1.604862 0.000547 0.0
1.814864 1.939178 -0.002672 0.0
4.660124 1.964516 0.004415 0.0
1.363546 2.191246 -0.001590 0.0
1.143023 1.144255 -0.001414 0.0
2.514513 0.390761 -0.000828 0.0
2.556262 1.291394 -0.003132 0.0
3.022839 1.949345 0.002928 0.0
2.543544 1.638467 0.000056 0.0
1.682659 1.613017 0.001562 0.0
0.923670 0.179152 -0.000528 0.0
3.070339 0.939473 0.002148 0.0
3.083062 1.166222 -0.001352 0.0
2.546921 0.931870 -0.000128 0.0
2.636989 1.672746 0.002288 0.0
4.903095 0.183429 -0.001446 0.0
1.678214 1.954361 -0.000471 0.0
4.013412 1.065837 -0.002802 0.0
3.500813 1.105782 -0.000454 0.0
3.635003 0.457162 0.004031 0.0
3.085775 1.707299 -0.002931 0.0
2.333413 0.797764 0.001989 0.0
4.660744 1.256320 0.005376 0.0
3.185538 1.095726 -0.001697 0.0
1.812523 2.118882 -0.003424 0.0
0.243395 0.982609 0.002667 0.0
0.884818 0.873539 -0.000794 0.0
3.108230 0.302620 -0.000633 0.0
3.710253 1.186612 0.004721 0.0
2.622967 0.502655 -0.001264 0.0
1.240821 0.580368 0.000475 0.0
0.977827 2.194090 0.003575 0.0
1.532084 1.637620 0.000859 0.0
2.328463 0.938524 -0.000283 0.0
0.330107 1.599677 -0.003246 0.0
3.629691 1.712335 -0.001046 0.0
4.487961 1.836374 -0.000914 0.0
4.745584 1.177352 0.000553 0.0
3.565554 0.562878 -0.005912 0.0
0.628204 1.197796 -0.000008 0.0
4.806433 1.714132 0.001948 0.0
2.074933 1.114177 0.003881 0.0
2.622242 1.600179 -0.002358 0.0
4.918854 0.400701 0.001483 0.0
3.789100 0.103154 0.000066 0.0
1.227199 2.110222 -0.001276 0.0
3.567864 2.144324 0.003183 0.0
1.334486 0.295023 0.001627 0.0
2.667101 1.787669 0.002021 0.0
4.013179 0.727353 -0.005151 0.0
1.125689 0.638504 -0.000589 0.0
1.363262 2.037846 -0.004060 0.0
4.755958 1.142200 0.000940 0.0
1.220350 0.928556 0.002460 0.0
4.567024 1.293811 0.001414 0.0
3.655171 0.990664 -0.000617 0.0
4.601276 1.362525 -0.002809 0.0
3.489105 1.767552 -0.001094 0.0
3.546710 1.119092 -0.004271 0.0
0.277367 1.664651 0.002745 0.0
4.834974 1.008575 -0.005707 0.0
0.110974 1.579627 0.002608 0.0
1.543436 1.102590 -0.000146 0.0
1.473579 1.527466 0.002494 0.0
0.401045 1.751074 0.001423 0.0
2.159292 1.508657 -0.002786 0.0
1.262931 0.968776 -0.001892 0.0
2.706700 0.912264 0.001410 0.0
0.614486 0.198062 -0.000209 0.0
2.497134 1.808923 -0.002677 0.0
4.550896 1.889336 -0.002200 0.0
0.209578 0.514780 -0.001709 0.0
3.107336 0.245159 0.000882 0.0
4.269428 0.896487 0.002488 0.0
3.173293 0.147497 -0.001102 0.0
2.570436 0.525569 0.005090 0.0
1.077494 1.575393 -0.002033 0.0
0.488156 2.152655 -0.000963 0.0
2.652212 1.504111 0.003274 0.0
1.943704 0.426143 0.000347 0.0
4.897691 1.241574 -0.003173 0.0
1.721763 1.942019 -0.000214 0.0
1.582154 1.908010 -0.002444 0.0
3.074956 0.678273 -0.000620 0.0
0.692094 0.655472 -0.000179 0.0
3.231495 1.752194 -0.005485 0.0
0.725356 1.940252 0.002916 0.0
3.411013 1.157375 -0.002774 0.0
1.958726 0.786215 0.005085 0.0
1.639826 1.165043 0.001912 0.0
0.534668 0.995789 -0.000537 0.0
4.471876 2.110740 0.000583 0.0
3.559219 2.026097 -0.000296 0.0
2.049223 0.871091 -0.003548 0.0
2.669924 0.967753 0.003194 0.0
4.504208 0.470806 -0.000139 0.0
2.977797 0.574454 -0.003377 0.0
1.109491 1.494697 -0.000557 0.0
3.244577 1.142816 0.003057 0.0
4.273037 1.169955 -0.003756 0.0
1.266028 1.443743 -0.002520 0.0
3.421025 2.139456 0.001155 0.0
2.527157 1.685575 -0.001658 0.0
0.078767 1.672590 0.000452 0.0
3.111173 1.175807 0.001635 0.0
4.075416 1.175825 0.000696 0.0
2.227749 1.452893 0.003387 0.0
2.585986 1.447317 -0.004071 0.0
1.402099 1.028298 -0.000529 0.0
2.843826 0.079771 0.005475 0.0
2.964200 1.202912 -0.000088 0.0
3.838212 0.633092 0.002786 0.0
4.884193 1.543717 0.002781 0.0
4.445121 0.009797 0.004669 0.0
4.191877 1.223588 -0.001662 0.0
3.481020 1.721882 -0.000479 0.0
3.062234 1.141742 0.002499 0.0
3.516384 1.439476 -0.003335 0.0
0.939901 2.168163 -0.001394 0.0
2.383057 0.406239 -0.004394 0.0
3.146020 1.886094 -0.001165 0.0
4.804870 1.122412 0.001124 0.0
4.312970 0.937245 -0.000768 0.0
1.032328 0.179316 -0.002014 0.0
3.629579 1.022786 -0.003872 0.0
0.607387 1.293427 -0.004153 0.0
4.728141 1.917828 0.003993 0.0
0.600680 0.036182 0.001192 0.0
1.775495 2.101947 -0.001411 0.0
1.817185 0.504199 0.002770 0.0
0.440963 1.576678 0.002212 0.0
4.428737 2.193854 0.000866 0.0
2.695649 1.062794 0.002028 0.0
2.529693 0.377169 -0.000270 0.0
2.297304 0.892497 -0.000021 0.0
1.523946 1.501359 -0.001147 0.0
4.234360 0.648294 -0.001285 0.0
1.255438 0.498029 -0.000988 0.0
4.480306 2.181048 -0.000059 0.0
0.632332 2.191711 -0.000013 0.0
0.048391 2.181472 0.002089 0.0
2.733602 2.011507 0.003445 0.0
2.846390 0.659367 -0.000754 0.0
3.109993 1.121528 0.001033 0.0
3.177179 0.381239 0.000310 0.0
3.105663 1.475791 -0.000163 0.0
2.622609 1.891593 -0.003816 0.0
4.897437 1.031202 -0.004598 0.0
1.353712 1.117980 0.000984 0.0
0.190424 1.981615 0.000673 0.0
0.732379 1.616278 -0.003992 0.0
0.519906 1.205765 -0.001948 0.0
1.655701 1.690123 0.005448 0.0
0.715332 1.831110 0.002560 0.0
3.387354 1.762831 0.000548 0.0
1.395407 0.285402 -0.003400 0.0
1.612098 0.222426 0.001667 0.0
3.425912 2.126665 -0.000813 0.0
3.525753 0.610070 -0.000579 0.0
0.730834 1.545849 -0.001348 0.0
4.697869 0.161367 0.000411 0.0
1.863445 2.001517 0.005295 0.0
3.946190 1.656010 -0.003020 0.0
1.508269 2.190500 -0.000065 0.0
3.122763 2.045101 0.001382 0.0
1.261681 1.534535 -0.000756 0.0
0.424267 1.309929 0.001270 0.0
4.123058 0.295041 -0.001132 0.0
1.518136 0.464035 -0.000734 0.0
3.666493 0.554526 0.001572 0.0
1.957313 0.681772 -0.004113 0.0
3.313138 1.226855 -0.003449 0.0
1.418507 0.580242 0.001878 0.0
4.305998 1.523584 -0.000840 0.0
4.092884 1.547549 -0.000118 0.0
4.924891 1.959290 0.002832 0.0
0.624471 2.003479 0.000422 0.0
0.967929 1.236194 -0.003105 0.0
1.751630 0.393175 0.001698 0.0
4.015780 1.164594 -0.000337 0.0
1.393431 1.771089 0.002966 0.0
1.653540 1.142043 -0.001775 0.0
1.973070 1.590688 0.003669 0.0
2.369506 2.166491 -0.000857 0.0
2.539548 1.566397 0.000162 0.0
4.566542 1.755448 -0.001173 0.0
4.135422 1.717581 -0.003151 0.0
3.704354 0.962510 0.002187 0.0
4.308871 1.693862 -0.001335 0.0
0.544187 0.798979 -0.000282 0.0
0.739976 1.217832 0.000381 0.0
3.693333 1.850728 -0.002715 0.0
4.077523 0.028560 -0.004884 0.0
2.818392 0.138243 -0.004223 0.0
3.306757 0.718291 -0.006324 0.0
3.739990 1.280634 -0.002131 0.0
0.500413 2.116414 0.000663 0.0
2.900625 0.986260 -0.003642 0.0
1.034609 1.114497 0.003101 0.0
1.758741 0.428243 0.004431 0.0
4.879840 1.838719 0.000584 0.0
0.014902 2.002583 -0.004087 0.0
2.497827 2.158827 0.001743 0.0
1.150487 2.179865 0.004604 0.0
2.135725 1.192843 0.000049 0.0
2.804214 0.006750 -0.000692 0.0
4.445186 1.512669 -0.002425 0.0
4.134192 0.257002 0.000434 0.0
2.588882 1.594879 -0.003968 0.0
3.312423 0.836581 0.001839 0.0
3.480542 0.593722 0.003906 0.0
3.420976 1.937859 -0.001328 0.0
1.461433 1.642478 -0.003076 0.0
0.914617 0.292102 -0.002636 0.0
2.865037 2.075374 -0.002297 0.0
0.565003 1.424540 -0.004429 0.0
1.694569 0.590681 0.000659 0.0
0.826600 1.305433 -0.001944 0.0
2.968088 0.987491 -0.000041 0.0
4.034263 1.427392 -0.003797 0.0
2.846265 0.572512 0.007052 0.0
4.676575 2.067432 0.005748 0.0
3.245734 1.670312 0.000220 0.0
1.816342 0.209136 0.002273 0.0
0.540406 1.029999 -0.001665 0.0
1.393925 0.125441 0.000380 0.0
1.471714 0.299460 -0.004317 0.0
0.786853 1.476375 0.002307 0.0
1.407116 1.821196 -0.001782 0.0
4.345333 1.074206 -0.001348 0.0
0.465382 1.455373 -0.003698 0.0
4.884281 1.732229 0.001325 0.0
0.958855 1.556684 -0.000005 0.0
2.578430 0.018882 0.000695 0.0
3.911351 1.645207 0.003634 0.0
0.989083 0.816530 0.003030 0.0
3.125679 0.994781 -0.000890 0.0
1.825247 1.276616 -0.005116 0.0
4.684115 2.012661 0.002914 0.0
3.335076 1.018930 -0.001377 0.0
1.522054 1.171970 -0.001555 0.0
1.847363 0.156561 -0.000630 0.0
4.607577 1.821361 0.003315 0.0
0.398666 0.176128 0.000327 0.0
4.830956 0.514674 -0.003935 0.0
3.133521 0.052146 0.001591 0.0
2.253364 0.980082 0.003716 0.0
2.546698 2.010799 0.000057 0.0
2.824841 0.070944 -0.000660 0.0
1.713878 1.493858 0.000932 0.0
0.929508 0.173272 -0.000305 0.0
1.358706 0.529436 0.001016 0.0
2.185433 2.103830 0.000396 0.0
4.128816 2.136738 0.000813 0.0
3.357854 0.960376 -0.001041 0.0
0.142791 0.114216 -0.002833 0.0
2.939127 1.465705 0.000109 0.0
1.031155 1.654319 -0.000533 0.0
0.149080 0.499754 -0.004311 0.0
3.508812 0.600252 -0.005178 0.0
2.256691 0.992262 -0.002609 0.0
2.778983 1.848447 0.001163 0.0
0.326785 1.954254 -0.004224 0.0
1.734166 1.645703 -0.003800 0.0
1.602333 1.036725 -0.002152 0.0
3.704533 0.601541 0.001141 0.0
4.359312 1.504330 -0.000188 0.0
3.674719 0.340381 0.001197 0.0
1.215480 1.197020 0.004315 0.0
4.742650 1.593123 -0.001815 0.0
1.826255 2.117837 -0.000000 0.0
1.836478 0.638188 -0.001303 0.0
2.904394 0.128834 0.002654 0.0
2.253464 0.860298 -0.004578 0.0
3.938581 1.826424 -0.000270 0.0
0.871146 1.557151 0.000636 0.0
4.813983 0.147885 0.001812 0.0
1.071854 1.173259 0.002788 0.0
4.141606 1.199026 -0.000716 0.0
1.134708 1.225403 -0.001070 0.0
2.496991 0.658262 0.004485 0.0
0.934033 1.964587 -0.004429 0.0
3.049416 1.328155 -0.000947 0.0
0.690083 0.414481 0.000103 0.0
2.494021 1.109098 0.002902 0.0
3.305714 0.051194 -0.000628 0.0
2.794600 2.002475 0.000065 0.0
2.452089 1.701759 0.003636 0.0
4.357737 0.614997 0.000400 0.0
4.008938 1.425253 -0.002992 0.0
2.921666 0.762341 -0.000323 0.0
1.529942 2.182443 -0.003732 0.0
4.110004 1.191387 0.002740 0.0
3.387423 0.748484 -0.001022 0.0
1.790734 0.132021 0.000804 0.0
2.972330 1.590607 0.000306 0.0
4.282754 0.127982 0.001928 0.0
1.936501 1.571157 -0.000051 0.0
2.088570 0.292207 -0.000428 0.0
2.366652 0.247866 -0.001957 0.0
4.925011 1.706400 0.002231 0.0
2.612874 0.732310 0.000148 0.0
0.038049 1.349091 -0.000785 0.0
3.308673 0.181305 -0.005286 0.0
4.533407 1.506114 0.001476 0.0
2.477280 0.008551 0.002310 0.0
1.960754 0.176878 0.001692 0.0
4.686448 0.290523 -0.002739 0.0
1.891955 0.178811 0.005957 0.0
3.540523 0.690399 0.002094 0.0
2.118910 0.388423 -0.000093 0.0
1.899048 0.011147 0.002872 0.0
2.467889 1.128459 0.000717 0.0
2.182063 0.010679 0.002571 0.0
2.054553 0.158917 -0.004170 0.0
0.789970 0.636638 -0.000690 0.0
0.582228 0.377702 -0.003366 0.0
2.607665 0.068074 0.001002 0.0
3.391627 1.636227 0.003563 0.0
1.651169 1.191322 0.005433 0.0
4.603717 0.613869 -0.002041 0.0
3.054736 1.769735 -0.002633 0.0
2.377517 1.757021 -0.002599 0.0
1.710122 1.801184 -0.000412 0.0
0.624515 1.452101 0.000860 0.0
3.251824 2.174232 0.003162 0.0
0.777662 0.123901 0.001989 0.0
2.825677 1.326262 0.001747 0.0
0.425933 0.946075 0.003065 0.0
3.572953 2.122840 -0.006882 0.0
1.558833 1.279718 0.001339 0.0
1.390606 0.900790 -0.002523 0.0
2.590630 1.846760 0.004026 0.0
2.793385 2.065176 0.001957 0.0
0.473544 2.168890 0.002460 0.0
0.421283 1.962939 -0.001187 0.0
1.442187 0.727730 -0.001370 0.0
2.605777 0.002827 0.000743 0.0
0.527869 0.071461 0.000143 0.0
1.631927 1.175744 0.001911 0.0
0.008757 1.178984 0.001398 0.0
2.224001 1.368672 -0.001767 0.0
3.225555 1.770065 -0.003588 0.0
0.909026 1.966001 -0.000411 0.0
4.436804 0.776386 -0.002430 0.0
2.548783 1.002422 -0.002668 0.0
3.734755 0.029838 -0.000994 0.0
4.632602 1.015613 0.003032 0.0
3.337017 1.641943 0.002624 0.0
0.737834 0.638513 -0.001951 0.0
4.245044 0.731067 -0.001123 0.0
1.736112 0.377310 0.000252 0.0
2.626650 1.831013 -0.002899 0.0
1.615914 2.214372 -0.000435 0.0
0.434659 1.212167 0.003207 0.0
1.117960 1.592188 -0.002230 0.0
4.704874 2.134706 0.005086 0.0
4.472380 0.201673 -0.002761 0.0
3.113150 0.717282 0.001098 0.0
0.257373 2.111175 0.001768 0.0
2.730584 2.122313 0.000090 0.0
3.209584 0.447130 -0.000598 0.0
2.179567 2.140606 -0.001737 0.0
2.076717 0.233004 0.000494 0.0
0.333357 0.280602 -0.000470 0.0
3.047769 0.848441 0.002347 0.0
0.804119 0.164792 0.000766 0.0
2.133697 1.473592 -0.002850 0.0
4.580085 0.457704 -0.000735 0.0
2.138431 1.029045 -0.000520 0.0
1.040411 1.769045 0.002548 0.0
2.194313 1.993324 0.003105 0.0
1.123891 0.916833 -0.002831 0.0
3.656041 1.824103 -0.001690 0.0
4.672717 0.271799 0.005361 0.0
1.594342 1.289990 0.000005 0.0
0.793235 1.227519 0.000081 0.0
0.646350 1.290512 0.000034 0.0
2.482390 2.064900 -0.001607 0.0
0.225494 1.464321 0.000981 0.0
3.666916 1.528762 -0.000858 0.0
2.468378 1.680394 0.002260 0.0
4.859098 1.531357 -0.000788 0.0
3.414106 1.154372 -0.001841 0.0
2.597143 0.565623 -0.001142 0.0
4.450205 1.468914 0.002418 0.0
4.308034 1.979969 -0.003504 0.0
1.055879 0.170491 -0.002191 0.0
1.576161 0.518252 0.000218 0.0
4.880047 1.613348 0.001386 0.0
0.069177 1.441500 -0.002263 0.0
2.827491 1.447633 0.001532 0.0
3.817603 0.768756 -0.000012 0.0
2.776875 0.447788 0.001042 0.0
3.572012 0.904535 -0.004409 0.0
4.437226 0.568451 -0.002512 0.0
1.485443 1.107090 0.001921 0.0
3.373487 1.126812 -0.001548 0.0
3.486210 0.901933 -0.002328 0.0
2.964363 0.593946 -0.001165 0.0
0.660438 0.014305 -0.006085 0.0
2.217939 0.955644 0.000004 0.0
1.781981 1.462950 0.003440 0.0
1.972908 0.567173 -0.000784 0.0
4.618756 1.419404 -0.000258 0.0
0.612665 0.254548 0.002270 0.0
0.710837 0.851526 0.001019 0.0
4.825770 0.190293 0.002776 0.0
3.501503 0.659610 0.000709 0.0
4.777804 0.836327 0.000819 0.0
2.724618 0.764560 -0.004043 0.0
3.986416 1.611470 -0.002935 0.0
3.571420 1.932390 0.000171 0.0
2.322265 0.339517 0.000833 0.0
2.439004 2.197898 -0.004939 0.0
0.118566 1.985570 -0.002939 0.0
0.646478 0.687547 -0.002926 0.0
1.836957 1.544030 0.001486 0.0
2.609986 1.512663 -0.004204 0.0
3.312230 0.968378 -0.002818 0.0
3.238291 1.794339 0.002774 0.0
0.214940 0.939315 0.002004 0.0
2.612378 1.248317 0.002138 0.0
0.079421 1.942359 0.000180 0.0
1.942560 0.021604 0.006935 0.0
3.514802 1.493759 0.000344 0.0
3.380341 1.417766 0.004235 0.0
0.783933 0.499242 -0.001037 0.0
0.352149 0.798913 0.004725 0.0
0.583955 1.608366 -0.000729 0.0
3.330495 1.281424 0.003649 0.0
0.213428 1.585966 -0.003318 0.0
4.559400 0.884923 -0.000216 0.0
2.543425 0.566903 0.001802 0.0
0.022968 0.467652 -0.006893 0.0
4.556795 2.119302 0.001794 0.0
4.149847 0.435872 -0.001868 0.0
0.410002 1.908825 -0.001975 0.0
1.329377 1.835499 0.001081 0.0
4.425457 2.118230 -0.003489 0.0
4.906188 0.249905 0.003161 0.0
1.569636 0.448830 0.002559 0.0
4.521256 1.617513 -0.001547 0.0
0.974386 0.347763 0.000161 0.0
4.704837 0.927151 0.001084 0.0
0.096922 1.792349 -0.003370 0.0
1.715754 1.172119 -0.003319 0.0
3.135996 1.294101 -0.003748 0.0
0.092952 0.426093 0.002219 0.0
0.096584 1.121275 0.003661 0.0
2.344161 0.858647 0.000914 0.0
4.644538 0.907214 0.001257 0.0
0.276761 1.127493 0.002486 0.0
4.276020 1.276475 0.001019 0.0
0.559629 1.195519 0.003408 0.0
4.798357 2.141983 0.001752 0.0
2.197955 1.002470 0.002861 0.0
2.024793 0.290905 -0.004452 0.0
0.315730 2.054570 0.001675 0.0
1.171778 1.736253 0.003381 0.0
3.653109 0.590362 0.005011 0.0
2.325759 1.611258 0.002043 0.0
0.331329 0.357457 -0.002437 0.0
1.134919 0.401201 0.005012 0.0
3.310320 0.377882 0.001117 0.0
1.953692 1.421297 0.000011 0.0
1.526661 0.575647 0.000346 0.0
3.056057 0.626113 0.004243 0.0
4.610273 2.197860 -0.000741 0.0
4.669602 0.233184 -0.004881 0.0
3.857086 2.026815 0.002440 0.0
1.083125 2.157102 0.003124 0.0
3.905805 0.425325 0.001499 0.0
3.092118 0.235197 0.003456 0.0
1.408035 1.383902 0.003429 0.0
1.650746 0.695983 0.004614 0.0
3.964558 0.380321 0.000301 0.0
4.327489 1.565816 -0.001469 0.0
0.618538 1.159921 -0.002997 0.0
4.445174 1.101634 0.001215 0.0
3.038407 1.598516 -0.006964 0.0
0.294853 0.803958 -0.005274 0.0
0.187523 1.734318 -0.000084 0.0
3.921533 1.809162 -0.001719 0.0
0.854403 1.689309 -0.003357 0.0
2.683320 1.483093 -0.003112 0.0
0.096464 1.256703 0.001804 0.0
1.162418 2.019403 -0.001498 0.0
1.782041 0.360312 0.003418 0.0
2.997936 0.880753 -0.001479 0.0
4.098684 0.116702 -0.000317 0.0
0.668706 0.357347 -0.002322 0.0
0.409558 1.899620 -0.001976 0.0
2.029198 0.456750 0.000118 0.0
0.250309 1.057425 0.002884 0.0
4.012266 1.089409 -0.001974 0.0
4.500816 2.132815 0.004292 0.0
2.876347 0.729780 0.001166 0.0
4.027936 1.669935 0.001991 0.0
4.260057 1.977474 -0.003988 0.0
4.691312 1.845741 -0.001199 0.0
2.385126 1.384979 0.000362 0.0
4.757140 0.055993 0.002046 0.0
0.220806 0.656546 0.002208 0.0
4.615531 0.675587 -0.001926 0.0
1.194909 0.895512 0.003608 0.0
1.412415 0.685156 -0.000690 0.0
2.140103 0.409569 0.000699 0.0
4.571611 1.186811 -0.000894 0.0
2.076223 1.690174 -0.000327 0.0
2.247681 0.941723 0.003632 0.0
1.289467 0.773895 0.001422 0.0
1.962153 1.791328 0.001420 0.0
3.125300 2.010670 0.001736 0.0
1.899263 2.124616 -0.000980 0.0
1.862085 0.060180 0.000242 0.0
2.924871 0.236496 -0.000157 0.0
1.522335 0.665862 0.004673 0.0
4.531549 2.033384 -0.003505 0.0
1.138013 0.850923 0.001392 0.0
4.115489 2.178561 0.000105 0.0
4.164680 0.483833 -0.001848 0.0
2.271161 1.632930 -0.005839 0.0
4.439477 0.979469 -0.000862 0.0
4.825059 1.178725 -0.001166 0.0
3.404991 1.521094 0.001247 0.0
4.473383 0.387308 -0.001349 0.0
4.898332 1.627184 -0.008835 0.0
3.955707 0.392051 0.002879 0.0
3.238141 1.182548 0.003373 0.0
0.598479 0.499260 -0.001150 0.0
1.154034 0.227994 0.003653 0.0
4.389148 1.178769 -0.001475 0.0
4.907085 0.316861 0.002970 0.0
0.657254 0.330632 0.001859 0.0
1.628606 0.664440 0.001090 0.0
1.201607 1.220558 0.002458 0.0
2.719567 0.736907 0.001903 0.0
0.101982 0.910366 -0.000212 0.0
2.831950 1.502415 -0.003110 0.0
4.818736 0.239021 0.006626 0.0
3.801215 0.188705 -0.002260 0.0
1.032183 0.342256 0.001955 0.0
1.183186 0.694250 0.002717 0.0
3.912455 0.695627 0.003837 0.0
4.368524 1.712773 0.004867 0.0
0.667916 2.175107 0.003639 0.0
3.593369 0.406483 0.002888 0.0
3.168350 1.656234 0.000199 0.0
3.621788 1.110612 0.001755 0.0
4.061864 1.102228 0.003073 0.0
4.405122 0.129089 -0.001424 0.0
2.695817 2.039780 0.004054 0.0
1.102213 0.101123 0.002390 0.0
0.836676 1.706861 -0.002366 0.0
4.266538 0.015869 -0.002047 0.0
3.767940 0.786063 0.002974 0.0
4.695673 1.202132 -0.002049 0.0
1.323665 2.159206 -0.000977 0.0
1.780230 1.595981 -0.001384 0.0
0.307377 1.431302 -0.002593 0.0
1.134343 0.769013 -0.003245 0.0
2.286847 0.420536 -0.003726 0.0
2.858370 0.194714 -0.001277 0.0
4.560745 1.534198 -0.001362 0.0
4.780616 0.128114 -0.003558 0.0
1.204973 1.708465 -0.003205 0.0
3.084796 0.054837 -0.001062 0.0
2.464874 1.998903 -0.002605 0.0
3.848362 0.409750 -0.001371 0.0
3.888639 0.501552 -0.000566 0.0
2.915307 0.506617 -0.001692 0.0
0.022853 1.094134 0.001590 0.0
4.312421 1.196067 0.001380 0.0
0.882635 1.087022 0.001668 0.0
0.080299 0.425351 0.003051 0.0
4.753047 0.464629 -0.004047 0.0
1.808353 0.324553 0.002855 0.0
4.904762 1.279211 -0.004974 0.0
2.377353 1.506497 0.004858 0.0
1.789531 2.060431 -0.001561 0.0
4.224761 1.382353 0.004804 0.0
4.244171 1.244992 -0.000176 0.0
3.945758 1.291648 -0.002641 0.0
0.174689 0.486457 0.002193 0.0
3.790139 1.570327 -0.002681 0.0
4.628289 0.132848 0.001481 0.0
2.943092 0.823612 -0.003628 0.0
3.891990 1.858512 -0.001721 0.0
3.870625 1.698777 0.002202 0.0
2.060616 1.673506 0.001195 0.0
4.220071 0.119644 -0.000243 0.0
4.371157 1.240671 0.002364 0.0
2.862968 1.982872 0.001881 0.0
2.997322 1.507571 -0.003616 0.0
3.690395 1.282690 -0.000434 0.0
1.818841 1.772016 0.002159 0.0
3.500673 0.157477 0.000076 0.0
1.824132 1.744436 -0.004791 0.0
0.660852 2.052011 0.000511 0.0
3.844463 0.267892 0.000463 0.0
0.074719 0.330222 0.000907 0.0
0.370926 1.474943 -0.000993 0.0
2.828876 2.208014 -0.002025 0.0
0.820851 0.664805 -0.000293 0.0
4.918575 0.318265 0.004133 0.0
2.728517 2.168828 0.001494 0.0
2.852374 2.054027 -0.003237 0.0
0.800911 0.942214 -0.000135 0.0
2.067590 1.215926 -0.002461 0.0
1.725914 1.300684 0.001580 0.0
3.692615 2.057994 -0.001417 0.0
4.054053 1.671895 0.002167 0.0
4.493255 1.144839 0.000313 0.0
2.962446 1.278954 0.001198 0.0
0.039625 2.162818 -0.003472 0.0
1.334250 0.020422 -0.000801 0.0
2.960297 0.060143 0.002822 0.0
3.164357 0.349933 0.000771 0.0
3.458599 1.013651 -0.000020 0.0
3.048660 0.385894 -0.001612 0.0
4.025949 1.817760 -0.000956 0.0
3.934008 0.326851 -0.000392 0.0
3.600186 0.265851 0.003815 0.0
2.953504 1.457546 0.001756 0.0
4.301107 1.402581 -0.001221 0.0
1.309689 0.479524 -0.001763 0.0
3.000630 2.019655 0.001495 0.0
1.942989 1.234541 -0.001159 0.0
3.100325 1.551347 -0.001489 0.0
0.369282 1.691303 -0.000834 0.0
3.570418 1.773074 -0.002393 0.0
4.904210 1.487925 0.002361 0.0
2.092453 0.496989 -0.001425 0.0
4.751278 1.854025 0.000163 0.0
1.593994 1.961789 0.003888 0.0
4.116213 0.912424 0.004041 0.0
0.279146 0.147554 -0.001211 0.0
4.387732 0.616201 -0.002269 0.0
2.643277 2.045275 0.001735 0.0
0.461236 1.604436 -0.002987 0.0
1.429404 0.046725 -0.002983 0.0
0.374162 0.643002 0.001473 0.0
4.305675 1.720327 0.000250 0.0
4.239340 1.710282 -0.002410 0.0
2.744017 0.731877 0.005709 0.0
4.651648 1.216865 -0.005148 0.0
0.205692 1.706533 -0.000703 0.0
2.475449 2.057029 0.002348 0.0
0.644866 0.896574 -0.001796 0.0
0.990849 0.292497 -0.002455 0.0
4.264206 1.967904 -0.003994 0.0
2.162087 2.028653 0.002413 0.0
2.149877 1.199300 0.000714 0.0
1.997907 0.378005 0.002255 0.0
2.453646 1.128594 -0.000500 0.0
1.106216 0.922744 0.002585 0.0
0.477287 0.175233 0.001470 0.0
0.688480 2.188522 -0.001369 0.0
4.653435 1.182497 -0.004396 0.0
3.359346 1.454159 -0.000261 0.0
1.729997 1.650491 0.004029 0.0
4.724427 1.129730 -0.000954 0.0
0.265596 0.181601 -0.000914 0.0
1.779690 1.576280 0.002854 0.0
0.126029 0.968035 0.005790 0.0
3.501722 0.330833 -0.004497 0.0
1.892648 0.561148 -0.000760 0.0
4.830513 1.777939 -0.002276 0.0
1.942586 1.055199 0.003983 0.0
0.460518 1.141952 0.001565 0.0
2.519250 1.427023 -0.002729 0.0
3.072551 1.649996 -0.002162 0.0
3.988070 0.283145 0.000577 0.0
1.097381 1.599191 -0.000849 0.0
2.191348 1.888015 0.000899 0.0
3.438670 0.075986 0.002832 0.0
2.054019 0.085319 0.001997 0.0
2.917392 1.917734 0.002544 0.0
0.758684 2.014375 -0.000620 0.0
4.906179 1.249012 0.000463 0.0
2.298799 1.035565 -0.001321 0.0
2.061938 1.412037 0.001256 0.0
3.867784 1.048067 -0.000085 0.0
1.419676 0.187639 -0.003873 0.0
1.133654 1.370500 -0.000606 0.0
1.896927 0.448340 -0.001100 0.0
2.460530 0.337266 -0.001905 0.0
0.904516 1.931621 0.001081 0.0
1.540552 1.755254 0.000681 0.0
1.911983 0.437415 -0.002831 0.0
0.338088 0.041426 -0.001914 0.0
1.633300 1.637225 -0.003766 0.0
2.081792 0.793454 0.000549 0.0
2.263598 0.235937 0.001613 0.0
4.254239 1.035473 0.000147 0.0
4.090622 1.017634 -0.002762 0.0
4.569659 0.814015 -0.002784 0.0
2.321300 0.770681 0.002750 0.0
0.237174 1.399996 0.001532 0.0
2.156999 1.229533 0.000817 0.0
1.656155 0.743804 -0.000615 0.0
3.469230 0.238720 -0.001856 0.0
0.361684 1.942767 -0.001335 0.0
1.844011 2.071682 0.002715 0.0
1.251595 1.415232 0.004424 0.0
2.864307 0.318422 0.002240 0.0
4.632596 1.846524 -0.003166 0.0
4.158686 0.834381 -0.002508 0.0
4.265394 0.204679 0.001641 0.0
0.819219 1.537002 0.001399 0.0
2.255634 0.740638 0.000402 0.0
4.100355 2.213039 0.002141 0.0
4.685521 2.037009 0.003664 0.0
2.797672 0.214921 0.003993 0.0
0.489993 0.670882 -0.002575 0.0
1.915804 1.073917 0.001349 0.0
2.746233 1.432753 0.002803 0.0
2.373909 0.597513 -0.002785 0.0
2.967889 1.148953 0.001104 0.0
4.126941 0.342741 -0.002146 0.0
0.160684 0.710304 -0.000985 0.0
1.612681 2.213863 0.000003 0.0
2.177597 0.114466 -0.000782 0.0
1.663545 1.719793 -0.001197 0.0
0.824394 2.185428 -0.002764 0.0
4.081589 0.105068 0.000643 0.0
1.255063 0.456872 0.001832 0.0
4.165048 0.675144 0.001090 0.0
2.654889 1.162490 0.003450 0.0
2.163268 1.838652 -0.002237 0.0
4.168760 1.882807 -0.001009 0.0
0.011888 2.195537 -0.004067 0.0
2.344269 1.423663 -0.000290 0.0
0.594285 1.312648 0.000133 0.0
3.219094 0.510902 0.000136 0.0
1.455226 1.320731 0.000348 0.0
4.187193 0.887097 -0.002133 0.0
1.036532 1.132677 0.002841 0.0
4.880806 1.524878 0.000120 0.0
2.649915 0.789527 0.001362 0.0
0.934829 1.058487 -0.001088 0.0
0.673708 0.226896 0.002005 0.0
4.509849 1.109509 0.003560 0.0
1.443142 0.445621 -0.003807 0.0
1.223328 0.512467 0.000626 0.0
1.776356 1.033166 -0.000770 0.0
1.196859 0.181872 -0.001671 0.0
1.834388 1.569145 -0.003948 0.0
2.315578 1.019204 0.001188 0.0
3.827378 1.719910 0.000264 0.0
0.180182 0.823848 -0.001212 0.0
1.408294 1.448547 0.001034 0.0
3.322824 1.028948 0.000045 0.0
2.751483 0.435336 0.000672 0.0
3.733283 1.653200 -0.001514 0.0
0.917308 1.029016 0.003656 0.0
4.300366 1.849249 -0.000402 0.0
2.472815 1.569959 -0.000791 0.0
0.018708 0.661694 -0.004402 0.0
4.842912 2.188472 0.000276 0.0
2.689889 0.724885 -0.002643 0.0
3.944628 0.578805 0.001771 0.0
1.019386 0.618671 -0.001992 0.0
0.054628 2.140465 -0.000834 0.0
1.463182 2.203734 0.000760 0.0
1.316744 1.459758 0.002953 0.0
3.590365 0.697292 0.002492 0.0
2.043742 1.741588 0.000593 0.0
3.768547 0.309082 0.002893 0.0
3.770392 0.520826 -0.000578 0.0
0.221740 2.130360 0.000094 0.0
2.189606 1.336844 -0.003469 0.0
4.222431 1.237927 -0.000447 0.0
2.549113 1.175208 -0.002799 0.0
0.504910 1.686725 0.001504 0.0
4.913310 0.682566 -0.002687 0.0
1.868974 1.129601 0.003102 0.0
2.635338 0.177227 -0.000154 0.0
3.627122 1.875835 -0.000584 0.0
3.577369 0.027905 0.003647 0.0
2.383120 0.113062 -0.003823 0.0
2.241294 0.774249 -0.000385 0.0
1.030923 2.144656 0.001331 0.0
0.970092 0.235340 0.000883 0.0
2.767364 0.525369 -0.002375 0.0
0.414460 1.899722 -0.002856 0.0
2.918251 1.016568 0.001973 0.0
1.413879 0.419910 -0.000130 0.0
1.821040 0.083128 0.001370 0.0
2.026658 1.771270 0.000527 0.0
0.998899 1.931463 -0.001690 0.0
0.955358 1.363327 0.000738 0.0
2.593632 2.120660 0.001118 0.0
1.128763 1.270504 0.000505 0.0
0.535839 1.973635 0.001072 0.0
3.644308 0.637512 -0.000823 0.0
2.160360 0.791266 -0.000995 0.0
1.745171 1.815805 0.001595 0.0
2.663201 1.711074 -0.001274 0.0
1.346450 0.708477 -0.001955 0.0
1.454708 0.444351 0.002705 0.0
4.379584 0.158496 0.000953 0.0
4.122496 1.543359 0.001158 0.0
4.504784 1.683387 -0.000375 0.0
3.989296 1.603266 -0.000043 0.0
1.039588 1.439762 -0.001537 0.0
0.930570 0.907226 -0.002830 0.0
2.834931 0.540214 0.002456 0.0
0.406200 0.126294 -0.000077 0.0
2.102853 1.203413 0.005152 0.0
4.025384 1.402035 0.003045 0.0
3.452800 1.759615 -0.001327 0.0
4.886185 0.894593 0.000663 0.0
4.738019 1.775234 0.000201 0.0
2.766092 0.194284 -0.000434 0.0
3.664171 1.669552 0.001266 0.0
2.242945 0.691540 -0.001288 0.0
0.601933 0.049785 -0.002086 0.0
0.220978 0.968954 -0.000069 0.0
2.878427 1.100184 0.000399 0.0
3.665046 0.430257 0.004584 0.0
1.081802 1.498909 -0.000881 0.0
2.238764 1.211590 0.000832 0.0
2.798642 0.084063 0.002200 0.0
3.462714 0.881492 0.001758 0.0
4.093988 1.836311 -0.001045 0.0
4.202149 1.616684 -0.002854 0.0
1.731422 0.101736 0.000881 0.0
3.132517 1.538619 0.006372 0.0
2.169932 1.903255 0.003694 0.0
2.594238 0.790979 0.001686 0.0
4.582905 1.527367 -0.000504 0.0
2.786238 0.676551 0.001837 0.0
1.142825 1.891281 -0.000732 0.0
2.378711 1.146610 0.002047 0.0
4.435331 0.490064 -0.000734 0.0
2.532124 0.490634 -0.000739 0.0
1.728224 0.890313 0.004704 0.0
1.580958 0.098931 0.004508 0.0
4.653773 1.626366 0.004034 0.0
3.926856 0.150223 -0.002299 0.0
4.822464 1.664280 0.003261 0.0
3.765447 2.092623 -0.002850 0.0
3.682617 0.938469 0.000791 0.0
3.525004 1.412900 -0.001505 0.0
4.622432 0.243195 0.000513 0.0
3.628950 1.569291 0.002290 0.0
4.215517 0.025127 0.003394 0.0
3.048922 1.790075 0.000754 0.0
4.119451 1.660107 -0.004754 0.0
2.550892 1.865437 -0.003856 0.0
3.306854 2.121282 0.003784 0.0
4.366410 0.745325 0.000510 0.0
3.860173 0.464047 -0.000164 0.0
3.906288 1.670194 -0.000456 0.0
2.513430 1.440039 -0.003615 0.0
3.174222 1.228574 -0.001739 0.0
2.828750 0.271027 0.000843 0.0
1.487596 1.866680 -0.000302 0.0
0.907674 1.147467 0.001649 0.0
4.385876 1.408855 0.001500 0.0
2.871355 0.955644 -0.001555 0.0
4.159874 0.108083 0.000992 0.0
3.591863 2.182071 -0.000077 0.0
3.785680 0.748855 -0.001444 0.0
0.249486 1.701879 0.000416 0.0
0.513074 1.977133 0.002387 0.0
3.987993 0.201765 -0.000131 0.0
3.758986 0.377856 0.000096 0.0
0.392709 0.296086 0.002124 0.0
2.871196 1.950015 0.002407 0.0
1.025964 0.827005 0.000003 0.0
4.903281 0.753055 -0.001951 0.0
3.237439 2.120936 -0.000069 0.0
1.560907 0.037118 0.003258 0.0
0.203418 0.912873 -0.003597 0.0
2.903886 0.209476 -0.000385 0.0
0.134393 2.125539 -0.002166 0.0
1.655229 1.175357 0.003383 0.0
3.788133 0.212598 0.001287 0.0
3.372267 0.863281 0.001186 0.0
3.923480 0.799297 0.000508 0.0
2.744463 1.176595 0.000994 0.0
3.236938 1.854241 -0.002962 0.0
4.513749 0.235752 -0.000089 0.0
4.544948 2.136302 0.004716 0.0
2.017898 0.247057 0.001996 0.0
1.310217 0.410734 0.001796 0.0
1.804070 1.366926 -0.005946 0.0
1.433246 1.519335 -0.003312 0.0
2.346976 0.183697 0.001314 0.0
2.732730 0.614113 -0.002036 0.0
4.536220 0.721011 0.002966 0.0
2.177332 0.727522 0.000290 0.0
4.756373 0.466331 -0.000089 0.0
4.888554 1.448637 -0.002499 0.0
3.669829 1.755710 0.001798 0.0
2.384819 2.151081 -0.001052 0.0
1.319682 1.843364 -0.002084 0.0
0.305904 0.338707 -0.003987 0.0
4.925070 0.932036 -0.002510 0.0
3.438592 0.353366 -0.004884 0.0
1.491475 1.736575 0.002043 0.0
0.290666 0.021306 0.005143 0.0
0.797800 2.101297 -0.000755 0.0
2.738246 1.209285 0.000589 0.0
3.218244 1.103911 -0.000064 0.0
0.339633 1.784631 -0.001532 0.0
1.162782 1.048352 0.001770 0.0
1.082493 1.674480 -0.000164 0.0
4.078633 1.452069 -0.000362 0.0
2.655049 0.300190 -0.002259 0.0
0.792856 2.181987 -0.000173 0.0
0.480124 1.459225 0.001970 0.0
2.392060 1.784612 0.003326 0.0
4.141161 1.121401 -0.000410 0.0
3.091270 0.966720 0.000561 0.0
1.188376 0.664026 -0.006057 0.0
0.383586 0.604383 -0.000259 0.0
3.873272 0.229824 -0.002775 0.0
1.102271 1.858070 -0.001475 0.0
4.204865 1.224493 -0.001486 0.0
1.666839 0.968370 -0.002294 0.0
4.413627 1.703926 -0.000697 0.0
3.641114 0.743438 0.000843 0.0
1.095290 1.786892 0.002260 0.0
3.360311 2.183689 0.002430 0.0
1.561315 1.062621 0.001477 0.0
4.926247 1.036200 0.004442 0.0
4.903685 0.610542 0.000268 0.0
1.112885 1.414189 0.001935 0.0
0.216565 1.393510 -0.002129 0.0
3.286260 2.114735 0.004849 0.0
4.131619 1.386912 -0.001747 0.0
3.296341 0.684853 0.001245 0.0
2.695954 0.088998 -0.001971 0.0
0.192706 0.539680 0.000639 0.0
0.801993 1.732506 -0.000491 0.0
2.957707 0.414167 0.000595 0.0
1.502393 2.061430 -0.000844 0.0
4.031682 1.605567 -0.001095 0.0
0.870964 0.556470 0.000683 0.0
1.499370 0.115748 -0.002048 0.0
1.369346 1.603367 -0.001846 0.0
2.431172 1.742766 -0.004292 0.0
0.766257 1.589624 0.006001 0.0
4.146788 0.377332 -0.001727 0.0
1.866027 1.251798 -0.000252 0.0
0.328253 1.028712 -0.000522 0.0
0.669642 1.052325 0.005389 0.0
3.799770 0.524197 -0.001573 0.0
1.814608 1.193851 -0.000256 0.0
1.537235 2.197165 -0.001477 0.0
4.772899 0.616705 -0.003649 0.0
4.514974 0.569026 -0.002394 0.0
3.231127 0.030819 0.001731 0.0
1.008706 1.932717 -0.000835 0.0
3.640629 0.238089 -0.003202 0.0
4.328974 0.438677 -0.000993 0.0
2.263691 1.051408 0.000749 0.0
0.594724 0.602992 -0.001810 0.0
4.125585 0.041208 0.001311 0.0
1.722918 0.024213 -0.004913 0.0
4.494537 1.249535 0.002632 0.0
4.231036 0.757622 -0.001584 0.0
4.017126 1.927406 -0.002327 0.0
1.647924 0.542193 0.003092 0.0
2.153474 0.071211 0.001916 0.0
4.756131 2.006425 0.001424 0.0
3.584989 1.737366 0.002565 0.0
2.284092 2.096216 -0.001322 0.0
4.532167 0.321078 -0.001131 0.0
0.082877 1.345788 0.000175 0.0
0.969593 0.766471 0.001650 0.0
0.409259 0.579004 0.001749 0.0
3.916856 1.341436 -0.004993 0.0
1.207484 1.687262 -0.000042 0.0
2.483840 1.356478 0.001438 0.0
2.002284 0.518407 -0.003363 0.0
1.223706 0.040618 -0.002539 0.0
0.734407 1.005785 0.000848 0.0
4.927418 0.773750 -0.004076 0.0
0.719626 0.942162 0.000313 0.0
4.607603 0.146408 0.002286 0.0
0.135579 0.773832 0.000580 0.0
4.642464 0.086822 0.001902 0.0
2.161108 0.873710 0.001042 0.0
3.427811 0.133653 -0.002447 0.0
0.935178 1.425181 -0.001934 0.0
4.592340 1.671662 0.000698 0.0
3.845726 0.668233 0.001139 0.0
1.591477 0.283282 -0.001155 0.0
2.404510 1.514051 0.002415 0.0
1.698717 2.146430 -0.002629 0.0
3.288211 0.340973 0.004742 0.0
0.800632 2.042025 0.000671 0.0
4.348188 0.427116 -0.000950 0.0
4.876872 0.073900 -0.000830 0.0
3.741924 1.735205 0.000330 0.0
3.257786 1.400155 -0.002984 0.0
2.529676 1.145108 -0.000820 0.0
2.510860 0.848066 0.001691 0.0
2.622581 1.987066 0.000400 0.0
1.747491 0.060710 -0.000200 0.0
3.705987 1.453879 0.001519 0.0
2.269100 2.211121 -0.000044 0.0
0.863864 0.099196 -0.000992 0.0
1.914794 2.102582 -0.004144 0.0
3.805300 0.489612 0.001120 0.0
3.806777 1.537742 -0.000221 0.0
1.277067 1.939831 -0.001660 0.0
1.814391 0.274772 0.000603 0.0
1.136797 0.359498 0.001475 0.0
1.695585 1.185515 0.001963 0.0
0.236898 0.553110 0.004611 0.0
1.718214 0.047023 0.000715 0.0
2.434475 0.840115 -0.000431 0.0
2.936029 2.077150 -0.002637 0.0
4.855773 1.228427 -0.002041 0.0
1.638400 0.310380 0.000356 0.0
4.566001 0.153390 -0.002204 0.0
2.734523 1.538247 0.000406 0.0
4.528509 0.347561 -0.003286 0.0
2.125057 0.947461 -0.005474 0.0
0.975463 1.674201 0.000380 0.0
1.464369 1.287092 0.002850 0.0
1.620560 0.277793 -0.000738 0.0
4.809341 1.382163 0.005132 0.0
2.198810 0.163984 0.000110 0.0
2.492096 0.802655 0.001348 0.0
4.160924 0.862841 -0.002394 0.0
0.443367 1.939682 -0.001628 0.0
4.162137 1.470989 0.000063 0.0
0.738390 0.843114 0.000128 0.0
1.771370 0.013860 0.002798 0.0
3.714658 0.227962 -0.001796 0.0
1.627912 0.195588 0.001052 0.0
0.607910 0.156037 -0.000604 0.0
4.707781 0.917930 0.003062 0.0
0.453330 0.280336 0.002673 0.0
4.632800 0.753802 -0.000503 0.0
2.734029 1.969268 -0.001405 0.0
1.018174 0.271065 0.003184 0.0
1.938669 0.998246 -0.004764 0.0
4.643133 1.809332 0.000220 0.0
2.371880 2.077891 0.001850 0.0
1.377425 1.806275 -0.001048 0.0
4.226775 0.300204 0.002749 0.0
3.295297 1.395285 0.000035 0.0
2.398658 0.671831 -0.001556 0.0
4.436015 1.035765 0.002317 0.0
4.381817 1.664366 0.000421 0.0
0.585047 0.399190 -0.002542 0.0
3.620609 0.465775 0.000145 0.0
3.014142 2.047541 -0.002710 0.0
3.087337 1.183390 -0.001098 0.0
4.668901 1.531872 -0.000369 0.0
4.256506 0.141198 0.002242 0.0
0.451356 0.926550 -0.001309 0.0
2.845218 0.731194 -0.000004 0.0
3.692949 0.791503 -0.002435 0.0
2.171199 0.890278 0.001378 0.0
2.748059 2.194000 0.003648 0.0
4.250246 1.681020 0.000007 0.0
2.409377 0.468026 -0.002726 0.0
2.522240 1.942853 -0.004405 0.0
3.998146 1.804998 -0.000081 0.0
1.320919 0.548102 -0.001431 0.0
1.203136 2.161558 -0.000152 0.0
2.809131 1.847763 -0.001019 0.0
0.954538 1.153720 0.000598 0.0
4.396366 2.030634 -0.003133 0.0
0.653564 1.250303 -0.001343 0.0
0.187228 0.690869 0.001614 0.0
3.953766 0.704632 -0.000298 0.0
1.848046 1.923578 0.001068 0.0
1.103914 1.035947 0.003881 0.0
2.678861 0.260816 -0.000029 0.0
4.785235 0.442839 -0.000732 0.0
0.666542 1.950463 -0.003201 0.0
2.446534 1.207755 -0.000178 0.0
4.405661 0.983604 0.003191 0.0
1.325599 0.352375 -0.003051 0.0
1.600514 2.034695 0.000227 0.0
4.142012 0.099179 -0.001104 0.0
4.411026 0.989465 -0.002617 0.0
4.577687 1.328322 -0.002419 0.0
3.942728 1.371223 -0.001989 0.0
0.747848 2.026662 -0.003648 0.0
0.512037 0.789880 0.000129 0.0
1.304781 2.191104 -0.001518 0.0
1.033572 1.241833 -0.003085 0.0
2.422457 0.260495 -0.006411 0.0
2.510620 0.867181 -0.003092 0.0
2.871552 2.211477 -0.002806 0.0
3.034584 1.036551 -0.000470 0.0
0.501814 1.940134 0.001141 0.0
1.083304 1.126025 0.001368 0.0
3.388699 1.170780 0.001259 0.0
2.434182 1.938348 -0.003360 0.0
0.843972 1.129424 -0.005259 0.0
4.474612 0.577090 0.005481 0.0
0.108152 0.833888 -0.001560 0.0
3.209153 0.626530 -0.002922 0.0
4.592024 1.585822 -0.002034 0.0
1.294952 2.103926 0.003618 0.0
1.999846 0.670035 -0.002949 0.0
1.629147 1.698271 0.000592 0.0
4.351772 1.083497 -0.000181 0.0
0.303869 1.788123 0.001651 0.0
3.633986 1.515532 0.001952 0.0
3.264994 1.764369 0.000968 0.0
1.322061 1.538765 0.000054 0.0
1.347377 1.595650 -0.001230 0.0
2.365028 0.206328 -0.000159 0.0
3.303648 1.299851 0.000369 0.0
2.454459 2.177937 -0.001555 0.0
4.289953 1.385216 -0.000224 0.0
0.325752 1.320256 -0.002196 0.0
1.612871 0.512792 -0.000766 0.0
0.703154 0.981035 -0.002555 0.0
1.269118 1.502041 0.004789 0.0
2.682300 1.572763 -0.007060 0.0
3.530850 0.083630 -0.001162 0.0
2.644699 1.502392 -0.000263 0.0
2.429472 1.469535 0.004281 0.0
4.790244 2.100297 0.002973 0.0
3.321087 1.528919 -0.001164 0.0
0.622689 1.995242 0.000343 0.0
4.238111 1.765282 -0.001446 0.0
0.315365 0.337859 0.000637 0.0
4.398585 0.815993 -0.004870 0.0
4.098694 0.022089 0.003140 0.0
1.951689 1.663863 -0.001852 0.0
3.376277 0.346017 -0.002338 0.0
2.917502 0.149882 0.001197 0.0
2.928969 1.802011 -0.000930 0.0
0.075165 2.029880 0.005384 0.0
3.366745 0.093435 -0.000928 0.0
1.028495 1.661826 0.000647 0.0
0.880414 0.282319 0.002321 0.0
2.383848 0.850216 -0.001206 0.0
1.825748 1.359569 0.000116 0.0
3.573647 0.276198 -0.003338 0.0
3.456849 0.615962 -0.002216 0.0
1.405288 0.167005 -0.000600 0.0
4.737033 1.222520 0.005214 0.0
2.171152 1.157228 0.000431 0.0
4.240636 0.503733 0.003621 0.0
4.523130 0.624276 0.001781 0.0
0.696947 1.230050 -0.001742 0.0
4.571585 1.394782 -0.000669 0.0
0.258128 0.480108 0.000844 0.0
4.354071 1.435359 0.007114 0.0
2.213914 0.635117 -0.000357 0.0
2.104166 0.139336 0.000705 0.0
3.795977 2.093815 0.001199 0.0
0.071159 0.791519 0.002147 0.0
3.689684 1.146923 0.000957 0.0
2.242125 0.782998 -0.000212 0.0
3.981066 1.169093 -0.002438 0.0
3.379012 1.228331 0.001451 0.0
0.768912 0.349205 0.000417 0.0
4.851216 1.082007 0.001876 0.0
1.737923 1.791374 -0.003106 0.0
1.744239 0.631817 -0.000110 0.0
1.854239 1.377753 -0.004567 0.0
2.300923 0.123398 -0.002716 0.0
4.146152 0.140909 0.004171 0.0
3.184790 0.876286 -0.000895 0.0
0.889761 0.687163 -0.002266 0.0
1.909957 0.926215 -0.000555 0.0
2.849441 0.088950 -0.001969 0.0
3.808354 0.717266 0.004605 0.0
2.406976 2.086278 0.000694 0.0
3.393970 2.165812 0.000849 0.0
3.098284 0.114674 0.003800 0.0
1.229116 1.988214 -0.002286 0.0
2.939501 1.886309 -0.000514 0.0
3.559244 1.224337 -0.002396 0.0
0.980730 0.569440 0.003629 0.0
2.921361 1.376174 0.000902 0.0
4.496494 0.692262 0.002864 0.0
4.024271 1.044255 0.002745 0.0
2.914184 0.149633 -0.001406 0.0
3.501367 1.222980 0.001688 0.0
0.082170 0.708879 0.000106 0.0
2.771533 0.759594 -0.004256 0.0
3.203222 1.704073 -0.000394 0.0
0.419983 0.970584 -0.000705 0.0
0.092767 1.550748 -0.001661 0.0
3.546496 0.296218 -0.003198 0.0
0.461007 1.778936 -0.000109 0.0
0.900841 2.154715 0.000977 0.0
2.852007 0.479887 -0.000085 0.0
4.133865 0.487443 0.001198 0.0
2.498800 1.689442 0.001594 0.0
0.023238 1.906099 0.003060 0.0
0.949335 0.506343 -0.001568 0.0
0.301465 1.911925 -0.002158 0.0
0.846319 1.282058 -0.000177 0.0
3.333710 0.133027 0.003200 0.0
1.829481 0.181274 -0.002464 0.0
2.278652 0.404768 -0.001188 0.0
3.863349 0.404269 0.000823 0.0
4.803919 2.120268 -0.001502 0.0
0.141060 2.073308 0.003554 0.0
0.691785 1.505466 -0.003158 0.0
0.442405 1.348009 0.000453 0.0
4.724570 0.809681 0.001470 0.0
3.738500 1.843818 0.003003 0.0
1.158086 2.213178 0.002522 0.0
0.598693 1.559113 -0.003093 0.0
3.658429 0.045681 -0.001529 0.0
2.238448 0.119571 0.005157 0.0
2.276347 1.065300 0.000325 0.0
4.928384 0.190021 0.000012 0.0
4.620313 1.138302 0.006950 0.0
2.479736 0.417740 -0.002324 0.0
4.380547 0.511181 -0.000521 0.0
2.852533 1.229342 -0.000264 0.0
4.182303 0.372734 -0.000385 0.0
4.300915 2.185447 -0.000149 0.0
0.685480 0.075104 0.002599 0.0
4.018947 1.919332 0.000441 0.0
3.401841 1.306621 0.000454 0.0
3.779808 1.949476 0.004198 0.0
0.071794 0.504044 -0.001643 0.0
0.863579 0.673642 -0.000544 0.0
2.196505 0.398932 -0.002760 0.0
3.576571 0.284766 -0.002356 0.0
3.554349 1.245523 0.001436 0.0
4.474422 0.778169 0.000068 0.0
0.356539 0.776689 0.001634 0.0
1.968622 1.225694 0.000255 0.0
2.142035 1.557681 0.003316 0.0
0.214367 1.559278 0.003450 0.0
0.592580 0.318036 0.000089 0.0
3.359678 1.464797 0.004956 0.0
0.981548 1.317115 -0.002476 0.0
4.041278 1.104657 -0.003583 0.0
3.066892 1.630374 -0.001490 0.0
3.028821 1.196518 0.003406 0.0
4.332648 2.046459 0.001918 0.0
2.873194 1.160819 0.002735 0.0
0.972887 1.921132 -0.001387 0.0
2.961662 1.612123 0.002219 0.0
2.059859 0.831559 -0.003066 0.0
2.635533 0.868122 0.005985 0.0
3.633582 1.445520 -0.004117 0.0
3.275596 2.122923 -0.001916 0.0
4.332258 1.779097 0.000291 0.0
0.510523 0.932737 -0.003730 0.0
0.508223 0.408144 -0.000037 0.0
3.875091 0.717869 0.004314 0.0
1.296514 2.036704 0.002902 0.0
0.174441 2.087831 0.000896 0.0
2.440195 1.661093 0.001042 0.0
0.229634 1.523095 -0.000523 0.0
2.092051 1.557422 -0.002471 0.0
0.954036 0.283627 -0.001004 0.0
