1.611616 0.410686 0.000647 0.0
1.040657 0.508648 -0.001020 0.0
3.014894 0.625179 -0.001729 0.0
1.093317 0.793931 0.003848 0.0
2.700364 0.846231 0.002851 0.0
1.051559 1.123780 0.000548 0.0
3.767271 1.169950 0.000104 0.0
0.401430 1.350523 -0.000082 0.0
1.155974 1.481593 -0.004221 0.0
0.623548 1.540007 0.000378 0.0
1.691965 1.217088 0.002946 0.0
3.194733 0.679942 0.001910 0.0
3.620634 0.457358 -0.001209 0.0
0.873488 0.329041 0.001105 0.0
3.041396 1.682507 0.001326 0.0
2.730185 1.365440 -0.001543 0.0
1.454250 0.817204 0.001850 0.0
3.855616 0.140303 -0.000480 0.0
3.547482 0.705654 -0.004039 0.0
3.586626 0.894191 0.004802 0.0
2.667536 0.665975 -0.000282 0.0
4.270428 0.410645 0.002101 0.0
3.215241 1.217867 0.000380 0.0
3.277550 0.201591 0.000320 0.0
4.150144 0.845356 -0.001315 0.0
0.730256 1.738880 0.000062 0.0
4.118053 0.564929 -0.003529 0.0
0.524594 0.874016 -0.000743 0.0
0.204378 0.461422 -0.001895 0.0
1.730944 0.422403 0.001442 0.0
2.537973 1.192157 -0.001645 0.0
3.721678 1.365104 0.001438 0.0
3.202149 0.422564 0.001085 0.0
0.782190 0.435776 -0.001160 0.0
0.499118 1.208235 -0.002915 0.0
1.793922 0.761520 0.004033 0.0
2.714550 0.256768 -0.001298 0.0
4.158874 0.138100 -0.000888 0.0
0.913367 0.288603 -0.000760 0.0
0.901702 0.399816 0.000775 0.0
2.178892 0.669000 -0.000190 0.0
4.392493 1.088587 -0.001002 0.0
4.077087 1.175125 -0.000639 0.0
3.170569 0.791724 0.002828 0.0
0.962545 1.026622 -0.001864 0.0
3.172667 1.431304 -0.000441 0.0
3.226526 1.453339 -0.003181 0.0
1.137431 0.114714 0.005250 0.0
0.698126 1.067238 -0.007057 0.0
4.374433 1.127124 -0.000594 0.0
0.946601 1.156860 0.000035 0.0
3.365142 1.536419 -0.004073 0.0
3.246681 0.389907 0.003793 0.0
1.505623 0.714554 -0.002380 0.0
2.739874 0.708420 -0.000232 0.0
2.610822 0.713035 0.004699 0.0
2.948779 1.638246 -0.003806 0.0
2.294559 0.778471 -0.000181 0.0
0.954403 0.367242 0.000357 0.0
4.040684 1.561946 -0.001269 0.0
3.059920 1.534339 -0.002960 0.0
0.241567 1.289811 0.000278 0.0
4.058606 1.392335 0.002993 0.0
3.330074 0.675015 -0.000716 0.0
0.948368 0.379510 -0.000682 0.0
3.014189 0.229007 0.002883 0.0
0.520004 0.727936 -0.000204 0.0
3.373142 0.420310 0.001463 0.0
2.613696 1.691316 -0.002547 0.0
3.361717 1.181983 -0.002005 0.0
3.200264 0.576038 -0.003689 0.0
1.758411 0.212340 -0.004676 0.0
4.178148 0.627978 0.002441 0.0
2.077033 1.171362 0.001042 0.0
4.312428 0.496578 -0.001848 0.0
2.746316 1.292099 0.002788 0.0
2.513747 0.093952 -0.000439 0.0
3.013587 0.991680 0.001324 0.0
4.290529 1.226750 -0.001954 0.0
2.873938 0.674488 -0.001280 0.0
1.758452 1.432950 -0.002967 0.0
1.196685 0.872808 -0.002038 0.0
2.663483 1.432992 -0.002292 0.0
0.131944 0.334618 -0.001183 0.0
4.114338 0.801605 0.001311 0.0
2.766959 1.710829 0.000285 0.0
2.693314 0.486170 -0.003125 0.0
3.607543 0.844088 -0.001139 0.0
4.187111 1.379247 -0.000890 0.0
2.470045 0.641784 -0.002063 0.0
2.660309 0.304683 0.002663 0.0
1.525092 0.884438 -0.001137 0.0
4.003638 0.070379 0.006573 0.0
0.373203 1.067296 -0.004333 0.0
0.975641 1.670139 0.001710 0.0
3.183922 1.351188 -0.001909 0.0
4.321997 1.492529 0.000709 0.0
3.047252 0.967819 0.001897 0.0
0.606691 1.729257 0.000597 0.0
0.162091 0.720472 0.002525 0.0
2.398416 1.120911 0.001209 0.0
1.452804 1.468189 0.000318 0.0
3.751543 0.131543 -0.001599 0.0
3.787614 0.616229 -0.000469 0.0
1.573583 1.524307 0.000195 0.0
2.672939 0.199095 0.000186 0.0
1.295680 0.258073 -0.003304 0.0
2.875116 0.663356 -0.000659 0.0
2.728340 0.147429 0.002221 0.0
0.192387 0.251675 -0.001299 0.0
0.586189 0.886070 0.002484 0.0
0.678194 1.565155 0.000192 0.0
0.508288 1.115922 -0.003251 0.0
2.570705 0.094354 0.004085 0.0
2.750777 0.603253 -0.002624 0.0
0.351246 1.499166 0.005075 0.0
2.834914 0.201670 0.000356 0.0
0.971579 1.355946 0.000875 0.0
0.503778 0.124810 -0.000360 0.0
0.701796 0.087490 -0.000382 0.0
4.022811 0.147508 -0.002321 0.0
2.773787 1.685013 -0.001578 0.0
4.346236 1.516566 -0.001069 0.0
3.977563 0.168909 0.003533 0.0
1.113378 1.441145 0.001851 0.0
3.976258 0.217243 0.003700 0.0
1.929204 1.648691 -0.003405 0.0
2.575765 1.195685 0.002186 0.0
1.134631 0.907266 0.000121 0.0
2.257297 0.548940 -0.002641 0.0
3.236057 0.225422 -0.001471 0.0
3.550665 1.158404 -0.001483 0.0
3.747268 0.717971 0.001569 0.0
4.100036 1.717068 0.002496 0.0
0.284206 0.662382 0.002970 0.0
1.972137 1.598102 0.003599 0.0
0.181016 0.738497 0.001961 0.0
3.147886 0.653658 -0.005688 0.0
3.830000 0.947320 0.003324 0.0
0.392343 1.178961 0.000134 0.0
1.804120 0.603590 0.002966 0.0
1.793581 0.027354 -0.001419 0.0
4.085802 0.770278 -0.004459 0.0
2.274560 1.327896 0.004008 0.0
2.487187 1.514066 0.001027 0.0
3.392579 1.453310 -0.004010 0.0
2.794502 0.675375 0.002677 0.0
2.492732 1.052887 0.001904 0.0
1.828916 1.638265 -0.000310 0.0
2.396489 0.436253 -0.003938 0.0
2.854492 1.082042 -0.000440 0.0
3.425833 1.153874 0.003570 0.0
4.402634 1.539195 0.002984 0.0
4.258027 1.370277 0.001928 0.0
3.348440 0.269486 -0.002463 0.0
4.371284 0.916264 -0.004928 0.0
3.465653 1.097851 0.000387 0.0
1.845468 1.084107 -0.000825 0.0
0.911417 0.084665 -0.001306 0.0
4.111830 1.536033 0.001004 0.0
0.236238 0.370421 -0.000513 0.0
4.330878 1.121925 -0.001944 0.0
1.134704 0.129777 0.004350 0.0
2.706247 0.270544 0.000145 0.0
2.352384 1.229787 -0.002494 0.0
1.499243 1.151005 0.001126 0.0
1.078963 0.528707 -0.001173 0.0
2.969520 0.760267 0.002105 0.0
4.316440 0.739941 -0.000481 0.0
3.146347 0.083702 -0.000465 0.0
3.951905 1.650064 -0.001553 0.0
3.134558 0.797592 -0.000234 0.0
2.160187 1.216408 -0.001555 0.0
4.336259 1.388566 -0.000171 0.0
0.781015 0.427255 -0.001967 0.0
3.660946 0.587282 0.000671 0.0
2.034919 0.038011 0.000760 0.0
3.857565 0.970761 0.000746 0.0
1.939908 0.911400 -0.002371 0.0
1.184604 1.186038 -0.003348 0.0
1.817095 1.293456 -0.002699 0.0
1.380313 0.686537 -0.000650 0.0
0.530189 1.653998 -0.001833 0.0
0.092932 0.435972 0.000022 0.0
1.716735 1.122085 0.003075 0.0
2.627078 0.967458 -0.004167 0.0
3.429520 0.517092 -0.002419 0.0
2.295675 0.233515 0.000579 0.0
3.006789 0.599072 -0.001347 0.0
3.973071 0.453654 -0.000276 0.0
1.485764 0.082360 0.000913 0.0
1.801187 1.339500 0.000967 0.0
0.495506 1.662227 0.001969 0.0
1.380129 1.032999 0.001033 0.0
3.253679 1.431318 -0.000449 0.0
0.454633 0.864821 -0.003316 0.0
1.624187 1.326487 0.001232 0.0
1.726270 1.110745 0.000445 0.0
0.723387 0.940660 0.006443 0.0
0.237137 1.399694 -0.000260 0.0
2.903478 1.274211 0.000204 0.0
2.676733 1.019275 0.002099 0.0
2.871036 1.321932 -0.002111 0.0
4.289887 0.946632 -0.002948 0.0
3.021875 0.111959 0.001577 0.0
1.783581 0.800670 -0.000239 0.0
2.051642 0.370069 -0.001625 0.0
0.224360 0.184008 0.000588 0.0
2.278756 0.923551 0.004963 0.0
2.755302 0.076175 0.000793 0.0
0.072145 0.163445 -0.002354 0.0
1.160707 1.571529 -0.001217 0.0
4.105762 0.062248 -0.003915 0.0
2.995551 0.448367 0.000488 0.0
0.087060 1.594473 -0.000429 0.0
0.368209 0.931501 -0.001538 0.0
0.785296 0.526678 -0.003054 0.0
2.134907 0.599391 -0.001139 0.0
4.279365 0.267334 -0.000253 0.0
2.135112 0.579093 -0.000823 0.0
4.313871 0.898232 0.002530 0.0
2.707170 0.275973 -0.002649 0.0
1.165728 0.575026 -0.000093 0.0
0.591263 0.624374 -0.001952 0.0
2.550708 0.466845 0.001194 0.0
4.243766 1.578528 -0.000762 0.0
0.478983 1.339534 0.002325 0.0
1.531907 0.246588 0.001284 0.0
1.986778 1.151294 -0.000599 0.0
4.330027 1.604297 -0.002075 0.0
2.301524 0.990417 -0.002431 0.0
1.795030 0.411841 0.002758 0.0
4.079769 1.000330 0.004712 0.0
3.171109 1.303619 0.000171 0.0
3.468360 0.174413 -0.001568 0.0
3.157287 0.546128 -0.003369 0.0
0.414084 1.434208 -0.003064 0.0
0.007024 0.513227 0.002808 0.0
4.357041 1.574358 -0.003039 0.0
2.178958 1.616471 -0.001785 0.0
3.824651 1.390735 0.000211 0.0
2.756354 0.427787 -0.001659 0.0
3.397058 0.078960 0.002000 0.0
0.801157 0.079619 0.000075 0.0
0.994035 1.259881 -0.000829 0.0
3.687137 0.654442 -0.002364 0.0
1.381105 1.256924 -0.000676 0.0
2.574260 0.832929 -0.000676 0.0
0.311592 0.172521 -0.002831 0.0
3.100566 0.903752 -0.001827 0.0
3.647859 0.501182 0.003998 0.0
1.549675 1.097575 0.002047 0.0
0.936783 0.166046 -0.000146 0.0
0.680960 0.241661 -0.002076 0.0
1.499624 0.156266 0.002738 0.0
1.167218 1.202321 -0.003006 0.0
0.993402 1.168518 -0.003748 0.0
1.209540 0.971443 0.002099 0.0
2.359266 0.185192 -0.001990 0.0
2.337288 1.053481 -0.001050 0.0
1.896395 0.175653 0.001183 0.0
3.133131 1.096549 -0.000699 0.0
1.891791 0.866802 -0.001839 0.0
3.273138 1.677093 -0.003783 0.0
0.777630 0.352805 -0.000019 0.0
3.631288 0.199414 0.000836 0.0
3.831693 0.133869 -0.003889 0.0
1.008477 0.958294 0.001452 0.0
2.599087 0.806650 0.001111 0.0
1.583122 1.457367 -0.002343 0.0
0.345223 1.630049 -0.003203 0.0
1.987573 0.588190 -0.001455 0.0
1.199625 0.614125 0.001350 0.0
3.951591 0.293866 -0.003015 0.0
1.784068 0.506350 0.001705 0.0
1.019920 0.255716 -0.002301 0.0
3.563673 0.907193 -0.000360 0.0
2.077622 0.152644 -0.002379 0.0
2.803170 0.313498 -0.003023 0.0
0.554287 0.794225 -0.000375 0.0
1.279390 1.438750 0.001532 0.0
1.105983 0.379066 -0.003749 0.0
1.201936 1.737478 0.001651 0.0
1.055860 0.441300 -0.001447 0.0
3.384433 0.680668 -0.000825 0.0
3.896410 0.961352 -0.000498 0.0
4.322163 1.427179 -0.001979 0.0
3.138548 0.782176 -0.001800 0.0
3.204245 0.521998 0.001327 0.0
1.621458 0.039149 -0.000339 0.0
0.524837 1.596121 -0.003421 0.0
0.093751 1.037926 0.003416 0.0
1.316438 1.308523 0.001577 0.0
3.548410 0.653904 0.000515 0.0
0.032495 1.222673 -0.000921 0.0
0.291810 1.628574 0.001108 0.0
2.549383 0.471821 0.000182 0.0
3.736154 0.174452 0.001285 0.0
0.213997 0.260568 0.002969 0.0
0.456403 0.396215 -0.002553 0.0
1.625668 1.473177 -0.004403 0.0
2.268239 1.340459 -0.001064 0.0
0.077610 0.178172 0.001430 0.0
2.014646 1.103127 -0.002524 0.0
4.106349 0.017234 -0.002193 0.0
2.764236 1.336787 0.000306 0.0
3.928142 0.283574 -0.000331 0.0
1.746635 1.590249 0.000447 0.0
2.629108 1.668571 -0.002116 0.0
0.404965 0.507780 0.003248 0.0
0.071931 0.157719 0.002109 0.0
0.689299 1.614728 0.001606 0.0
2.314389 0.063972 0.002881 0.0
2.532529 0.436418 -0.000463 0.0
1.059540 1.210705 0.003877 0.0
1.600021 1.351078 -0.003159 0.0
2.265921 1.585451 -0.002165 0.0
0.187626 1.262934 -0.000610 0.0
3.188253 0.326734 0.003828 0.0
1.411314 1.331612 0.001429 0.0
4.367460 0.968508 0.005221 0.0
3.290802 0.011524 0.001064 0.0
4.340996 0.861468 -0.001202 0.0
1.234714 0.963787 0.001278 0.0
3.464652 1.255849 0.000222 0.0
3.461866 1.563325 -0.001478 0.0
4.100268 1.128238 0.001053 0.0
2.700500 1.547985 0.001481 0.0
2.753585 0.425982 0.002558 0.0
1.090352 0.301196 -0.002317 0.0
2.333497 1.115456 -0.001040 0.0
3.857639 1.367114 0.003098 0.0
2.113986 1.269392 0.002888 0.0
2.995231 1.600832 0.001269 0.0
2.142616 0.309419 -0.002227 0.0
4.115239 0.826497 -0.000307 0.0
1.277385 0.137891 -0.001264 0.0
4.271079 1.272856 -0.003059 0.0
2.634885 0.489645 0.000778 0.0
3.754530 0.028828 -0.003901 0.0
1.085549 1.516095 0.004993 0.0
1.821214 0.509649 -0.002295 0.0
3.899619 0.670511 -0.002541 0.0
1.792487 0.062619 -0.002116 0.0
2.022330 0.809699 -0.001752 0.0
2.960226 0.368360 -0.003720 0.0
0.154319 1.669616 0.000280 0.0
1.032120 1.152283 -0.000407 0.0
4.363158 1.629122 -0.000816 0.0
3.245571 0.452949 0.004704 0.0
1.491205 0.146087 0.002031 0.0
0.026742 1.052275 0.001935 0.0
0.185314 0.713620 -0.004901 0.0
0.571651 1.132976 -0.002695 0.0
1.122888 1.097129 0.000826 0.0
2.721601 1.607332 -0.001859 0.0
0.777844 0.973638 0.000372 0.0
1.888764 0.965308 0.001736 0.0
2.539759 1.393918 -0.000497 0.0
3.524418 0.256271 -0.001312 0.0
0.173010 0.363600 -0.001326 0.0
0.288383 1.480521 -0.003362 0.0
0.049720 1.301499 0.003919 0.0
1.778517 1.348355 -0.001931 0.0
0.212352 0.798858 -0.000485 0.0
2.866646 0.466584 -0.002258 0.0
0.112463 0.873516 0.000034 0.0
1.323519 1.711760 -0.006683 0.0
1.549164 0.018961 0.001078 0.0
3.738114 0.419681 -0.004101 0.0
1.495566 1.333718 0.000242 0.0
1.483702 0.423464 -0.003888 0.0
0.472560 1.180835 0.002322 0.0
3.845626 0.667596 0.005531 0.0
2.987144 0.260111 0.002238 0.0
2.429965 1.732445 -0.002616 0.0
3.557707 1.161390 0.004663 0.0
1.492102 0.725946 -0.000082 0.0
2.823569 1.331915 0.003583 0.0
3.418919 0.875903 -0.001511 0.0
3.985839 1.541291 -0.000969 0.0
1.585680 1.371729 0.000284 0.0
1.313469 0.880402 0.002527 0.0
0.549580 1.141554 0.001228 0.0
2.659105 0.198816 -0.004818 0.0
0.717181 0.356714 -0.003172 0.0
1.067003 0.616574 0.000874 0.0
4.208596 0.648493 0.003424 0.0
2.157208 0.930064 -0.001456 0.0
2.584823 1.273898 -0.006934 0.0
4.213783 0.053447 0.000903 0.0
3.174260 0.988928 -0.004974 0.0
3.989429 1.481215 -0.002180 0.0
0.531394 1.108964 -0.001793 0.0
2.707720 0.802608 0.001788 0.0
1.724148 0.319614 0.002506 0.0
3.846080 0.538708 0.000107 0.0
0.275807 1.510214 0.001105 0.0
2.979133 1.264811 -0.001068 0.0
0.430922 0.760467 -0.000657 0.0
2.109977 1.485803 -0.000145 0.0
1.221627 1.278722 0.001051 0.0
3.691088 1.369018 0.001027 0.0
2.597475 0.025838 -0.000249 0.0
4.287800 0.844585 -0.004861 0.0
2.669453 0.777948 0.001753 0.0
2.346955 0.763550 0.000451 0.0
0.988056 1.163832 -0.001605 0.0
0.700995 1.693775 0.002550 0.0
1.701185 1.560196 0.003460 0.0
3.669747 0.658705 -0.003870 0.0
0.628234 0.180443 0.000096 0.0
1.973848 1.138298 -0.001376 0.0
4.175533 1.367961 -0.006328 0.0
3.306028 1.425059 -0.001505 0.0
0.384035 1.076513 0.001211 0.0
4.315617 1.580211 -0.002749 0.0
3.667495 1.350869 -0.000186 0.0
1.352844 0.795274 -0.001838 0.0
3.727571 0.754628 0.002388 0.0
2.611918 1.068494 0.000458 0.0
4.038717 1.562581 0.002635 0.0
1.996207 0.260111 0.002046 0.0
2.209751 0.857594 0.003683 0.0
3.401927 0.302553 -0.003123 0.0
3.712144 1.496550 -0.000517 0.0
3.185482 1.252789 0.002560 0.0
1.135650 0.175858 0.004100 0.0
0.023574 1.339545 0.001602 0.0
2.069997 0.660995 -0.000185 0.0
1.815875 0.709412 0.002005 0.0
3.736450 0.953532 0.001383 0.0
3.542758 1.442603 0.004081 0.0
2.418810 0.210767 -0.001241 0.0
4.150027 0.406582 -0.002409 0.0
0.322440 0.517463 -0.001183 0.0
4.159286 1.358604 -0.001736 0.0
1.431092 0.351388 -0.004152 0.0
2.866844 1.076930 -0.001425 0.0
0.717426 0.007407 -0.002190 0.0
2.267715 1.192375 -0.000975 0.0
2.445526 1.154928 0.000297 0.0
1.745243 1.181923 0.006646 0.0
3.077536 0.214518 0.001167 0.0
3.074979 0.002265 0.000218 0.0
3.789606 1.049083 -0.002139 0.0
1.611625 0.714596 -0.001619 0.0
2.101945 1.288301 -0.003428 0.0
0.495437 1.492730 0.001788 0.0
0.572781 0.162529 0.003236 0.0
2.046792 0.502461 0.002320 0.0
2.628102 0.674129 -0.002021 0.0
0.545809 1.642567 0.000223 0.0
2.568695 0.362555 -0.003758 0.0
2.853735 1.656682 0.002187 0.0
2.189383 1.718727 -0.003269 0.0
4.272749 0.354603 0.000721 0.0
3.744817 0.235985 -0.001060 0.0
2.430404 0.836606 0.000452 0.0
0.534425 1.365457 -0.000566 0.0
1.415636 1.694983 0.002502 0.0
3.986553 1.720339 -0.005115 0.0
0.467816 1.217927 -0.007596 0.0
2.506221 0.325246 -0.001481 0.0
2.291903 1.631585 0.000963 0.0
1.672495 0.734354 -0.002064 0.0
0.927807 1.339023 -0.000145 0.0
0.798098 1.384162 -0.003205 0.0
0.215552 1.050631 -0.002143 0.0
0.593232 0.027848 -0.004886 0.0
0.416698 1.533581 -0.002014 0.0
2.707769 0.477583 0.001451 0.0
2.197645 0.353746 -0.003300 0.0
3.507212 1.328370 0.003084 0.0
0.395029 1.714122 0.000524 0.0
2.447846 1.434109 -0.001185 0.0
4.018682 0.301509 -0.002089 0.0
1.072094 0.622819 0.000523 0.0
4.265103 1.391934 -0.000309 0.0
2.108295 0.234629 0.005660 0.0
1.026672 0.513061 -0.001266 0.0
3.534967 1.644966 -0.001264 0.0
3.961029 0.578586 -0.003485 0.0
3.806503 0.087013 -0.000895 0.0
0.088072 1.126272 -0.002431 0.0
0.069078 0.024661 0.003249 0.0
0.988063 0.810741 -0.001127 0.0
4.362008 0.027183 -0.002449 0.0
2.842137 0.638825 0.005769 0.0
0.930327 1.730489 -0.000452 0.0
0.235715 1.604179 -0.001592 0.0
1.934197 0.885012 0.000822 0.0
0.545867 1.378892 0.001705 0.0
2.984225 0.865639 -0.004036 0.0
3.688762 0.059167 0.000255 0.0
3.694536 0.639689 -0.001968 0.0
1.164413 1.679204 -0.000772 0.0
2.500582 1.223193 0.001164 0.0
1.805325 0.295039 -0.002257 0.0
1.846710 0.451617 0.001282 0.0
2.890403 1.428425 0.001771 0.0
4.055415 0.833154 0.000378 0.0
0.828497 0.323495 0.002871 0.0
2.664953 1.344828 0.000210 0.0
0.260115 1.721422 0.000603 0.0
1.660021 0.975529 -0.000242 0.0
3.069387 0.310334 0.002771 0.0
0.536924 0.405828 0.000166 0.0
0.624973 1.695968 0.000609 0.0
2.595361 1.034203 -0.006095 0.0
1.602549 1.585192 -0.000857 0.0
3.945135 1.092552 0.003179 0.0
3.712385 1.365264 -0.001211 0.0
2.062483 1.705260 -0.000263 0.0
0.336424 1.045232 0.000094 0.0
2.805905 0.414844 0.000586 0.0
1.095598 0.931774 0.000401 0.0
0.060464 0.639008 0.002552 0.0
1.174078 0.467298 0.005186 0.0
0.564158 0.264442 0.002886 0.0
3.406654 1.262399 -0.001475 0.0
3.385512 1.146100 0.001144 0.0
3.071100 1.128603 -0.000338 0.0
4.024619 1.395912 -0.000928 0.0
1.636841 1.253177 -0.001811 0.0
0.075860 0.531608 -0.001635 0.0
1.863508 0.567827 0.000958 0.0
2.720069 1.580894 -0.000191 0.0
0.853995 0.721127 -0.000123 0.0
3.164585 0.892594 0.002573 0.0
0.045566 1.361712 0.003420 0.0
3.092757 0.473731 -0.000127 0.0
2.787109 1.698406 -0.000266 0.0
2.895798 1.070657 -0.003036 0.0
3.512852 0.223419 0.001720 0.0
0.678940 1.241319 -0.000998 0.0
1.233480 1.644585 0.000658 0.0
1.622008 1.281403 0.002061 0.0
0.276200 0.557142 0.004760 0.0
2.213346 1.640436 0.003118 0.0
2.472175 0.052539 0.002460 0.0
3.848623 0.031943 -0.001447 0.0
1.693813 1.229279 -0.003157 0.0
2.975350 0.119604 0.003457 0.0
1.907887 1.058129 -0.001318 0.0
2.154265 0.799678 -0.003606 0.0
1.856835 0.839998 -0.002013 0.0
3.589297 1.291294 -0.001069 0.0
1.959163 1.226055 0.002113 0.0
1.970557 0.174663 0.002010 0.0
1.539756 1.614734 0.002479 0.0
0.801360 0.279160 -0.001345 0.0
1.969029 1.710067 -0.000153 0.0
3.020948 0.584856 0.000226 0.0
2.171958 0.103085 0.005085 0.0
0.279596 0.075852 -0.003657 0.0
3.933848 1.254674 -0.003731 0.0
2.884294 0.498618 0.004216 0.0
0.260698 0.904598 0.003100 0.0
0.757443 0.943328 -0.000342 0.0
4.016598 1.136739 0.000893 0.0
2.362792 0.026730 -0.000803 0.0
1.584223 1.427911 0.001731 0.0
2.676600 0.979854 0.000607 0.0
0.085348 1.669090 -0.004458 0.0
2.835142 0.342408 -0.004339 0.0
1.997307 1.223205 0.002217 0.0
4.217033 0.217128 0.003692 0.0
3.682993 0.826474 -0.001975 0.0
0.500625 1.319036 0.000907 0.0
0.669328 0.204977 0.004162 0.0
1.304956 0.547332 -0.000512 0.0
2.075363 0.665697 -0.002103 0.0
0.706326 1.163124 0.004312 0.0
2.628012 1.223687 0.002682 0.0
3.227555 0.529318 -0.000252 0.0
3.496203 1.141871 -0.001231 0.0
2.034022 0.985380 -0.003144 0.0
4.253599 1.628949 0.003111 0.0
2.803014 1.395845 -0.000887 0.0
2.400270 0.726682 0.001437 0.0
2.957505 0.229440 0.000941 0.0
2.019231 1.216313 0.002122 0.0
2.565821 0.818365 0.003321 0.0
2.063536 1.324514 -0.001255 0.0
3.423080 0.734008 0.002843 0.0
2.501208 0.382128 -0.003042 0.0
2.446755 0.116512 -0.002065 0.0
3.808955 0.592033 -0.000994 0.0
0.332319 1.248891 0.000055 0.0
1.861966 1.303556 -0.000127 0.0
3.917013 0.626548 -0.001561 0.0
2.131256 0.886656 0.000915 0.0
0.315109 1.073968 -0.003212 0.0
2.593172 0.577963 0.001410 0.0
3.660286 0.717444 0.000292 0.0
1.985120 1.641608 -0.000328 0.0
2.058870 0.981029 -0.000576 0.0
4.011367 0.945240 0.002125 0.0
0.656595 1.726217 0.001764 0.0
0.992411 1.163823 0.000076 0.0
3.308249 0.235839 0.006961 0.0
1.218224 1.344077 -0.005623 0.0
0.725264 0.446049 0.001161 0.0
3.096502 0.168278 0.000692 0.0
1.570645 1.466789 -0.000621 0.0
2.362376 0.139686 0.003956 0.0
4.297327 0.863233 -0.003132 0.0
0.180775 0.193180 0.002205 0.0
3.209950 1.252121 0.000784 0.0
0.914115 0.420949 -0.000954 0.0
1.818298 0.717346 0.000297 0.0
3.187600 1.123244 0.000184 0.0
1.299925 0.224261 -0.001452 0.0
4.353418 1.220877 -0.000266 0.0
1.917813 0.326207 -0.004769 0.0
0.697219 0.745129 0.000139 0.0
4.369438 0.629439 0.003376 0.0
4.307695 0.359779 0.005006 0.0
0.920919 1.699261 -0.004875 0.0
4.036950 0.878636 -0.000191 0.0
1.469472 1.324560 0.001246 0.0
2.559189 1.337122 0.000198 0.0
0.988483 0.982912 -0.000823 0.0
3.022296 0.253275 0.001567 0.0
1.520532 1.285928 -0.000443 0.0
3.263498 0.529118 -0.000562 0.0
4.150045 0.615402 0.002913 0.0
1.497438 1.224838 -0.000009 0.0
0.022617 0.516693 0.001275 0.0
4.011016 0.351924 -0.000273 0.0
2.284972 1.246919 -0.001167 0.0
2.349527 0.650749 -0.000888 0.0
4.375533 0.472673 0.000607 0.0
0.194631 1.146615 0.000576 0.0
2.205490 0.078846 -0.003919 0.0
0.286005 0.558942 0.003031 0.0
0.514483 1.342450 -0.004297 0.0
2.246044 0.859486 0.001832 0.0
1.858118 0.259281 -0.002748 0.0
2.275005 0.578841 -0.000262 0.0
1.481373 1.733897 0.001670 0.0
4.229004 1.688173 0.003266 0.0
2.342913 0.690460 -0.001376 0.0
2.776268 1.357712 -0.001677 0.0
0.789636 1.035898 0.000863 0.0
3.064616 0.939229 -0.000331 0.0
2.198451 0.889053 0.003070 0.0
4.357894 0.603076 0.001416 0.0
1.997362 0.278418 0.001117 0.0
1.544789 1.406454 -0.003674 0.0
2.883555 1.654396 -0.004411 0.0
0.102751 1.557253 0.000540 0.0
3.368348 1.141418 0.001097 0.0
3.518081 0.026125 0.001523 0.0
2.690935 1.213456 0.001717 0.0
3.581877 1.742532 -0.001535 0.0
3.983107 0.841877 -0.003883 0.0
3.035114 0.972649 0.000299 0.0
0.354965 1.111306 -0.000358 0.0
2.972757 1.354207 0.002872 0.0
3.273663 0.838110 -0.000678 0.0
1.657850 0.732614 0.003852 0.0
0.037304 1.707006 -0.002096 0.0
3.269337 0.083966 -0.002313 0.0
2.714764 0.497950 -0.002886 0.0
0.787837 1.019956 -0.002556 0.0
1.417320 0.641563 0.001579 0.0
1.402411 1.633263 -0.001452 0.0
2.547849 1.563227 0.003569 0.0
0.839353 0.308359 -0.000785 0.0
2.229285 0.841684 -0.000927 0.0
0.476745 1.382838 -0.001542 0.0
4.308916 0.502916 -0.000499 0.0
1.383809 0.894548 0.002375 0.0
4.008891 0.839154 0.001698 0.0
1.881739 0.775091 -0.003071 0.0
0.340281 1.139971 0.000562 0.0
1.835745 0.718445 0.002683 0.0
1.125731 1.025503 0.002639 0.0
0.669859 0.685420 0.001834 0.0
0.131914 0.211145 -0.002504 0.0
0.982850 0.887144 -0.003987 0.0
0.235574 0.503867 -0.002231 0.0
1.069749 0.216934 -0.001762 0.0
3.019523 1.728307 0.000496 0.0
2.472187 0.138500 0.000468 0.0
0.869687 0.803989 0.002506 0.0
3.362078 0.117061 -0.005303 0.0
3.795154 0.706084 0.003199 0.0
0.781010 1.194277 0.000285 0.0
3.370701 1.625383 -0.000646 0.0
0.769666 0.927625 -0.001378 0.0
2.543032 0.820623 0.001171 0.0
1.074441 1.514238 -0.002245 0.0
1.757779 0.346905 0.000089 0.0
0.187035 0.974033 0.003952 0.0
3.954444 1.506644 0.001371 0.0
2.577021 0.471191 -0.001981 0.0
1.994370 0.284526 -0.002364 0.0
0.074079 1.625618 -0.000025 0.0
3.835638 0.022364 -0.005382 0.0
2.591693 1.368056 0.000600 0.0
4.067340 1.479056 0.006256 0.0
1.144292 1.380814 -0.000645 0.0
1.781386 0.431890 -0.003511 0.0
1.739275 0.762541 -0.000514 0.0
1.260990 0.788246 -0.003071 0.0
3.567923 0.796701 -0.000372 0.0
1.896857 1.732809 0.002425 0.0
4.119314 1.525880 -0.000794 0.0
3.014428 1.697408 0.004276 0.0
1.847010 1.080250 -0.004295 0.0
3.889692 1.419138 -0.005440 0.0
0.061071 0.813791 0.000247 0.0
0.751625 0.413573 -0.005227 0.0
0.753136 0.416434 0.006839 0.0
3.417943 0.623704 0.003376 0.0
0.356610 1.697333 -0.002189 0.0
3.609142 0.637727 -0.001168 0.0
0.336310 1.003007 -0.003469 0.0
0.161524 0.754258 0.001555 0.0
2.097462 1.166967 0.006855 0.0
1.210147 0.266639 -0.001828 0.0
0.535972 0.621045 0.001626 0.0
3.068217 0.585558 0.003668 0.0
2.430119 1.624015 0.000120 0.0
1.834055 1.013038 0.003031 0.0
3.001680 1.117254 -0.002407 0.0
2.321198 0.119628 0.001982 0.0
3.188740 1.482546 -0.000106 0.0
2.930737 0.987008 0.000822 0.0
0.169343 1.473103 0.002795 0.0
2.854098 1.588238 0.000154 0.0
1.447824 0.004885 0.004388 0.0
3.903267 1.375718 0.000419 0.0
2.262779 0.607189 -0.001613 0.0
2.054061 1.027052 0.002117 0.0
4.035959 1.422615 0.003598 0.0
3.541585 1.704308 0.000516 0.0
4.047463 0.069195 -0.001141 0.0
2.363904 0.097224 -0.002163 0.0
1.771485 0.916313 0.000801 0.0
2.216709 1.428443 0.001473 0.0
3.589225 0.036970 0.002232 0.0
2.495064 1.033533 0.000019 0.0
4.061741 1.151266 0.004528 0.0
4.192981 0.888118 0.002995 0.0
2.165760 1.246100 -0.003246 0.0
0.755148 1.564848 0.001102 0.0
1.894851 0.328363 -0.001283 0.0
0.076010 0.980699 -0.001947 0.0
3.816098 0.549380 0.002754 0.0
0.502794 1.726691 0.003340 0.0
0.198921 0.954637 -0.000241 0.0
0.401338 0.282418 -0.000011 0.0
1.946938 0.327947 -0.004196 0.0
0.961831 0.837628 0.004284 0.0
0.753292 0.902432 0.003040 0.0
0.600756 0.466840 0.001619 0.0
3.833293 1.496867 -0.004711 0.0
3.245910 1.611271 0.004025 0.0
3.480523 0.858667 -0.000109 0.0
4.097411 0.649140 -0.000726 0.0
3.922686 1.336218 0.002389 0.0
2.765144 0.282964 -0.001820 0.0
3.940620 1.260418 0.000780 0.0
0.317751 0.142281 0.002069 0.0
3.607567 1.258261 0.001254 0.0
0.615670 0.889855 0.002744 0.0
0.352666 0.225515 0.001150 0.0
2.094840 1.559052 -0.001499 0.0
2.943752 0.310061 0.000591 0.0
2.032545 0.549263 -0.001719 0.0
0.068415 0.396136 0.003817 0.0
1.544853 1.091091 -0.000441 0.0
1.556750 0.069464 0.001255 0.0
1.840689 0.769294 0.001677 0.0
3.686374 0.875422 0.000287 0.0
2.693445 0.402417 -0.000815 0.0
0.193268 0.228318 0.000440 0.0
1.114673 1.460607 0.000187 0.0
1.475842 1.385745 -0.001769 0.0
0.611481 1.394740 -0.001130 0.0
3.374384 1.648355 -0.001197 0.0
1.528083 0.741503 -0.005781 0.0
2.295001 1.020900 0.003601 0.0
2.726217 0.513894 0.002280 0.0
0.113454 0.824239 0.000262 0.0
3.677142 0.809469 0.001792 0.0
1.522140 0.683139 -0.000603 0.0
3.421976 1.747336 0.000232 0.0
3.930589 0.735421 0.000164 0.0
1.476307 0.174747 -0.001473 0.0
3.240325 1.268612 -0.000908 0.0
3.624285 0.121777 -0.001550 0.0
3.022825 1.064783 -0.005015 0.0
3.010422 1.197491 -0.000916 0.0
4.126879 0.084559 0.002007 0.0
1.619389 0.386268 0.003366 0.0
0.307749 1.502765 0.001283 0.0
2.960889 0.558671 0.002955 0.0
2.329055 1.358506 -0.003956 0.0
0.916543 0.975263 -0.004286 0.0
2.101953 1.687985 -0.001566 0.0
0.411909 1.579204 -0.000512 0.0
1.783806 0.211615 -0.004856 0.0
0.632971 0.010645 -0.002843 0.0
1.473739 0.041599 0.001080 0.0
3.783712 1.151209 0.001768 0.0
0.957376 0.787406 0.002045 0.0
1.203074 0.321679 -0.001274 0.0
3.648863 1.378317 0.001079 0.0
1.551241 1.367221 0.000241 0.0
1.903845 0.051324 -0.002716 0.0
3.371526 1.472554 0.004976 0.0
4.010965 0.296293 -0.003136 0.0
0.272835 1.401826 -0.001893 0.0
4.122500 1.546448 0.002754 0.0
2.796494 0.979152 -0.002587 0.0
2.674116 0.458508 -0.002852 0.0
3.997309 0.044546 0.000508 0.0
3.295086 0.604820 0.000657 0.0
2.887978 0.484626 -0.001838 0.0
2.447980 1.356473 0.000800 0.0
0.619555 0.502440 0.001118 0.0
2.351392 1.060106 0.002835 0.0
3.931452 0.940876 0.002687 0.0
1.348387 1.096383 0.000851 0.0
0.145710 0.059962 -0.000426 0.0
3.098440 0.451881 0.003205 0.0
4.010540 0.836924 -0.001177 0.0
2.391453 0.584621 0.000085 0.0
1.215142 0.220103 -0.002164 0.0
4.290478 0.945524 -0.002226 0.0
2.307756 1.598221 0.001572 0.0
1.061106 0.270433 0.000724 0.0
2.346489 1.123643 -0.000984 0.0
1.646578 0.202097 0.002444 0.0
1.027572 0.181041 0.001315 0.0
4.285798 0.712639 0.000398 0.0
2.595082 1.633580 -0.000954 0.0
2.695439 0.329453 -0.000701 0.0
3.419391 1.295629 -0.000600 0.0
0.256063 0.300124 0.000742 0.0
2.286652 0.301662 -0.000329 0.0
3.713163 1.292169 0.004365 0.0
2.576629 0.982860 -0.000053 0.0
3.695804 1.109133 -0.000032 0.0
2.193845 0.852189 0.000906 0.0
1.091025 0.265070 0.001766 0.0
3.912442 0.821052 0.002573 0.0
0.399570 1.636721 0.003095 0.0
1.856127 0.039332 -0.004191 0.0
3.585685 1.109918 -0.000209 0.0
2.829286 0.487401 0.003295 0.0
4.382012 1.107288 -0.001873 0.0
2.910534 1.313343 0.005584 0.0
0.423304 1.602609 0.002219 0.0
3.175718 0.744097 -0.003390 0.0
0.454848 0.687443 -0.001055 0.0
0.985791 0.864993 -0.000836 0.0
3.979584 0.766315 -0.003200 0.0
0.693425 0.644394 0.003603 0.0
1.677646 1.586327 -0.000376 0.0
0.375834 0.950263 -0.000101 0.0
3.625267 0.165983 -0.000532 0.0
2.399503 1.466879 -0.000763 0.0
0.522285 0.344610 0.002746 0.0
3.878308 0.511646 -0.000444 0.0
0.479120 0.145552 0.006855 0.0
2.429326 1.446638 -0.002800 0.0
2.539522 1.392701 -0.002005 0.0
2.369043 0.815050 -0.001041 0.0
0.443681 1.242103 -0.003663 0.0
2.418785 0.832208 0.002959 0.0
0.433488 1.165064 0.004258 0.0
0.850195 0.132148 -0.001814 0.0
3.124694 1.491910 0.001275 0.0
4.250591 0.658323 -0.000795 0.0
2.357378 0.308686 -0.000555 0.0
0.350478 1.060179 -0.000980 0.0
0.672261 0.406917 -0.005308 0.0
2.331675 0.259342 -0.007174 0.0
2.717674 0.914547 0.003355 0.0
3.640004 1.135187 0.000074 0.0
3.349594 1.070856 -0.002514 0.0
2.892451 1.728878 0.000027 0.0
1.481163 1.217733 -0.000633 0.0
0.191860 0.610056 0.000658 0.0
3.109817 1.347419 0.000788 0.0
0.781605 0.304296 -0.002298 0.0
3.203558 0.834308 0.003360 0.0
1.414349 1.472345 -0.001482 0.0
3.224350 0.621497 -0.003203 0.0
1.668604 0.558857 0.002069 0.0
1.301510 0.207971 0.003116 0.0
2.031383 1.735027 -0.003097 0.0
2.070249 0.451408 0.002055 0.0
1.413843 0.339208 -0.002673 0.0
2.124403 0.933596 -0.003122 0.0
1.300323 0.115945 0.001081 0.0
2.206447 0.803155 0.004060 0.0
0.361976 1.333580 0.005264 0.0
3.371251 0.665671 -0.003318 0.0
3.126884 1.703503 -0.005396 0.0
0.240378 1.564678 0.000782 0.0
0.216372 0.998459 0.000877 0.0
3.539343 0.822830 0.002337 0.0
0.519618 0.917624 -0.001590 0.0
0.223039 0.798720 0.000777 0.0
2.998080 0.090674 0.007389 0.0
3.725149 1.012277 0.001149 0.0
4.317466 1.189159 -0.003210 0.0
4.129322 0.666717 0.002376 0.0
0.680449 1.585322 0.001492 0.0
0.750440 1.605592 -0.003261 0.0
3.128522 0.602119 -0.001655 0.0
3.948606 0.030329 0.001967 0.0
2.393313 0.179310 0.000745 0.0
1.284766 0.452106 -0.001938 0.0
1.592548 1.641683 -0.003192 0.0
4.220130 1.127565 0.000186 0.0
1.622770 0.604504 0.001072 0.0
2.448191 1.352080 -0.001122 0.0
3.380392 1.109985 0.001946 0.0
0.172277 1.196373 0.000521 0.0
0.741794 0.921189 -0.002755 0.0
4.144855 0.791709 -0.002860 0.0
1.937475 0.951774 0.000344 0.0
2.905923 0.761890 0.001913 0.0
3.383366 1.167627 -0.002694 0.0
0.393865 1.432352 0.000469 0.0
1.123032 0.341399 -0.002896 0.0
3.719676 1.284633 0.003337 0.0
0.637696 1.085317 -0.003264 0.0
4.218756 1.315169 0.001998 0.0
3.231293 1.151373 0.000412 0.0
1.491530 1.545349 -0.000805 0.0
4.235991 0.277311 0.001345 0.0
3.731753 1.534950 -0.001395 0.0
3.866076 0.271217 -0.003078 0.0
0.487815 0.475018 0.001613 0.0
1.391903 1.535650 0.001483 0.0
4.144894 1.607220 -0.003205 0.0
1.918827 1.258385 0.003611 0.0
3.533090 1.333291 0.002143 0.0
4.076840 1.182536 -0.003283 0.0
1.483713 0.567811 0.001553 0.0
2.580131 0.374214 -0.004258 0.0
0.457621 0.820180 0.002273 0.0
1.925273 1.475275 -0.001013 0.0
0.383075 0.597362 -0.002718 0.0
1.154409 0.951129 0.000961 0.0
3.073207 0.504807 -0.003642 0.0
1.623998 1.219948 -0.001070 0.0
1.631935 0.776648 0.001219 0.0
0.626035 0.414782 -0.002896 0.0
0.156216 0.497016 0.000508 0.0
2.383209 0.801525 0.002671 0.0
1.431967 0.295972 -0.001651 0.0
0.755396 0.337465 -0.001790 0.0
1.774185 0.337805 -0.005085 0.0
2.611223 0.216703 -0.001633 0.0
1.523663 1.196322 -0.001285 0.0
1.188610 1.616982 0.000782 0.0
0.050744 0.541099 -0.001877 0.0
1.685509 0.936533 0.003028 0.0
2.690130 1.403247 0.002135 0.0
0.811934 1.440328 0.002798 0.0
1.161469 0.763653 0.001183 0.0
4.156965 0.589674 0.000930 0.0
3.187712 0.991180 0.000589 0.0
4.269267 0.410357 -0.000395 0.0
3.864134 1.671445 -0.001114 0.0
2.749728 0.618039 0.004717 0.0
3.936927 1.098448 0.002366 0.0
1.707046 1.006702 0.001886 0.0
3.019861 0.651955 0.003802 0.0
1.238523 0.894706 0.001611 0.0
3.597473 1.614695 -0.003577 0.0
3.379961 1.276664 0.001623 0.0
2.699690 0.830587 0.000575 0.0
2.717362 1.095921 0.000961 0.0
1.151760 0.260372 -0.005226 0.0
1.310444 1.292937 0.002525 0.0
1.261607 0.345718 0.001930 0.0
0.749950 1.503260 0.004814 0.0
2.092606 1.535809 0.000737 0.0
3.835884 0.609951 0.001831 0.0
1.984049 0.568339 -0.001100 0.0
1.247441 1.187313 0.001287 0.0
2.158748 1.298227 0.000777 0.0
0.767529 0.780113 -0.000970 0.0
1.107468 0.983679 0.000925 0.0
2.872531 1.341158 0.000315 0.0
0.774885 0.884905 0.000409 0.0
1.196267 0.316594 -0.000620 0.0
3.614311 0.319008 -0.005114 0.0
2.912220 1.596100 0.005231 0.0
0.627336 0.412766 -0.000680 0.0
2.056997 0.826161 -0.001457 0.0
4.026107 0.804478 -0.001886 0.0
0.270815 0.727215 -0.002223 0.0
0.050048 0.671181 0.003898 0.0
2.625499 1.067823 0.001082 0.0
0.990069 1.023389 0.004946 0.0
1.268028 1.294691 0.001775 0.0
0.078400 1.186260 -0.002968 0.0
0.026261 1.532339 -0.001374 0.0
4.329376 1.439146 0.000935 0.0
1.683847 0.161404 -0.002280 0.0
2.160849 0.714068 -0.000540 0.0
3.121075 0.263306 -0.002541 0.0
3.398449 1.707421 -0.000403 0.0
3.441659 1.594060 -0.003641 0.0
1.441537 1.493687 -0.002987 0.0
1.123668 0.894155 0.000901 0.0
0.825376 0.556905 -0.000484 0.0
0.962935 1.157417 -0.003441 0.0
1.038773 1.692067 0.001120 0.0
2.944662 0.572596 0.000224 0.0
0.217912 0.937102 -0.000574 0.0
0.911017 0.611732 0.004538 0.0
1.669119 0.018791 0.001342 0.0
3.016171 0.209214 -0.002126 0.0
2.985899 1.579863 -0.005935 0.0
3.555624 1.196160 0.002796 0.0
2.123421 1.451890 0.003036 0.0
0.284643 1.381477 -0.000780 0.0
0.887341 1.363650 -0.000122 0.0
3.773418 0.977567 0.002643 0.0
2.218149 1.719896 -0.000988 0.0
4.116008 1.593673 0.000065 0.0
2.879694 0.936993 -0.003294 0.0
1.986339 0.160757 -0.000321 0.0
0.682489 0.924640 0.000305 0.0
0.809970 0.156165 0.000758 0.0
0.957023 0.407915 -0.000163 0.0
0.313841 1.215419 -0.000611 0.0
0.117160 0.939050 -0.002733 0.0
0.407822 1.507250 0.004208 0.0
0.583801 1.354615 0.001500 0.0
0.985434 1.442086 -0.003938 0.0
4.062751 1.383089 0.001823 0.0
4.365187 1.674005 0.001308 0.0
0.767501 0.499804 0.000530 0.0
2.571274 0.126345 0.000655 0.0
1.458366 1.064742 -0.002920 0.0
1.372525 0.959733 -0.000126 0.0
2.684604 0.619119 -0.000513 0.0
2.066504 0.003216 -0.002075 0.0
2.476022 0.462958 0.000046 0.0
0.449903 0.205735 0.002944 0.0
0.177448 0.206465 -0.004885 0.0
3.171186 1.085946 -0.002218 0.0
0.549066 0.655905 -0.002404 0.0
3.279567 1.540523 -0.000894 0.0
3.646163 0.198103 0.001265 0.0
1.563208 0.144756 0.003959 0.0
2.170555 1.240315 -0.000298 0.0
0.025053 0.260112 0.001154 0.0
3.087663 0.466023 0.001824 0.0
1.496731 0.705164 0.004123 0.0
4.140498 1.571803 0.004247 0.0
1.911894 0.006907 -0.002422 0.0
4.059406 0.247194 0.003891 0.0
2.874861 0.924309 -0.001436 0.0
3.463006 1.216279 0.007274 0.0
1.780793 1.653484 -0.000355 0.0
3.525141 1.535087 -0.002155 0.0
0.985576 0.516722 -0.001468 0.0
0.849514 1.650555 -0.004449 0.0
3.677159 0.563045 -0.003242 0.0
2.237522 1.471168 0.001729 0.0
0.501978 1.554398 -0.001279 0.0
0.694212 1.245997 -0.002886 0.0
4.126427 0.572416 0.002143 0.0
1.381582 1.178928 0.002807 0.0
3.354610 1.653977 -0.002223 0.0
3.430700 0.449013 -0.003804 0.0
3.138796 1.150960 0.004583 0.0
3.933031 0.785120 -0.000436 0.0
3.246518 0.694142 0.001231 0.0
2.858397 0.520707 0.000902 0.0
0.255229 0.544586 0.005989 0.0
3.661969 0.183295 0.002133 0.0
4.250730 1.345412 0.002079 0.0
4.337186 0.822196 -0.001370 0.0
1.345354 0.931752 0.002075 0.0
3.110734 0.135536 -0.000765 0.0
2.814188 1.503468 0.004634 0.0
0.177640 1.353060 0.001136 0.0
1.521775 0.181890 -0.006115 0.0
2.222349 0.649447 -0.000223 0.0
3.522779 0.276931 0.000587 0.0
3.664208 1.644849 0.001561 0.0
0.168033 1.384865 0.000683 0.0
3.399238 1.510035 -0.001716 0.0
0.477149 1.313744 -0.002064 0.0
2.283931 0.309771 0.000154 0.0
4.036044 1.727322 0.001113 0.0
4.149292 1.132246 0.002735 0.0
1.803537 0.478682 0.006916 0.0
0.125446 1.742998 -0.001886 0.0
0.703759 0.030171 -0.001723 0.0
1.837184 1.732457 0.003973 0.0
2.355872 0.353444 0.000455 0.0
3.689392 0.973909 0.000644 0.0
0.950033 1.416533 -0.001628 0.0
2.998830 1.542268 0.000200 0.0
1.333438 1.687405 0.001531 0.0
2.866301 1.620016 -0.001458 0.0
3.252101 0.660908 -0.001575 0.0
1.337987 1.116941 -0.002670 0.0
1.145343 0.057598 0.003810 0.0
2.024464 1.669682 0.000054 0.0
0.984304 1.217905 -0.002978 0.0
1.839470 0.198977 -0.000551 0.0
3.970126 0.264077 0.001216 0.0
1.273522 0.399272 -0.002857 0.0
3.565038 1.737298 -0.000698 0.0
4.198924 0.326991 0.001405 0.0
4.140047 1.605662 -0.004481 0.0
1.901703 1.068412 -0.003062 0.0
0.691799 0.092925 0.000223 0.0
2.409006 1.162325 0.000595 0.0
2.735724 1.255039 0.000023 0.0
3.089685 0.992465 -0.001751 0.0
3.758205 1.308587 -0.001010 0.0
0.207110 0.232389 -0.001912 0.0
2.371215 1.192697 0.003917 0.0
3.026704 1.434440 -0.000674 0.0
1.682728 0.905576 -0.004633 0.0
1.957450 0.234507 0.003461 0.0
0.723101 0.290898 -0.001989 0.0
1.271282 0.769964 -0.001152 0.0
1.406631 1.660099 0.000922 0.0
3.725160 0.990355 -0.000978 0.0
0.995526 0.865258 0.001358 0.0
2.038408 0.884480 -0.005879 0.0
2.323014 0.880573 0.001190 0.0
1.931003 1.505210 -0.001344 0.0
2.322373 0.502436 -0.001440 0.0
1.291130 1.289118 0.004327 0.0
4.032748 0.706163 -0.001156 0.0
1.059352 0.368124 -0.004175 0.0
2.346010 0.480997 0.004479 0.0
2.332272 0.694141 0.003419 0.0
3.385587 1.059345 0.000818 0.0
1.489308 1.360642 -0.003495 0.0
1.907040 1.493731 0.000477 0.0
3.659953 1.573019 -0.000140 0.0
2.232554 1.392804 0.000199 0.0
2.955427 0.194387 0.000282 0.0
1.630041 0.630592 -0.000646 0.0
1.197300 0.759992 -0.001631 0.0
3.368840 1.519636 0.002276 0.0
0.295270 0.914773 0.001272 0.0
0.369010 1.602170 -0.000216 0.0
0.023086 0.796515 -0.001252 0.0
1.189349 0.092967 -0.005018 0.0
1.797287 1.255395 0.003047 0.0
1.112089 0.158499 0.002922 0.0
0.904448 0.368115 -0.001157 0.0
4.228548 0.805013 0.002027 0.0
3.516946 1.723940 0.000873 0.0
2.039734 0.260143 -0.003996 0.0
2.844591 1.145255 -0.000480 0.0
3.125731 0.482326 -0.001376 0.0
1.207744 0.026214 0.001272 0.0
3.516388 0.290442 0.003514 0.0
3.359953 1.246977 -0.002931 0.0
2.481845 1.088945 0.002443 0.0
1.131699 0.578438 -0.000773 0.0
0.726910 1.040821 -0.000068 0.0
1.511714 0.376938 0.000099 0.0
3.469088 0.271183 -0.000194 0.0
4.195780 1.286856 0.003641 0.0
0.415321 0.523432 0.001066 0.0
2.779754 1.476978 -0.000014 0.0
2.926110 1.469014 -0.000335 0.0
3.653779 1.007369 -0.001903 0.0
0.079582 1.295527 0.001578 0.0
0.410360 0.622545 -0.004758 0.0
2.894783 0.819680 -0.000755 0.0
0.727466 0.905618 0.000653 0.0
2.160242 0.855180 0.004149 0.0
0.869183 1.419740 0.000607 0.0
2.612455 1.121061 0.001131 0.0
1.038655 0.614827 0.001243 0.0
3.852818 1.670862 0.003338 0.0
1.468107 0.199185 0.000616 0.0
2.120363 0.329901 -0.002704 0.0
3.906322 1.657433 -0.005479 0.0
1.751896 0.647116 -0.000741 0.0
4.020284 0.459686 0.002947 0.0
0.097983 0.308993 0.000580 0.0
2.364488 1.670386 -0.001956 0.0
3.801216 0.741605 0.006072 0.0
4.346155 0.148834 0.003908 0.0
3.947310 0.045397 0.000840 0.0
1.011561 0.896312 0.000519 0.0
3.077048 0.631912 -0.001455 0.0
3.429200 1.592060 0.003948 0.0
1.647412 1.042559 -0.002767 0.0
4.099219 1.212528 0.002488 0.0
0.302570 0.220957 -0.003505 0.0
3.138024 0.650509 -0.005045 0.0
0.464202 0.666701 -0.005113 0.0
3.074715 1.712420 -0.000464 0.0
1.494009 1.181237 -0.003135 0.0
0.477244 1.310036 -0.001176 0.0
3.109042 1.154213 -0.002801 0.0
1.067938 0.883547 -0.000280 0.0
3.420475 1.247439 0.004721 0.0
1.973514 1.647488 -0.001849 0.0
0.805246 0.138599 0.002131 0.0
0.067489 0.988768 -0.002351 0.0
1.992669 0.388393 -0.000780 0.0
0.736406 1.070656 -0.000040 0.0
3.342986 0.348908 -0.001063 0.0
2.193922 0.109931 -0.003133 0.0
3.893166 0.951723 0.003835 0.0
2.062432 0.203097 0.008254 0.0
3.702636 0.555404 -0.001795 0.0
1.943758 1.372531 -0.009272 0.0
1.663168 0.941228 0.000991 0.0
2.521836 0.761540 -0.000997 0.0
2.949358 0.878185 -0.003105 0.0
2.612220 1.495702 -0.001800 0.0
1.714209 0.895369 -0.002273 0.0
2.729316 1.555943 -0.000104 0.0
2.386810 0.308853 -0.000200 0.0
2.240463 0.505705 0.004557 0.0
1.474913 1.221194 0.000948 0.0
1.543972 0.366376 0.005209 0.0
3.315669 1.638080 0.001251 0.0
0.743875 1.520626 -0.003386 0.0
1.445837 1.654436 -0.002885 0.0
4.060456 1.388555 -0.004429 0.0
3.125550 1.520372 -0.001752 0.0
0.529292 0.049242 0.003075 0.0
0.797008 0.745231 0.003000 0.0
0.684113 1.294654 0.006951 0.0
4.365696 0.894155 0.005000 0.0
3.949668 1.005333 -0.003574 0.0
1.213083 1.501207 -0.001486 0.0
4.095063 0.271788 -0.001531 0.0
1.926824 1.087327 -0.001943 0.0
0.464200 1.071874 0.000994 0.0
2.346422 0.180665 0.004496 0.0
0.225315 0.088257 -0.000677 0.0
3.671973 0.167359 0.001538 0.0
2.880673 0.510183 0.000852 0.0
0.511275 1.029321 0.002501 0.0
2.102084 0.464766 0.001522 0.0
2.446689 0.394898 0.000301 0.0
3.281366 0.872925 0.001310 0.0
1.373025 0.849729 0.001167 0.0
1.160910 0.647912 0.000025 0.0
1.786173 1.055323 0.000626 0.0
1.176384 1.525779 0.000433 0.0
3.185002 0.981773 -0.001123 0.0
0.429474 0.675933 -0.000355 0.0
2.319983 1.145067 0.002188 0.0
3.977806 1.400041 0.000819 0.0
2.357764 0.479834 0.003587 0.0
3.375748 0.409258 -0.001799 0.0
1.410443 0.105223 0.000639 0.0
0.506534 0.247409 0.000201 0.0
2.091578 0.921719 -0.001321 0.0
0.422127 0.810942 -0.000388 0.0
2.637419 1.326521 0.002900 0.0
1.519658 0.258051 0.001743 0.0
2.780922 0.067197 0.000048 0.0
3.750031 1.150811 -0.000836 0.0
1.960276 1.483722 -0.002433 0.0
0.680006 0.334849 -0.000459 0.0
2.318495 1.635790 -0.001240 0.0
1.710043 0.074516 0.002636 0.0
0.165150 0.938666 0.000180 0.0
4.279806 1.422087 -0.001644 0.0
0.112229 0.200304 0.000454 0.0
4.105328 1.739515 0.001140 0.0
1.694861 1.044915 0.000482 0.0
0.826556 1.465356 0.001171 0.0
2.637796 1.129797 0.003317 0.0
2.414320 0.512625 -0.002387 0.0
0.081963 0.176071 0.000196 0.0
3.489874 1.246646 -0.001480 0.0
1.391279 0.790765 0.003617 0.0
0.067965 0.360767 -0.000170 0.0
3.741892 0.818347 0.000092 0.0
1.428066 1.563683 -0.003800 0.0
0.159814 1.098114 -0.003542 0.0
3.599043 0.855857 -0.003292 0.0
1.624242 0.586335 -0.001007 0.0
1.865525 0.658660 -0.002611 0.0
1.111926 0.838525 -0.000162 0.0
2.581495 0.198743 -0.000262 0.0
0.673466 1.006353 0.004849 0.0
0.152700 1.157906 -0.004100 0.0
0.604135 0.860172 0.001100 0.0
1.364034 1.603069 0.001143 0.0
2.614464 0.562692 0.000322 0.0
2.047795 1.694535 0.001986 0.0
2.836299 0.518152 0.004985 0.0
2.893989 0.493721 0.000356 0.0
0.146171 1.702194 0.001440 0.0
0.026233 0.790768 0.002506 0.0
4.277010 1.605029 -0.004923 0.0
3.823181 1.563709 -0.002157 0.0
0.518196 1.625389 0.000209 0.0
2.851758 1.548994 -0.000713 0.0
1.841130 0.917468 0.000182 0.0
3.244407 1.015111 0.002470 0.0
1.863506 1.658059 -0.001130 0.0
2.979847 1.107966 0.002074 0.0
3.339539 1.672885 -0.001842 0.0
3.843580 0.536830 0.000757 0.0
1.780175 1.185033 0.001998 0.0
3.107600 0.608391 -0.002938 0.0
1.144421 0.496998 -0.000860 0.0
0.685115 0.030091 0.002742 0.0
2.125662 0.864627 -0.000556 0.0
3.580127 0.321867 -0.002381 0.0
3.695696 0.198115 0.000173 0.0
3.427772 0.637989 0.001928 0.0
0.327432 1.306017 0.000362 0.0
3.377106 1.036493 -0.002474 0.0
1.199038 0.540633 -0.000720 0.0
1.359390 1.522918 -0.002218 0.0
1.044015 0.282111 -0.001361 0.0
0.138190 1.022191 -0.001653 0.0
3.136272 0.427307 0.005076 0.0
3.045311 1.458979 0.002191 0.0
1.455996 0.176048 0.001786 0.0
1.139250 0.712950 -0.001793 0.0
4.217331 1.200043 0.002016 0.0
3.574342 0.381246 -0.002037 0.0
4.007018 0.547324 0.001668 0.0
2.323526 0.271445 -0.002223 0.0
4.132927 1.166838 0.002983 0.0
2.134466 1.641543 -0.000329 0.0
2.926226 1.345372 -0.002599 0.0
1.401145 0.947444 0.000577 0.0
3.335017 0.964772 0.002205 0.0
3.685600 1.062641 -0.004783 0.0
2.799005 0.740933 0.002843 0.0
0.455308 0.228895 -0.002756 0.0
1.423523 0.788746 -0.000189 0.0
0.988503 1.234620 -0.000002 0.0
1.454744 0.854898 0.002793 0.0
0.102125 0.851027 -0.000752 0.0
3.724535 0.435918 -0.000371 0.0
2.705270 0.157727 0.000777 0.0
2.928846 1.404070 0.000165 0.0
2.113381 1.283776 0.001429 0.0
1.964572 0.560639 0.001011 0.0
3.819793 1.060189 -0.000472 0.0
0.904702 1.689617 -0.000167 0.0
1.977476 1.577520 0.001744 0.0
3.785459 0.860065 0.000541 0.0
1.590415 0.200502 0.002974 0.0
1.781410 0.659835 -0.001869 0.0
4.010130 0.721091 -0.002108 0.0
4.249212 0.845231 -0.002003 0.0
3.136875 1.065625 0.002984 0.0
2.261099 1.601807 -0.001688 0.0
0.578521 0.094127 0.000482 0.0
0.326676 1.382169 -0.000775 0.0
1.118030 0.636011 -0.000373 0.0
3.650618 1.294073 -0.002437 0.0
2.186869 1.144935 0.002486 0.0
2.676907 1.307966 -0.000399 0.0
1.784681 1.744444 -0.003114 0.0
4.227399 0.611053 -0.000076 0.0
3.086896 1.253312 0.000533 0.0
1.803164 0.354315 -0.001107 0.0
4.192658 0.359180 -0.001333 0.0
0.712861 0.496551 0.002392 0.0
3.039077 0.628372 -0.002399 0.0
1.039158 0.465558 0.001367 0.0
1.130397 1.541968 0.000441 0.0
1.262822 0.202751 -0.000214 0.0
1.656469 0.975143 -0.000516 0.0
2.046004 0.197890 -0.004118 0.0
2.836721 1.475416 -0.003911 0.0
2.282867 1.011674 0.003148 0.0
2.931212 1.205216 -0.002127 0.0
0.689932 1.519342 -0.004525 0.0
2.378622 0.957098 0.002051 0.0
0.687210 1.593069 -0.000021 0.0
0.675445 0.254892 0.001225 0.0
2.031073 1.279203 0.001793 0.0
2.590149 0.167094 0.001923 0.0
2.540214 1.268620 -0.001294 0.0
2.714783 1.706885 0.003205 0.0
3.424270 0.363824 -0.005742 0.0
2.573131 1.383386 0.002421 0.0
3.679965 0.209819 -0.000024 0.0
3.620319 1.371555 0.002276 0.0
0.655369 0.709806 0.000481 0.0
2.699672 1.669701 -0.002280 0.0
2.900931 1.410959 0.004768 0.0
4.200535 0.474182 0.002204 0.0
0.906016 0.441181 0.004943 0.0
1.387079 1.238399 0.000983 0.0
2.167132 1.541166 0.001485 0.0
1.407434 0.086157 0.004542 0.0
1.468638 0.706488 0.003067 0.0
3.032641 0.816333 -0.000682 0.0
2.208795 1.433071 -0.004294 0.0
0.394596 0.335629 0.002808 0.0
2.163457 0.666686 0.002975 0.0
2.711698 1.683905 -0.002217 0.0
3.125877 1.131405 0.001664 0.0
3.164083 1.158201 -0.000145 0.0
3.222037 1.439536 0.002207 0.0
0.675775 1.517582 -0.003916 0.0
1.905746 1.530592 -0.000497 0.0
1.838850 1.580018 0.000412 0.0
2.669709 0.711811 0.003487 0.0
0.004241 0.802438 -0.005677 0.0
0.312848 0.005871 -0.000551 0.0
3.533988 0.461666 0.002510 0.0
3.827418 1.113549 0.000002 0.0
1.566408 0.715513 0.001672 0.0
2.453393 0.284103 0.002013 0.0
1.893630 1.204107 -0.002006 0.0
3.380195 0.417376 0.000253 0.0
4.237663 1.251743 -0.000778 0.0
3.599352 1.734961 0.000348 0.0
0.129186 0.930705 -0.002977 0.0
4.325128 0.882362 0.000681 0.0
3.558923 0.056959 0.001485 0.0
0.518256 0.628750 0.000357 0.0
2.441884 0.156691 0.001682 0.0
2.993072 0.182824 0.000144 0.0
3.634044 0.031857 -0.000932 0.0
2.617313 1.616353 0.002188 0.0
2.679853 1.144262 -0.001489 0.0
2.134262 1.080631 0.001887 0.0
2.930785 1.506931 0.001979 0.0
1.492120 1.011978 0.005243 0.0
1.862204 1.074066 0.000146 0.0
0.388136 0.383926 0.000960 0.0
2.843454 0.639437 -0.001861 0.0
2.501450 1.178053 0.000811 0.0
2.082729 0.096279 -0.000325 0.0
0.986380 0.232884 -0.003004 0.0
0.333125 0.345273 0.001949 0.0
2.540190 1.556120 -0.002651 0.0
2.956253 0.347394 -0.000208 0.0
1.933240 0.062669 -0.002659 0.0
3.000380 0.345842 -0.002920 0.0
2.600023 0.374371 -0.001271 0.0
2.583691 0.743881 -0.002300 0.0
3.850941 0.022589 -0.001043 0.0
0.944894 1.168838 -0.000338 0.0
2.457434 1.739269 0.001398 0.0
3.387706 0.124374 -0.003797 0.0
2.602147 0.474929 0.000783 0.0
0.024882 0.499026 -0.001694 0.0
3.009133 1.726458 -0.003273 0.0
4.234043 1.476459 -0.003219 0.0
1.803663 0.853376 -0.001478 0.0
2.746642 0.736638 0.003707 0.0
3.873027 1.071127 0.001912 0.0
2.807774 1.088741 0.001723 0.0
2.425138 1.451291 -0.000090 0.0
1.903342 1.624523 -0.001998 0.0
3.187419 1.628668 0.004117 0.0
1.096525 0.432469 -0.007284 0.0
3.383450 0.516243 -0.002632 0.0
1.996462 1.655190 0.004333 0.0
0.055713 0.857455 0.000500 0.0
4.140711 0.191034 -0.001166 0.0
3.053873 0.048797 0.000453 0.0
3.648272 1.342513 0.005963 0.0
3.777508 1.040687 -0.005511 0.0
2.577388 1.058881 0.001223 0.0
4.199794 0.622688 -0.001316 0.0
2.041746 0.660775 0.001119 0.0
4.331005 1.352381 -0.001514 0.0
1.282662 0.264973 0.000454 0.0
3.308734 1.631690 -0.000207 0.0
2.356757 1.014906 -0.002083 0.0
0.686131 0.062052 -0.001863 0.0
1.131355 0.995102 0.001529 0.0
2.240887 1.606409 -0.005246 0.0
4.106484 0.266051 -0.003121 0.0
2.353605 0.996858 -0.002895 0.0
0.775707 1.565157 -0.001204 0.0
0.893446 1.524024 -0.002217 0.0
4.184582 1.097871 -0.000431 0.0
1.512879 0.910461 -0.000717 0.0
1.356492 1.535247 0.000430 0.0
1.196398 0.368723 0.000682 0.0
3.240493 0.693028 0.001414 0.0
4.002866 1.471958 -0.000038 0.0
3.511121 0.162166 -0.001178 0.0
1.857305 0.980461 -0.000068 0.0
0.478447 1.290870 0.000306 0.0
3.545293 1.234132 0.001142 0.0
0.630791 1.325929 -0.002590 0.0
0.663019 1.385520 -0.001793 0.0
0.116084 0.602768 -0.001109 0.0
0.645604 1.495585 0.000540 0.0
4.372348 0.181656 0.003680 0.0
0.114350 0.798060 0.001824 0.0
0.863358 0.671920 0.000384 0.0
2.899343 0.022691 -0.002238 0.0
2.528006 1.630377 0.003694 0.0
2.877155 0.633023 -0.005189 0.0
0.821562 0.747349 0.001512 0.0
1.048013 1.180443 -0.001328 0.0
1.947735 0.843953 0.003029 0.0
1.590686 0.397932 -0.001477 0.0
0.300432 1.360579 0.001033 0.0
0.342478 1.053104 -0.000836 0.0
2.207167 0.589368 -0.000190 0.0
