0.65948775 1.49721794 0.00182455 0.00000000
2.15148953 1.17224480 -0.00321755 0.00000000
4.51373336 0.51566652 -0.00154062 0.00000000
1.28377663 1.14019860 -0.00186776 0.00000000
4.34679247 0.83108191 0.00177282 0.00000000
4.49774104 0.31470744 0.00299722 0.00000000
2.78812450 0.83664913 0.00044601 0.00000000
3.97139505 0.63736177 -0.00476177 0.00000000
2.18205463 1.58954488 0.00216941 0.00000000
2.13826574 0.47117097 0.00017317 0.00000000
3.78825376 1.87010404 0.00079022 0.00000000
0.21078244 0.91046431 -0.00117474 0.00000000
3.74243666 2.06377979 0.00090336 0.00000000
4.30947615 1.31330860 -0.00209503 0.00000000
3.36030106 2.02079856 -0.00105350 0.00000000
3.04844750 1.14151854 -0.00062370 0.00000000
2.96715218 0.24235629 0.00307890 0.00000000
4.60984736 1.02833380 0.00230892 0.00000000
3.95508401 0.58829082 0.00145117 0.00000000
3.17736700 0.58099322 0.00153388 0.00000000
4.85336687 1.64808433 -0.00272343 0.00000000
3.76185395 1.70163764 0.00004389 0.00000000
4.07702689 1.13230475 0.00412808 0.00000000
4.52776524 1.14634531 -0.00378840 0.00000000
3.41968244 0.07794088 0.00060361 0.00000000
3.39162621 1.67290274 -0.00341109 0.00000000
4.13355866 1.49825935 -0.00179926 0.00000000
2.63388159 0.62243839 0.00121215 0.00000000
2.78833157 1.48129326 0.00228797 0.00000000
4.82483603 0.69180622 -0.00131016 0.00000000
2.41673141 0.37528536 0.00326283 0.00000000
1.00269447 0.71779383 0.00192820 0.00000000
0.28541196 0.59460198 -0.00102251 0.00000000
0.78424617 1.68357138 0.00218352 0.00000000
0.94706047 1.40302827 0.00137148 0.00000000
1.99345661 0.60178528 -0.00100756 0.00000000
1.80857177 0.18301507 -0.00190460 0.00000000
4.94549263 0.38896437 -0.00018184 0.00000000
4.93370580 1.13031386 -0.00522742 0.00000000
3.00998525 0.38437777 0.00163030 0.00000000
1.18822355 2.02198207 0.00194499 0.00000000
2.63788747 1.36958075 0.00075059 0.00000000
1.09031916 1.21187483 0.00624405 0.00000000
0.67214244 0.44306255 -0.00004920 0.00000000
0.27842953 1.56911899 0.00031225 0.00000000
2.95052786 1.41008868 0.00337071 0.00000000
2.33387348 0.83393468 -0.00345599 0.00000000
3.14529275 2.03443537 0.00262092 0.00000000
0.99971388 1.43949243 -0.00191957 0.00000000
0.62369765 1.28622252 0.00195241 0.00000000
1.70670845 2.02391518 -0.00588024 0.00000000
0.49481617 1.28950256 -0.00069147 0.00000000
4.79947306 0.59785795 -0.00065219 0.00000000
4.86664715 0.19466939 0.00186349 0.00000000
1.39667254 0.40107632 -0.00189600 0.00000000
4.40552816 1.27081902 -0.00288617 0.00000000
4.61192952 1.02466049 0.00147112 0.00000000
1.72845834 1.00647064 0.00046364 0.00000000
1.63767971 2.02667542 -0.00205540 0.00000000
3.25809726 1.37755648 -0.00115892 0.00000000
3.71410853 0.55815285 -0.00259237 0.00000000
0.09915562 0.08491552 0.00084529 0.00000000
0.43425381 1.70067799 -0.00144668 0.00000000
4.60290350 1.71018796 -0.00320952 0.00000000
1.13062457 1.14842484 -0.00427533 0.00000000
2.30845618 0.16727709 0.00000591 0.00000000
1.78596911 0.31535088 0.00063473 0.00000000
3.20058397 0.31732600 0.00279360 0.00000000
2.09531434 1.33808600 0.00416470 0.00000000
0.88686571 0.13521580 -0.00044690 0.00000000
4.55801251 1.66959305 0.00291047 0.00000000
2.02548056 0.90840443 -0.00086568 0.00000000
3.94814880 0.40684959 0.00228012 0.00000000
3.74840648 0.21908477 -0.00287771 0.00000000
1.49491267 1.20893786 -0.00055790 0.00000000
4.62698889 1.78126197 0.00121586 0.00000000
0.58282650 0.29690222 0.00365754 0.00000000
4.57027747 0.23118752 0.00141272 0.00000000
3.42292995 0.55568452 -0.00247360 0.00000000
2.24314648 2.02125144 0.00127153 0.00000000
3.36403451 1.68677487 -0.00116561 0.00000000
1.53782481 1.63588597 -0.00120129 0.00000000
1.17418753 1.30457668 -0.00398022 0.00000000
3.79618907 1.93971689 -0.00246021 0.00000000
0.73118260 1.63514089 -0.00264169 0.00000000
0.77551602 0.98559030 -0.00105551 0.00000000
4.41884805 0.25391900 0.00011053 0.00000000
2.24082829 1.69074656 0.00150522 0.00000000
4.46781725 0.09489562 0.00384723 0.00000000
3.69774346 0.89521773 -0.00092932 0.00000000
3.13919194 0.22136975 -0.00332469 0.00000000
0.92985593 0.92037033 0.00290825 0.00000000
3.07268050 0.23795129 0.00035654 0.00000000
0.73713469 1.37816285 0.00186514 0.00000000
1.59898860 0.20427998 -0.00351874 0.00000000
1.03456233 0.58176664 -0.00229716 0.00000000
4.30621228 1.89083085 0.00321490 0.00000000
4.59933316 0.60548134 0.00089632 0.00000000
0.78491157 1.27425500 -0.00003781 0.00000000
3.96483680 1.88188486 0.00068649 0.00000000
3.65766892 0.23897881 0.00340887 0.00000000
2.07223928 1.17532051 -0.00027099 0.00000000
1.20712851 1.17515369 0.00148425 0.00000000
3.02914575 1.83612939 0.00116190 0.00000000
2.04130434 2.09193442 0.00472874 0.00000000
3.89336121 0.62538908 -0.00055666 0.00000000
2.30557859 0.57628537 0.00468983 0.00000000
1.38797597 2.08454671 0.00236457 0.00000000
3.51496858 1.64267108 -0.00266836 0.00000000
3.99596185 0.36151063 0.00316865 0.00000000
1.06824479 1.41117390 -0.00139637 0.00000000
3.55115373 0.26657587 0.00043067 0.00000000
0.90993494 1.24029402 0.00053082 0.00000000
4.09350378 1.03696493 -0.00002240 0.00000000
4.72639971 1.78552195 0.00165147 0.00000000
2.13545638 1.98519246 0.00261089 0.00000000
3.21540999 0.38920382 -0.00106254 0.00000000
0.47708010 1.99887758 0.00124543 0.00000000
0.34649976 0.42366412 0.00341991 0.00000000
3.09614720 0.72829554 0.00319429 0.00000000
1.66208326 1.70131300 -0.00315057 0.00000000
2.41506056 0.79481633 -0.00299633 0.00000000
3.35890898 1.66142865 0.00293347 0.00000000
1.07678282 0.30164282 -0.00032327 0.00000000
0.80557230 1.75109220 -0.00410500 0.00000000
0.17091531 0.63194290 -0.00162022 0.00000000
0.70843356 0.32219020 0.00309653 0.00000000
0.06152265 0.85283386 0.00228342 0.00000000
3.98740168 1.12864981 -0.00169320 0.00000000
3.49913056 1.66346835 0.00303646 0.00000000
2.30489876 0.70618911 0.00221109 0.00000000
3.76047409 1.87692951 0.00175196 0.00000000
0.79959687 2.09887047 -0.00472238 0.00000000
2.43784740 0.64244635 -0.00318610 0.00000000
1.10918820 1.76396160 0.00032538 0.00000000
4.54718658 2.04336572 -0.00038630 0.00000000
1.79027163 1.93089165 -0.00186301 0.00000000
4.64517324 1.01068363 -0.00144361 0.00000000
0.37061501 1.63609574 -0.00473371 0.00000000
4.11341963 1.19759186 0.00003719 0.00000000
2.76360590 1.21040887 -0.00225669 0.00000000
1.24487992 1.03718102 0.00025530 0.00000000
4.92421623 1.63528175 -0.00134286 0.00000000
0.81165965 1.26849660 -0.00203330 0.00000000
2.89878092 1.95138906 0.00318934 0.00000000
3.44832884 1.59721482 0.00251386 0.00000000
1.12777560 1.45555594 0.00340935 0.00000000
2.29787145 1.38301970 -0.00357290 0.00000000
2.32707387 1.06998404 0.00391745 0.00000000
0.08852600 0.58422738 -0.00066531 0.00000000
4.23819462 1.27559251 -0.00176332 0.00000000
0.68587978 1.42198891 0.00217698 0.00000000
3.73488507 1.07063697 0.00060137 0.00000000
1.04270692 0.76689568 0.00392834 0.00000000
3.62560871 0.52538349 0.00361675 0.00000000
3.66013914 0.77629944 0.00028099 0.00000000
1.68342027 0.86044255 0.00261958 0.00000000
0.49300552 0.32195933 0.00035230 0.00000000
0.87153917 1.48061276 -0.00043316 0.00000000
4.60335011 1.32120038 -0.00008329 0.00000000
3.70274565 1.53374839 0.00067166 0.00000000
2.60864479 0.85239413 -0.00480682 0.00000000
3.35019275 0.40242341 -0.00087480 0.00000000
3.72921422 0.99079977 -0.00275898 0.00000000
1.13024658 0.61987289 -0.00423497 0.00000000
3.35600565 1.70603924 -0.00028621 0.00000000
0.01057650 0.68240120 0.00171477 0.00000000
3.99178633 0.61724255 -0.00578571 0.00000000
3.84371025 2.02907829 -0.00082318 0.00000000
4.15838178 1.08986551 -0.00006566 0.00000000
2.54237346 0.38374149 -0.00098658 0.00000000
1.72150201 0.94913347 0.00137898 0.00000000
2.23939375 0.95223040 0.00186200 0.00000000
4.15048591 0.53039109 0.00177691 0.00000000
2.19716197 1.87313004 -0.00216471 0.00000000
1.93174752 1.29208656 0.00349298 0.00000000
1.21780033 0.13519262 -0.00000966 0.00000000
4.14594316 0.02423615 0.00169176 0.00000000
3.87692539 0.18807809 0.00191286 0.00000000
2.77185352 0.09380600 0.00094757 0.00000000
3.79285904 1.96382123 -0.00163523 0.00000000
0.26065970 0.71894036 -0.00010434 0.00000000
3.92905195 0.06027924 -0.00161167 0.00000000
1.25161955 0.52869809 0.00224521 0.00000000
0.44272180 1.60131962 0.00121463 0.00000000
1.85605734 1.60899109 0.00266322 0.00000000
4.16855006 0.29346806 -0.00238171 0.00000000
0.22947182 0.57570932 -0.00176553 0.00000000
3.51829700 1.15938304 -0.00051703 0.00000000
1.65392765 1.84233721 0.00215195 0.00000000
0.76389675 1.74438474 -0.00211617 0.00000000
0.35661009 0.43126964 -0.00309034 0.00000000
0.61740974 0.73921571 0.00043543 0.00000000
4.92045980 0.81807720 -0.00246230 0.00000000
1.46609008 1.61726878 0.00031940 0.00000000
0.60315426 0.98511552 -0.00013693 0.00000000
4.38246574 1.70244390 0.00284429 0.00000000
2.32369003 1.69198374 -0.00417037 0.00000000
1.47895087 2.02648221 -0.00209513 0.00000000
0.95681761 1.06666080 0.00164630 0.00000000
4.77398829 1.01335089 -0.00079104 0.00000000
3.26174056 1.88684278 -0.00234102 0.00000000
0.47449391 1.16410958 0.00325022 0.00000000
2.73505364 0.48512964 -0.00265333 0.00000000
0.54434110 0.35889489 0.00056655 0.00000000
0.15361178 0.44392027 -0.00163958 0.00000000
3.97717470 0.37884238 -0.00201159 0.00000000
2.07921376 1.57154200 0.00506414 0.00000000
0.92274834 2.07301604 -0.00028204 0.00000000
3.22630029 0.13505323 -0.00028904 0.00000000
3.31640265 1.97796478 0.00333074 0.00000000
2.58751368 1.71648488 -0.00039428 0.00000000
2.88222711 1.81205462 -0.00309111 0.00000000
4.33873963 1.43857666 -0.00532658 0.00000000
1.25173630 0.11125771 0.00037223 0.00000000
2.54356263 1.77894755 0.00167071 0.00000000
4.54367210 0.95290776 -0.00381028 0.00000000
3.87456935 1.52931607 -0.00077101 0.00000000
4.29309544 0.42392408 0.00046731 0.00000000
0.57353030 0.33999459 0.00099018 0.00000000
4.67883998 0.14236343 -0.00660357 0.00000000
1.95136782 0.62940237 -0.00420641 0.00000000
0.50578959 0.95392153 -0.00466460 0.00000000
3.38865185 1.85057565 -0.00247903 0.00000000
2.87248589 2.11666433 -0.00090293 0.00000000
0.17860479 1.50092379 -0.00344128 0.00000000
0.23549940 0.09711839 0.00029791 0.00000000
4.53925388 0.68153585 0.00231994 0.00000000
2.07190767 1.24133403 -0.00142215 0.00000000
0.02688499 1.57807907 -0.00135255 0.00000000
4.17103465 1.15680814 -0.00068438 0.00000000
2.83406148 1.94394683 -0.00059626 0.00000000
4.22479393 1.13822309 -0.00254454 0.00000000
1.51958452 0.01257078 0.00165301 0.00000000
1.20103277 1.27916455 -0.00120607 0.00000000
4.67291945 0.89802546 -0.00080382 0.00000000
3.00409348 0.89630981 0.00013979 0.00000000
0.19478470 0.44727863 0.00138591 0.00000000
4.74430378 0.47634629 -0.00040841 0.00000000
4.42996883 1.37649687 -0.00219426 0.00000000
3.17266317 2.12368128 -0.00052235 0.00000000
0.07923435 1.68682501 -0.00027987 0.00000000
4.32406553 0.30005992 -0.00207016 0.00000000
3.74036047 1.67003793 0.00052025 0.00000000
0.25460470 0.63169402 0.00146019 0.00000000
1.13035494 1.90809665 -0.00075575 0.00000000
4.41991030 0.17873328 -0.00469809 0.00000000
2.42139622 0.32975951 0.00280403 0.00000000
1.84636226 0.25768477 0.00273093 0.00000000
0.95178315 1.40860743 0.00284741 0.00000000
4.38795613 1.41856393 -0.00703811 0.00000000
0.06714595 0.88483194 0.00032247 0.00000000
1.10283977 0.96243919 -0.00074805 0.00000000
0.97694005 0.16397326 0.00469862 0.00000000
0.07688627 0.43072666 -0.00104015 0.00000000
1.92552276 0.33638358 0.00329178 0.00000000
0.89122073 0.89463371 -0.00136053 0.00000000
2.90657184 0.91765607 -0.00311582 0.00000000
0.57829825 1.26948046 0.00035123 0.00000000
3.16781884 1.14297486 0.00462769 0.00000000
4.34965377 1.17839486 0.00094440 0.00000000
2.13558796 1.53532181 0.00501795 0.00000000
1.34218468 1.35808590 0.00018984 0.00000000
1.95237374 1.55264053 -0.00248700 0.00000000
0.31164938 1.62096315 0.00398680 0.00000000
4.32387551 0.81521430 -0.00276077 0.00000000
2.41815448 1.42444195 -0.00176690 0.00000000
2.82288797 1.97361085 0.00266996 0.00000000
1.16115747 0.29060164 -0.00161560 0.00000000
1.12406957 0.49166151 0.00121254 0.00000000
1.32985150 0.90423900 -0.00338332 0.00000000
0.84807969 0.65195580 -0.00518149 0.00000000
1.85842001 1.48850304 0.00018248 0.00000000
0.33746453 1.34660649 -0.00054431 0.00000000
2.73429120 0.49687517 -0.00069852 0.00000000
3.62777404 0.04158155 0.00264193 0.00000000
4.13103306 1.39725160 -0.00163212 0.00000000
0.78678572 2.07107879 -0.00171922 0.00000000
0.03382211 0.88439918 0.00084456 0.00000000
1.30866428 0.46237452 0.00142515 0.00000000
3.79333057 2.08710348 -0.00238826 0.00000000
2.38423269 0.39747466 -0.00322233 0.00000000
1.82544155 2.06373887 0.00004167 0.00000000
0.64239212 0.60747818 0.00094798 0.00000000
4.33966053 0.29584778 0.00273574 0.00000000
0.60666324 1.20169732 0.00004692 0.00000000
3.11140782 0.62259691 -0.00295393 0.00000000
0.53949290 1.73825345 -0.00369666 0.00000000
3.88664016 1.02060344 -0.00282897 0.00000000
1.64399630 1.58978228 -0.00007709 0.00000000
0.91809030 0.23067866 -0.00201061 0.00000000
1.16515964 1.72226287 0.00302613 0.00000000
4.87327724 0.69937150 -0.00148041 0.00000000
3.58199761 1.94323938 -0.00175480 0.00000000
0.24610414 1.39028900 -0.00138687 0.00000000
2.73122105 1.53742114 -0.00126935 0.00000000
3.01552935 1.39700915 -0.00031617 0.00000000
0.88764575 1.80943662 -0.00460864 0.00000000
4.65256676 0.98378270 0.00145288 0.00000000
3.87868248 0.37953426 -0.00012488 0.00000000
1.43367410 0.01770506 0.00182157 0.00000000
4.86482837 0.31639779 -0.00547266 0.00000000
3.83290685 0.36263458 0.00100624 0.00000000
2.19384530 1.24691951 -0.00017115 0.00000000
3.57763420 0.77995883 0.00167007 0.00000000
2.87681286 2.09109329 0.00460689 0.00000000
4.80933175 1.81417629 -0.00114330 0.00000000
1.66034950 1.03558184 0.00035395 0.00000000
0.39950935 1.49835022 -0.00139884 0.00000000
0.68249058 0.87644789 0.00208229 0.00000000
0.41278092 0.08630150 0.00157604 0.00000000
1.56445115 0.70462953 0.00077719 0.00000000
0.36446745 1.06229378 -0.00167553 0.00000000
0.10184158 0.14118193 0.00561152 0.00000000
0.58489820 1.09968654 -0.00366979 0.00000000
3.11836467 1.17890784 0.00569477 0.00000000
1.12094296 1.50355310 -0.00416181 0.00000000
0.63168093 1.01174472 0.00097343 0.00000000
1.19473614 1.07247871 0.00046093 0.00000000
2.35495321 0.28805056 0.00143757 0.00000000
1.39002340 2.10882524 0.00060831 0.00000000
0.12638066 2.10508824 -0.00243587 0.00000000
3.62992063 0.14693151 -0.00140574 0.00000000
3.68529933 0.62029107 -0.00381693 0.00000000
0.54853973 1.55209902 0.00269868 0.00000000
3.34769605 0.51136289 -0.00199107 0.00000000
2.33811065 0.78389539 0.00196671 0.00000000
3.69676706 1.20558198 0.00810599 0.00000000
2.36339005 1.76725578 0.00168825 0.00000000
2.30846501 0.63826495 0.00333597 0.00000000
4.38974382 0.13648809 0.00571375 0.00000000
0.54084685 0.12651730 0.00123981 0.00000000
0.06346435 0.14098690 0.00539867 0.00000000
3.89353301 1.46071511 0.00235759 0.00000000
1.19649529 2.00130549 -0.00402775 0.00000000
0.83677293 0.16930806 -0.00291415 0.00000000
0.92126066 0.92696854 0.00132248 0.00000000
1.15885733 0.92894799 -0.00083843 0.00000000
2.20465575 0.81279890 -0.00182862 0.00000000
3.34688714 0.88889418 -0.00018303 0.00000000
1.20937594 0.46235066 -0.00049549 0.00000000
0.90990112 0.65315416 -0.00072173 0.00000000
4.75950269 1.68243286 0.00082565 0.00000000
3.66906840 0.14068498 0.00046878 0.00000000
0.93181037 1.61063226 0.00198793 0.00000000
0.69482647 0.99775451 0.00087062 0.00000000
2.94346278 0.53307528 0.00039460 0.00000000
4.32625168 0.85380100 0.00078048 0.00000000
1.05916203 0.40749747 0.00072727 0.00000000
1.70837348 1.66274281 -0.00292896 0.00000000
2.99024405 0.43673096 0.00238233 0.00000000
3.95086726 0.93281821 -0.00259771 0.00000000
0.87035635 1.28935054 -0.00217963 0.00000000
0.47265978 1.81042389 -0.00337617 0.00000000
3.91231013 0.97442568 -0.00361920 0.00000000
2.69380312 0.54660521 -0.00127287 0.00000000
1.21833511 1.67528591 -0.00035226 0.00000000
0.20406005 1.66917954 -0.00229231 0.00000000
3.46832289 1.61216018 -0.00174196 0.00000000
4.61118610 0.21248015 -0.00100177 0.00000000
3.83551047 1.72640165 -0.00494761 0.00000000
0.27841833 0.59881507 0.00218608 0.00000000
0.95372615 0.37249586 0.00091916 0.00000000
4.50287395 1.11726884 0.00483902 0.00000000
3.85310586 0.23571132 0.00028579 0.00000000
0.50949392 2.09663643 0.00201633 0.00000000
1.65562041 1.48099740 0.00039531 0.00000000
0.58514561 0.48032570 -0.00277974 0.00000000
4.63095163 0.37337481 -0.00023127 0.00000000
4.23176150 1.21468989 -0.00366344 0.00000000
1.27411293 0.49712312 0.00090216 0.00000000
3.64571391 1.54206024 -0.00117186 0.00000000
1.42793694 1.54007316 0.00336857 0.00000000
1.41652906 1.10351495 -0.00484920 0.00000000
1.67594720 0.33018519 -0.00032311 0.00000000
0.50121424 0.42121199 0.00258354 0.00000000
1.31815745 0.19633963 0.00217485 0.00000000
3.24820665 0.12311300 0.00020178 0.00000000
0.21113898 0.22888088 0.00392204 0.00000000
0.26211286 1.14747691 -0.00181419 0.00000000
3.05307250 1.36249316 -0.00002121 0.00000000
1.99279328 0.64291187 -0.00072120 0.00000000
1.42571691 0.16791928 -0.00058553 0.00000000
1.31014715 0.07909666 -0.00038670 0.00000000
1.92759072 0.26934081 -0.00237951 0.00000000
0.91181781 1.21245527 -0.00045592 0.00000000
0.71094704 0.37708003 0.00127876 0.00000000
0.89706630 1.82239164 -0.00066294 0.00000000
1.18349977 1.96070152 0.00235085 0.00000000
4.78726077 0.40714634 -0.00193159 0.00000000
4.04293244 1.42302869 0.00065370 0.00000000
0.81774898 1.85466608 0.00145590 0.00000000
3.61665676 1.58911118 -0.00100463 0.00000000
0.38387256 1.08682697 0.00002616 0.00000000
3.38064230 1.20852158 0.00013224 0.00000000
1.60817753 0.09250294 0.00026816 0.00000000
2.89959340 1.42961766 0.00315503 0.00000000
0.96739004 2.06053044 -0.00070208 0.00000000
3.58751423 1.43654927 -0.00122381 0.00000000
3.05942286 0.12308801 -0.00265528 0.00000000
1.58851012 0.38492619 0.00112336 0.00000000
3.66456937 0.45323587 -0.00036512 0.00000000
2.36478816 1.63078097 -0.00372344 0.00000000
1.15620243 0.94220391 0.00416582 0.00000000
0.77514147 0.54419209 0.00059339 0.00000000
1.98624093 2.01713517 -0.00116164 0.00000000
2.81147733 1.72944951 0.00167611 0.00000000
1.55191121 1.21324307 0.00234659 0.00000000
3.78020445 0.72946536 -0.00041785 0.00000000
2.34918091 1.97165190 0.00108570 0.00000000
0.91052272 0.80706228 -0.00257501 0.00000000
0.49486341 0.44555381 0.00089830 0.00000000
1.71112865 1.72624437 -0.00308117 0.00000000
4.08187383 0.99619541 -0.00148309 0.00000000
3.18000995 1.21821759 0.00183611 0.00000000
1.66950515 0.62525798 -0.00031145 0.00000000
1.39815878 1.24540105 -0.00039323 0.00000000
4.63495995 0.90530385 -0.00665617 0.00000000
2.10617993 0.72594198 0.00158741 0.00000000
3.61880620 0.36302866 -0.00201798 0.00000000
0.53100970 1.03408583 0.00203980 0.00000000
1.50854535 0.68403559 -0.00315839 0.00000000
0.97730231 1.99486894 -0.00001308 0.00000000
0.61925253 1.46352970 0.00049083 0.00000000
3.83633339 0.35855660 -0.00070867 0.00000000
1.14453283 0.48639395 0.00114626 0.00000000
1.96746651 1.78853282 -0.00174170 0.00000000
2.65056156 1.14506624 0.00475036 0.00000000
2.21111933 2.03420645 -0.00255362 0.00000000
1.02869396 0.29151086 0.00389012 0.00000000
2.90288952 1.03523393 -0.00150411 0.00000000
0.84378895 0.32321991 -0.00184831 0.00000000
4.54224563 1.85108767 -0.00464423 0.00000000
0.71885797 1.40691675 -0.00143796 0.00000000
1.54295006 1.46772142 0.00310400 0.00000000
3.66111072 1.89917775 0.00388958 0.00000000
1.18727918 0.40539564 -0.00032193 0.00000000
0.66023454 0.32169065 -0.00388597 0.00000000
2.49206057 0.13053129 0.00101866 0.00000000
0.31218555 1.39736595 0.00158113 0.00000000
3.96389079 0.05361959 -0.00256435 0.00000000
0.22783278 0.59357543 -0.00059718 0.00000000
4.55959075 1.26483660 -0.00106340 0.00000000
1.00560348 0.58445741 -0.00090266 0.00000000
1.02768925 0.62052098 -0.00209413 0.00000000
1.01537370 1.10509111 0.00047857 0.00000000
0.73466269 1.64246511 -0.00224785 0.00000000
1.99011948 0.54746300 0.00280473 0.00000000
4.42551063 1.24721037 0.00226634 0.00000000
4.03262548 0.66560499 -0.00023160 0.00000000
4.36544055 0.16357910 0.00225830 0.00000000
1.42860028 1.59182126 0.00279106 0.00000000
3.20232076 1.07058733 -0.00103205 0.00000000
3.50022254 0.13464088 -0.00483137 0.00000000
0.05076537 1.51714719 0.00229910 0.00000000
0.62563639 1.13472993 0.00255404 0.00000000
3.11231248 1.30251800 -0.00095565 0.00000000
2.09225543 0.74332788 0.00209615 0.00000000
2.29391351 0.58885292 -0.00454237 0.00000000
3.76227900 1.67411498 0.00267169 0.00000000
4.07529376 0.55329554 0.00180193 0.00000000
3.62609944 1.34131078 0.00266875 0.00000000
2.14312658 0.63285425 0.00249507 0.00000000
3.74603050 1.88084789 0.00211051 0.00000000
0.29878771 0.31920106 0.00073706 0.00000000
3.00693329 0.01053541 -0.00088413 0.00000000
0.26060367 1.05959896 0.00156077 0.00000000
1.19869873 0.95194553 0.00186199 0.00000000
0.72078563 2.00583653 0.00350659 0.00000000
4.72903893 0.04295825 0.00082601 0.00000000
4.26876552 0.74277530 0.00017889 0.00000000
3.28350597 0.37246245 0.00017741 0.00000000
1.67639778 1.90956933 -0.00057076 0.00000000
4.43998773 1.10526700 0.00714187 0.00000000
3.63181619 1.42310163 -0.00108345 0.00000000
2.30135689 0.55519324 0.00616028 0.00000000
1.91631155 0.12173530 0.00198820 0.00000000
2.37625528 0.40686089 -0.00022690 0.00000000
1.92426741 1.98027523 0.00208725 0.00000000
2.06098998 0.13316705 0.00112679 0.00000000
2.81735235 0.24803826 0.00029658 0.00000000
1.62152739 1.78313135 -0.00209668 0.00000000
2.63025453 1.26343575 0.00075606 0.00000000
4.19093741 1.41772715 0.00092091 0.00000000
2.41006311 1.64024032 0.00039670 0.00000000
4.85401618 0.23689155 -0.00323111 0.00000000
1.07301989 1.48576263 0.00026434 0.00000000
4.22916837 0.27586487 -0.00059308 0.00000000
4.17580893 0.76932295 0.00324396 0.00000000
0.01641669 1.62104801 -0.00085031 0.00000000
3.11286023 0.22399521 0.00171010 0.00000000
3.78320999 0.01122025 -0.00033453 0.00000000
3.74082458 1.31603470 0.00092717 0.00000000
2.21482760 0.29137213 0.00221988 0.00000000
2.27487036 1.26855662 0.00196991 0.00000000
4.41375887 0.57698026 -0.00217165 0.00000000
2.26019583 0.26792911 0.00147393 0.00000000
1.56170873 1.94107776 0.00091023 0.00000000
1.33937532 0.64911941 0.00146105 0.00000000
1.51142633 0.79485217 -0.00231050 0.00000000
2.89492523 0.62242578 -0.00235100 0.00000000
1.95827580 0.24551411 -0.00019671 0.00000000
4.26916391 0.06584109 0.00111596 0.00000000
0.67283732 1.16125415 0.00137555 0.00000000
1.76929041 0.55327098 -0.00293763 0.00000000
2.79745392 1.36148208 0.00549543 0.00000000
4.71863427 0.14764078 -0.00331183 0.00000000
3.99197850 1.16944630 -0.00155228 0.00000000
2.84467239 1.64900398 -0.00207396 0.00000000
1.60120449 2.12941798 0.00356087 0.00000000
3.70048167 0.19201247 0.00048468 0.00000000
4.38163805 1.49904978 0.00075131 0.00000000
4.14316770 1.69734440 -0.00154983 0.00000000
0.00742346 1.64805443 0.00069123 0.00000000
0.60468121 1.06496065 0.00002511 0.00000000
0.09963721 0.24547058 0.00100517 0.00000000
1.55199583 0.62886484 0.00015154 0.00000000
0.39486994 2.03603081 0.00586825 0.00000000
1.90624856 0.94529447 -0.00108946 0.00000000
2.47299911 1.49194597 -0.00128655 0.00000000
4.49550527 0.57509782 -0.00018897 0.00000000
3.32181356 0.73543910 -0.00117063 0.00000000
1.60820904 1.79056311 0.00044251 0.00000000
4.30432777 0.49569029 -0.00096352 0.00000000
2.66643607 0.46388010 -0.00295533 0.00000000
4.24508494 1.32614812 -0.00373313 0.00000000
3.55445309 0.11428738 -0.00006611 0.00000000
1.79605316 1.26876855 0.00203988 0.00000000
2.99727433 2.07055819 -0.00269787 0.00000000
0.35037541 2.02265990 0.00215588 0.00000000
3.69269794 0.25985722 0.00245043 0.00000000
0.60106387 1.90253950 -0.00012899 0.00000000
4.74427348 0.84925854 -0.00206082 0.00000000
1.27020428 1.96640542 0.00430156 0.00000000
3.04456226 0.26024083 0.00108867 0.00000000
4.52808533 0.89495297 0.00136752 0.00000000
0.71955383 0.44314134 0.00177602 0.00000000
0.56301272 0.65069255 -0.00220471 0.00000000
1.43393065 1.37865239 -0.00107079 0.00000000
1.08660782 1.10871717 -0.00026686 0.00000000
3.82213499 1.04762004 -0.00023448 0.00000000
4.47595942 1.76165924 0.00332080 0.00000000
4.36029876 0.90468802 0.00043439 0.00000000
0.30597663 1.30732081 0.00157621 0.00000000
4.40623479 1.07371895 -0.00047847 0.00000000
3.86571085 1.39465530 0.00001716 0.00000000
1.66141150 0.53890578 -0.00506555 0.00000000
1.22667607 0.57265238 0.00034069 0.00000000
3.01708296 0.19341126 0.00079086 0.00000000
0.22503244 0.55344653 0.00069944 0.00000000
4.57151388 0.45595915 0.00250841 0.00000000
0.92546921 1.70989705 -0.00042688 0.00000000
3.17113905 1.87187782 -0.00347622 0.00000000
2.60501417 0.46574067 -0.00145275 0.00000000
4.78617238 2.05988694 -0.00016233 0.00000000
1.33084878 1.78381015 0.00274306 0.00000000
2.95012469 1.42276192 -0.00142953 0.00000000
0.51064027 0.47684703 -0.00011004 0.00000000
0.70561102 1.55575295 0.00151950 0.00000000
1.50335975 0.29240563 -0.00241434 0.00000000
0.08292915 1.34313925 -0.00167866 0.00000000
0.08276350 1.99694109 0.00310836 0.00000000
3.10004977 1.31641481 -0.00088378 0.00000000
3.80415564 0.34863029 0.00077117 0.00000000
3.74340146 1.66147742 0.00140462 0.00000000
0.35516101 1.56755859 0.00121870 0.00000000
1.17540797 0.35358713 -0.00158747 0.00000000
2.34127979 0.86048384 -0.00297628 0.00000000
1.22247692 1.10747165 0.00520451 0.00000000
0.65787036 1.83742863 0.00141592 0.00000000
4.41873369 1.36267415 -0.00441772 0.00000000
4.33735359 1.93311592 -0.00145773 0.00000000
0.98518054 1.73978345 0.00380559 0.00000000
4.26966238 0.65120816 0.00258596 0.00000000
2.42027429 1.71991337 0.00169478 0.00000000
0.11193287 1.85346580 0.00348106 0.00000000
0.70040393 0.24925851 -0.00133483 0.00000000
4.45678097 1.05555600 -0.00119106 0.00000000
1.98895166 1.14658716 0.00359650 0.00000000
2.76363430 0.68013123 0.00419608 0.00000000
3.85197605 0.31725604 -0.00002004 0.00000000
4.18674981 1.65230216 0.00139349 0.00000000
2.29363873 0.01080947 0.00198879 0.00000000
0.59311339 0.30792450 -0.00464045 0.00000000
2.79708788 1.21690890 0.00138876 0.00000000
4.93247445 0.34419951 -0.00279329 0.00000000
1.11916973 1.83852729 -0.00390411 0.00000000
2.02889302 1.77128647 0.00054895 0.00000000
3.08365260 1.25496304 0.00029118 0.00000000
1.21227460 1.07204614 0.00274433 0.00000000
3.71670746 0.09689231 -0.00157157 0.00000000
2.05607057 0.93431068 0.00261804 0.00000000
3.60471112 0.73630461 0.00099144 0.00000000
4.57825837 1.90926709 0.00280597 0.00000000
4.83552419 0.19664647 0.00017076 0.00000000
0.66068386 1.32277254 -0.00193742 0.00000000
1.23160215 0.03560629 0.00128544 0.00000000
2.19935985 1.23333779 0.00116358 0.00000000
2.19440004 1.01905307 0.00158510 0.00000000
3.91888222 2.04148863 0.00370492 0.00000000
4.11280612 0.80054280 -0.00218868 0.00000000
1.46724426 0.88605251 0.00324143 0.00000000
3.13749464 1.54009447 -0.00082511 0.00000000
4.46894423 1.23990231 0.00265901 0.00000000
4.78583873 0.36542013 0.00147862 0.00000000
0.48336277 0.62234827 0.00323913 0.00000000
1.59803494 0.35175747 0.00220399 0.00000000
1.57384258 0.79771015 -0.00127725 0.00000000
0.28277914 0.63488824 0.00106052 0.00000000
1.17619996 2.04232623 0.00159886 0.00000000
0.37560586 1.89601186 0.00208758 0.00000000
2.67481654 1.82437162 -0.00711004 0.00000000
1.45177354 0.97023654 -0.00353644 0.00000000
3.93337814 0.47052559 0.00129219 0.00000000
0.22626964 0.49043747 -0.00221354 0.00000000
3.41582096 1.09663530 -0.00058941 0.00000000
4.84203780 1.73581163 0.00091987 0.00000000
4.75510227 0.89595906 0.00141435 0.00000000
3.70914453 1.51852531 0.00295439 0.00000000
1.30778053 1.68868751 0.00183077 0.00000000
4.86433257 1.95930850 -0.00109819 0.00000000
2.03845326 0.12250049 0.00428926 0.00000000
0.63625445 0.93823580 -0.00018820 0.00000000
2.60827743 0.67050151 0.00478086 0.00000000
1.36263585 0.17546437 0.00591308 0.00000000
3.56881458 1.19423136 0.00042869 0.00000000
2.15598826 0.93087132 -0.00135795 0.00000000
2.50402084 0.06077962 -0.00003126 0.00000000
3.82386868 1.16653584 0.00207433 0.00000000
1.29736173 0.47008456 0.00066875 0.00000000
2.79407801 1.11917826 -0.00023540 0.00000000
3.21970265 1.71414244 0.00376279 0.00000000
1.41815106 1.12166830 -0.00121936 0.00000000
1.89944206 0.43221849 -0.00035247 0.00000000
4.29155089 0.13536119 0.00164990 0.00000000
4.14268205 0.93305852 0.00186304 0.00000000
3.62314807 1.48055649 -0.00181211 0.00000000
1.24153167 1.19186599 0.00213340 0.00000000
2.97499846 0.80298973 -0.00417878 0.00000000
4.39609720 1.72632110 -0.00132164 0.00000000
4.84819847 0.81968710 0.00311713 0.00000000
2.52641987 0.84506329 -0.00200635 0.00000000
1.80279742 1.63356696 0.00028121 0.00000000
3.10034908 1.79344958 0.00272856 0.00000000
1.96010206 1.37384746 -0.00119897 0.00000000
0.54406900 1.46631543 0.00007785 0.00000000
2.28586443 0.68127161 -0.00280727 0.00000000
1.64363668 1.17151508 -0.00016718 0.00000000
4.75344490 0.53243811 -0.00185504 0.00000000
2.11476866 1.04191471 0.00334444 0.00000000
0.51374855 0.16703456 -0.00111899 0.00000000
1.29232902 0.77479062 -0.00313671 0.00000000
2.38593705 0.44638565 0.00217416 0.00000000
1.00168268 1.43712250 -0.00056046 0.00000000
4.72188004 2.13257640 0.00446984 0.00000000
0.75654608 2.07036536 -0.00323715 0.00000000
0.65330030 0.69457537 -0.00272299 0.00000000
3.00412296 0.38909676 0.00153156 0.00000000
2.99165887 0.05240072 -0.00048104 0.00000000
2.10491638 2.09674021 -0.00599129 0.00000000
3.00032191 0.02431607 0.00027068 0.00000000
3.96935804 1.67266001 0.00309238 0.00000000
0.70262136 2.10463931 0.00115119 0.00000000
4.06207441 1.28607244 0.00079771 0.00000000
0.22182889 0.18760671 -0.00150146 0.00000000
2.97802478 0.59171738 0.00109497 0.00000000
2.97920767 2.11869876 0.00047682 0.00000000
1.19082791 0.37347005 0.00229680 0.00000000
0.98789172 1.52249817 0.00153265 0.00000000
4.13705777 0.57984001 -0.00216005 0.00000000
0.69919898 0.67881413 0.00221271 0.00000000
1.71723694 1.22189885 0.00557308 0.00000000
1.43155356 0.63363396 -0.00197440 0.00000000
0.97607864 0.37746675 0.00022163 0.00000000
4.84840959 0.43666200 -0.00024061 0.00000000
2.52722873 1.10519615 -0.00013995 0.00000000
2.27896620 0.20171348 0.00392194 0.00000000
3.28777800 0.91453896 0.00000421 0.00000000
1.49669494 0.06196741 -0.00324244 0.00000000
2.00237488 1.41550650 -0.00381152 0.00000000
3.32278800 0.50901124 0.00171881 0.00000000
2.08256992 0.40628965 0.00005831 0.00000000
3.23252540 1.72753665 -0.00074313 0.00000000
2.45775075 1.50842290 0.00257956 0.00000000
0.33795453 1.54161572 0.00144618 0.00000000
0.21295406 1.40413296 0.00083204 0.00000000
0.11318963 0.74491464 -0.00034521 0.00000000
3.61539862 1.55618831 -0.00028217 0.00000000
0.80803879 0.14082696 0.00163367 0.00000000
0.92012443 2.06155469 -0.00013326 0.00000000
2.12224543 0.98035664 -0.00171561 0.00000000
1.02490900 1.77213507 -0.00264164 0.00000000
3.91209331 0.69510311 -0.00273219 0.00000000
0.21527008 0.09667976 0.00084667 0.00000000
3.15949155 1.52909240 0.00042626 0.00000000
3.23989637 1.13412422 -0.00045717 0.00000000
4.64952437 0.23857553 -0.00156892 0.00000000
1.24109268 0.06950575 -0.00159620 0.00000000
2.95568051 1.37396809 0.00322667 0.00000000
3.21060471 1.76734121 0.00090593 0.00000000
3.67354099 1.10921762 -0.00151289 0.00000000
3.46044044 1.10265762 -0.00168186 0.00000000
0.94299702 1.91882399 -0.00118786 0.00000000
2.32711205 0.81078914 0.00400943 0.00000000
4.04513545 0.53805762 -0.00008414 0.00000000
4.09553226 0.01458542 -0.00034259 0.00000000
3.30213706 0.97714538 0.00129887 0.00000000
0.30296826 0.61689940 0.00224398 0.00000000
0.04626038 1.36588367 -0.00031902 0.00000000
2.58746835 1.79636730 -0.00000958 0.00000000
3.45606804 1.01802254 -0.00398131 0.00000000
2.50117909 0.59215283 0.00172395 0.00000000
1.35788339 1.26526972 -0.00031636 0.00000000
2.09315396 0.53039510 -0.00106933 0.00000000
1.65125830 1.54506683 0.00145143 0.00000000
0.26252668 0.39078940 0.00368979 0.00000000
3.69348529 2.08145040 -0.00206546 0.00000000
2.44483907 0.68703461 -0.00160800 0.00000000
2.30190820 0.83842972 -0.00182582 0.00000000
0.76411763 0.85636566 0.00225250 0.00000000
2.63773612 1.86248569 -0.00027093 0.00000000
1.80843670 1.41947974 0.00026655 0.00000000
2.62238518 0.65729511 0.00279293 0.00000000
1.12352510 1.51548155 0.00414545 0.00000000
0.03516185 1.56271694 0.00163292 0.00000000
1.43391514 0.09454117 -0.00229871 0.00000000
0.20631993 0.17957055 -0.00370371 0.00000000
4.66755320 0.24567181 0.00404729 0.00000000
0.67323247 2.11381492 -0.00052818 0.00000000
1.15339130 1.91448437 0.00095662 0.00000000
1.75010067 0.36566242 -0.00268273 0.00000000
0.08896703 1.52940342 0.00130390 0.00000000
0.26804335 1.60988383 0.00043211 0.00000000
1.35443229 0.21559183 -0.00154865 0.00000000
3.95974750 1.72476133 -0.00177426 0.00000000
3.16476626 0.00574025 0.00017567 0.00000000
0.68029868 1.52443339 0.00019515 0.00000000
1.47772168 1.25079688 0.00227868 0.00000000
2.17952405 1.91048241 -0.00212368 0.00000000
4.32710386 1.95915170 -0.00019941 0.00000000
0.43380645 1.08497358 0.00303965 0.00000000
3.23631370 1.64446033 0.00309483 0.00000000
2.37976015 1.09019102 -0.00108466 0.00000000
4.40443337 0.98289935 0.00019707 0.00000000
3.28105239 0.53410852 0.00343261 0.00000000
0.09776912 0.73513590 0.00220282 0.00000000
2.55461815 0.90418123 -0.00272813 0.00000000
2.29079434 1.38355909 0.00256501 0.00000000
1.48040276 1.71568109 0.00153829 0.00000000
0.46147027 2.05333088 0.00181021 0.00000000
1.12806694 0.11370580 -0.00241697 0.00000000
0.03708535 1.12642676 0.00164937 0.00000000
1.07729127 0.84922740 0.00075083 0.00000000
4.85949336 1.32823018 -0.00032593 0.00000000
0.31255228 1.96148229 -0.00332368 0.00000000
4.80906416 0.72641513 -0.00378547 0.00000000
1.85320732 1.48917143 0.00154923 0.00000000
4.77327366 0.10859493 -0.00031469 0.00000000
0.85376742 1.86759010 0.00018502 0.00000000
3.33817534 0.37347509 -0.00266618 0.00000000
4.61772820 0.47713017 -0.00404697 0.00000000
2.13761018 1.86297385 0.00343843 0.00000000
1.14615872 1.90580666 0.00059415 0.00000000
4.34399780 1.64966569 0.00182187 0.00000000
4.72235208 0.47199210 0.00455195 0.00000000
2.75254058 2.00693240 -0.00251045 0.00000000
0.14368565 0.09448931 -0.00275367 0.00000000
3.60107698 0.54930611 0.00048373 0.00000000
1.58085029 0.99034025 -0.00246949 0.00000000
1.89536454 1.55538623 -0.00343520 0.00000000
3.35096378 1.05494281 -0.00004671 0.00000000
0.75676606 1.38097867 -0.00145621 0.00000000
4.79459714 0.31619541 -0.00180649 0.00000000
2.92295515 0.98292175 -0.00413907 0.00000000
4.27647874 2.09335402 -0.00402041 0.00000000
1.07946177 0.27804410 0.00277380 0.00000000
1.09159893 1.29090846 -0.00142004 0.00000000
1.56727214 2.11933789 -0.00352482 0.00000000
1.04334760 1.25043723 0.00134719 0.00000000
3.00264433 1.50853209 -0.00486884 0.00000000
1.89285188 0.04090567 0.00077593 0.00000000
4.27391062 0.75307838 0.00446760 0.00000000
4.30201484 0.82274362 0.00257307 0.00000000
0.92809519 1.90420197 -0.00507611 0.00000000
1.01745734 0.92652556 -0.00346573 0.00000000
1.48581421 1.67295859 -0.00701243 0.00000000
0.86296896 0.15759488 -0.00283900 0.00000000
3.05340856 1.88747536 -0.00049811 0.00000000
0.00867106 0.19464724 0.00039992 0.00000000
2.87223363 1.69477645 0.00384962 0.00000000
1.76512698 1.84505357 0.00373195 0.00000000
0.40891871 1.48503008 0.00067801 0.00000000
0.98328436 0.01206427 0.00018581 0.00000000
0.43715745 1.62982413 -0.00186526 0.00000000
1.31957011 0.43980494 -0.00473868 0.00000000
3.14735325 2.10990213 -0.00267278 0.00000000
2.83103534 1.99530439 0.00206479 0.00000000
4.10998903 1.35050234 0.00109588 0.00000000
4.07784925 0.93209125 -0.00072187 0.00000000
3.13111198 1.86452392 -0.00614430 0.00000000
2.96432392 1.18638126 0.00219148 0.00000000
1.28769232 0.87596979 -0.00138462 0.00000000
1.39929284 0.96741353 0.00183627 0.00000000
2.54738154 0.14422518 0.00167753 0.00000000
3.94076044 1.53338255 0.00500571 0.00000000
2.06264933 1.31648305 -0.00386824 0.00000000
1.41681883 0.76338584 0.00051515 0.00000000
0.69426238 1.13645160 -0.00021359 0.00000000
2.03444957 1.63553453 0.00090897 0.00000000
1.46056336 1.19556284 -0.00279905 0.00000000
2.57115505 0.53407786 -0.00292452 0.00000000
1.64867820 1.23566723 -0.00562765 0.00000000
1.43147333 1.16501621 0.00030295 0.00000000
1.00323269 1.45151196 0.00095106 0.00000000
3.28115648 0.17029371 -0.00171592 0.00000000
2.37564737 0.43076403 -0.00089173 0.00000000
1.98259172 0.21251005 0.00330450 0.00000000
3.84153712 0.27510010 -0.00221814 0.00000000
2.00976812 2.13142511 -0.00184097 0.00000000
1.68577339 2.07448415 0.00211607 0.00000000
3.32211923 1.57631937 0.00041266 0.00000000
1.32230333 1.54412539 -0.00144764 0.00000000
2.35803768 1.54605992 0.00029219 0.00000000
3.04240656 0.98765978 0.00103878 0.00000000
2.31700978 0.76463623 0.00141232 0.00000000
0.64710794 1.86706992 -0.00388155 0.00000000
2.23287838 1.79416564 0.00162939 0.00000000
2.78170434 1.63465493 -0.00191241 0.00000000
2.98760757 1.46058147 -0.00063810 0.00000000
4.76953107 0.21969228 -0.00159669 0.00000000
4.83150748 0.92169564 0.00078363 0.00000000
4.21552563 1.32449676 -0.00057381 0.00000000
3.72280784 1.90644174 -0.00247565 0.00000000
3.31018092 0.96649038 0.00247684 0.00000000
1.79841034 0.76456684 0.00045600 0.00000000
4.80353125 1.91071239 0.00466523 0.00000000
2.91493476 1.48334514 -0.00171423 0.00000000
1.18634173 2.07293589 -0.00113842 0.00000000
2.69128882 1.49673051 -0.00054438 0.00000000
4.32788677 1.16231513 0.00559176 0.00000000
0.67392295 1.18940159 -0.00106742 0.00000000
4.70287883 1.33067552 -0.00163567 0.00000000
2.08459859 1.58287973 0.00347433 0.00000000
4.84337722 0.36070104 -0.00261371 0.00000000
2.38261794 2.03968240 -0.00100013 0.00000000
1.36023832 1.30674111 0.00205888 0.00000000
1.63989544 0.40684933 0.00401927 0.00000000
3.80652802 1.53871644 0.00006659 0.00000000
3.66355931 0.68728987 0.00018627 0.00000000
3.39572834 0.44924171 -0.00467972 0.00000000
2.15050282 1.60193901 -0.00365942 0.00000000
0.62695577 0.87624812 -0.00027408 0.00000000
2.34304964 0.79786984 -0.00064405 0.00000000
0.89194280 1.25548921 -0.00512399 0.00000000
1.89928282 1.12185571 -0.00004132 0.00000000
4.66071676 1.62773192 -0.00531226 0.00000000
1.75042110 1.45258075 0.00189843 0.00000000
2.88172016 1.18357649 -0.00565785 0.00000000
4.00017230 2.02878962 -0.00137820 0.00000000
0.97668583 1.18996133 -0.00345900 0.00000000
2.91500636 0.36151478 -0.00233983 0.00000000
4.59993954 0.80774318 -0.00012084 0.00000000
2.30886042 0.50908269 0.00028840 0.00000000
4.50433834 1.48827271 -0.00460599 0.00000000
1.75995583 1.15448334 0.00061389 0.00000000
4.13025474 1.46849232 0.00052772 0.00000000
0.37815322 0.25907738 0.00056344 0.00000000
4.21874560 1.80010467 -0.00176236 0.00000000
3.44687660 1.09616774 -0.00420499 0.00000000
3.03011215 1.32158847 0.00261461 0.00000000
0.23238692 0.45594280 -0.00172466 0.00000000
4.53040013 0.34052412 0.00173685 0.00000000
1.75886264 1.57519448 -0.00217907 0.00000000
2.98772056 1.85887253 0.00348037 0.00000000
2.40169994 0.36763334 0.00132858 0.00000000
1.83112968 0.04236486 -0.00201331 0.00000000
4.67478646 0.22559891 -0.00260987 0.00000000
4.53501797 0.67277840 -0.00015915 0.00000000
4.35684351 1.83314350 0.00121562 0.00000000
3.03232085 1.11176476 0.00218186 0.00000000
3.23963177 1.62033701 0.00440380 0.00000000
0.44790911 1.44696330 -0.00561461 0.00000000
3.65189909 2.09408010 0.00035361 0.00000000
3.87291716 1.95489664 0.00069729 0.00000000
3.13292085 0.49550371 -0.00298989 0.00000000
0.09486241 0.17268411 -0.00347883 0.00000000
4.10231114 2.10039367 -0.00139851 0.00000000
4.06291935 1.81473978 -0.00129796 0.00000000
4.12514203 0.98807904 0.00212647 0.00000000
0.03655839 0.51812189 -0.00093304 0.00000000
1.77918733 1.75200484 0.00237093 0.00000000
4.82626402 0.07620001 -0.00272465 0.00000000
2.24950967 1.39457210 -0.00045626 0.00000000
2.50177718 1.07128950 -0.00434384 0.00000000
4.46675855 0.31207971 -0.00189100 0.00000000
3.98554804 1.11050067 -0.00231629 0.00000000
4.68608688 0.35539928 0.00247831 0.00000000
2.56596377 1.17233459 0.00090529 0.00000000
0.65363439 0.16144519 -0.00129211 0.00000000
2.83245483 0.29098132 0.00537997 0.00000000
0.44778058 2.06226129 -0.00185046 0.00000000
1.04482798 1.46240124 -0.00379283 0.00000000
0.75923285 0.49770647 0.00324685 0.00000000
1.75795807 0.15626943 -0.00021133 0.00000000
1.41557017 1.51472296 0.00358946 0.00000000
3.30519186 0.59468584 -0.00049348 0.00000000
1.09144359 2.01592688 -0.00040505 0.00000000
1.82704700 1.24858185 0.00025844 0.00000000
2.30812808 1.03402008 0.00203096 0.00000000
2.12546579 0.25106293 -0.00316987 0.00000000
4.64191992 1.35750508 -0.00305372 0.00000000
3.93664189 0.65319286 0.00095681 0.00000000
1.83576208 0.62950842 0.00241037 0.00000000
1.89051851 0.06286552 -0.00097132 0.00000000
2.14466499 1.69996895 -0.00339967 0.00000000
3.55136226 1.96597165 0.00170520 0.00000000
1.93071578 1.11561861 -0.00115137 0.00000000
0.85334144 0.27029721 -0.00027587 0.00000000
0.17240469 1.42286503 0.00014448 0.00000000
2.58376675 0.64128178 -0.00073993 0.00000000
4.54199254 0.80149385 -0.00275120 0.00000000
1.23672257 1.86227964 -0.00044083 0.00000000
3.81345274 0.38211501 0.00081009 0.00000000
3.85355534 0.18169360 0.00037663 0.00000000
1.29517653 1.86566553 0.00271231 0.00000000
0.31739111 0.34684531 -0.00116368 0.00000000
2.54281021 0.84214793 -0.00289158 0.00000000
0.26917579 1.30090805 -0.00011047 0.00000000
2.33031199 0.47560340 -0.00347702 0.00000000
3.34108659 0.20823331 -0.00479253 0.00000000
1.86985571 0.26090304 0.00047049 0.00000000
0.33906061 0.83138913 0.00077309 0.00000000
0.39801670 0.17107363 0.00073634 0.00000000
0.23365983 1.89625911 0.00053092 0.00000000
0.00231791 1.68006773 -0.00610689 0.00000000
2.45552081 1.26604658 0.00058981 0.00000000
0.50949680 0.96861313 0.00367911 0.00000000
0.32845748 0.08742159 -0.00357012 0.00000000
2.28755222 1.40864697 -0.00428268 0.00000000
1.96656446 0.20773801 0.00237600 0.00000000
4.07713150 2.10453445 0.00534181 0.00000000
2.88153203 0.27137444 -0.00329256 0.00000000
4.48406575 2.12037109 0.00296679 0.00000000
1.88425475 1.68118949 0.00139556 0.00000000
3.24804907 0.35027592 0.00586563 0.00000000
1.46817051 1.08147252 -0.00171966 0.00000000
2.31818228 1.34586241 -0.00036209 0.00000000
3.06815741 1.48283115 0.00211152 0.00000000
2.21738740 2.00292089 0.00136035 0.00000000
2.08074453 0.08643259 -0.00067087 0.00000000
2.09455425 1.56182381 0.00261053 0.00000000
0.96011650 0.89906323 0.00058415 0.00000000
2.32961555 0.21659556 -0.00032804 0.00000000
4.05906448 1.31185674 0.00302928 0.00000000
0.14685771 1.10263998 0.00016658 0.00000000
3.38100703 0.10473011 0.00307354 0.00000000
3.75320709 0.89614486 0.00170262 0.00000000
2.79362251 0.85184715 -0.00071063 0.00000000
4.54422724 0.60864657 0.00443184 0.00000000
2.95029508 1.67911606 0.00453011 0.00000000
2.12284231 1.94042623 0.00322106 0.00000000
0.93991752 0.04728023 -0.00085782 0.00000000
0.64470622 2.06993260 -0.00240709 0.00000000
3.08096310 0.00668812 0.00082752 0.00000000
0.02989126 0.97259337 0.00334580 0.00000000
0.44284726 0.26012727 0.00630975 0.00000000
2.88090445 0.38074804 0.00169314 0.00000000
4.03433804 0.65311238 -0.00181099 0.00000000
4.63892144 1.81131637 -0.00354938 0.00000000
0.91624124 0.88297391 -0.00205956 0.00000000
0.83220300 1.86544727 -0.00105723 0.00000000
2.95883485 0.84933694 0.00032678 0.00000000
3.14528778 1.20274404 -0.00458878 0.00000000
3.90232078 0.46005776 0.00311099 0.00000000
0.13436016 1.50782603 -0.00201851 0.00000000
2.79078971 0.24486694 0.00171579 0.00000000
4.78634024 0.01746311 -0.00181605 0.00000000
4.48818438 1.25392462 -0.00134568 0.00000000
1.81026675 0.14074147 0.00238172 0.00000000
0.75001216 1.98673842 -0.00186035 0.00000000
1.00499579 1.11085104 -0.00178330 0.00000000
0.51513394 0.04463663 0.00016617 0.00000000
1.65145996 0.85144929 -0.00290615 0.00000000
1.35436142 1.66230326 -0.00749842 0.00000000
0.36136542 1.74176110 -0.00299214 0.00000000
0.83361533 0.04161805 0.00553004 0.00000000
3.08725080 1.22503414 -0.00355738 0.00000000
2.91284334 0.87206383 0.00412613 0.00000000
2.84501972 1.11686279 -0.00044480 0.00000000
2.40577199 0.67285543 -0.00186697 0.00000000
1.57343527 0.22207887 0.00466378 0.00000000
2.35743574 0.59585088 0.00309808 0.00000000
3.02177440 1.72407526 -0.00275843 0.00000000
0.65277437 0.08696425 -0.00059099 0.00000000
0.17423160 1.04743004 -0.00388328 0.00000000
0.24514769 2.09276104 0.00176807 0.00000000
0.18359754 0.83914469 -0.00175579 0.00000000
3.95582394 2.03737211 -0.00403810 0.00000000
4.92160146 0.70087633 -0.00003879 0.00000000
4.22805415 0.18354833 0.00002748 0.00000000
3.06844144 1.29158110 -0.00008014 0.00000000
3.35503524 1.29925830 -0.00272763 0.00000000
0.29117349 1.79827245 -0.00012445 0.00000000
1.04275817 1.41295691 0.00346999 0.00000000
4.26993022 0.19722427 -0.00238507 0.00000000
4.75708160 2.06005122 0.00390795 0.00000000
1.29461406 1.75240817 0.00334396 0.00000000
1.26007634 0.56259485 -0.00262018 0.00000000
4.73519217 0.14172423 -0.00056705 0.00000000
3.36548066 1.08934189 0.00061604 0.00000000
2.02387174 0.70566360 -0.00043638 0.00000000
2.89895913 1.10060325 0.00171500 0.00000000
0.72172427 1.88988408 0.00012340 0.00000000
3.78366229 1.87439002 0.00121042 0.00000000
1.32260943 1.34247923 0.00358227 0.00000000
4.68137096 0.06368338 0.00154470 0.00000000
2.79070228 0.87455133 0.00043142 0.00000000
4.64250297 0.19082250 0.00134583 0.00000000
2.79043169 0.75092934 -0.00207038 0.00000000
1.19212787 0.90626984 0.00253633 0.00000000
3.28182088 0.87249869 -0.00161201 0.00000000
3.71861907 1.08664318 -0.00001496 0.00000000
4.12343101 0.40160079 -0.00002310 0.00000000
4.39096291 0.95428238 -0.00379413 0.00000000
4.00851469 1.57254174 0.00067752 0.00000000
0.74726498 0.57111860 -0.00264063 0.00000000
1.04571805 1.54093789 0.00167976 0.00000000
1.97626547 0.71211382 0.00226502 0.00000000
1.03065039 0.58533908 0.00126161 0.00000000
3.13899854 1.28565007 0.00377548 0.00000000
3.50257683 2.00021373 -0.00145785 0.00000000
3.89486925 0.86124448 0.00121365 0.00000000
2.35861793 0.60432302 -0.00139575 0.00000000
3.11135650 2.05992289 0.00252700 0.00000000
2.26544160 0.39928673 -0.00281607 0.00000000
3.82027628 1.17550065 -0.00031545 0.00000000
1.01036453 0.09262207 -0.00064863 0.00000000
2.79297223 0.75803328 -0.00105801 0.00000000
2.14225652 0.69283066 0.00245421 0.00000000
1.59988770 1.99341241 0.00174364 0.00000000
0.32711953 0.84627514 0.00318102 0.00000000
3.35209527 0.20716082 -0.00197557 0.00000000
3.23196941 1.67683859 0.00324002 0.00000000
2.33500336 0.77353413 -0.00033485 0.00000000
2.59166329 2.07754085 0.00295665 0.00000000
3.59576470 0.05622788 0.00018122 0.00000000
1.26128461 0.60646885 0.00314143 0.00000000
3.08483506 0.64133258 -0.00378619 0.00000000
0.36516529 0.78182313 -0.00030598 0.00000000
1.59415140 1.20705502 0.00190984 0.00000000
3.36440376 1.37087952 -0.00075355 0.00000000
3.38458273 0.84479771 0.00222325 0.00000000
0.77731839 0.34709810 -0.00155006 0.00000000
2.21408367 1.00411114 -0.00268550 0.00000000
0.34961493 0.57414956 -0.00040261 0.00000000
1.55671479 1.14278530 0.00443766 0.00000000
0.16656278 0.38397033 0.00070355 0.00000000
2.04904280 2.05165116 0.00307406 0.00000000
3.72461049 0.29211937 -0.00357711 0.00000000
1.21326132 0.05027634 0.00100993 0.00000000
2.55643719 1.25506221 0.00097607 0.00000000
1.14023390 1.20289033 0.00044688 0.00000000
0.66841841 1.78601120 -0.00190478 0.00000000
0.62526602 1.75447153 0.00427366 0.00000000
4.40342390 1.95201228 0.00631920 0.00000000
1.01579472 0.64263931 0.00092181 0.00000000
0.00788013 0.44067240 -0.00089129 0.00000000
3.31812855 0.12447331 0.00210952 0.00000000
3.81704877 1.12381779 -0.00136196 0.00000000
3.67367677 0.62876211 -0.00371845 0.00000000
3.65212533 0.12421311 -0.00015662 0.00000000
1.17319828 0.05990028 0.00222462 0.00000000
3.87818831 0.71856201 0.00502117 0.00000000
2.35516415 1.49018777 0.00163744 0.00000000
4.18573423 1.84048538 -0.00010587 0.00000000
2.89005010 1.76919234 0.00509747 0.00000000
2.66283105 0.57985543 0.00251461 0.00000000
1.74509424 1.21798876 -0.00227769 0.00000000
