4.330166 1.584663 -0.003573 0.0
3.484779 1.886387 0.002559 0.0
4.222548 1.254600 0.000592 0.0
0.302500 0.582621 -0.002756 0.0
0.661452 1.716861 -0.000254 0.0
4.433040 0.640315 0.002816 0.0
4.043586 2.407415 -0.002937 0.0
0.032775 1.045552 0.004123 0.0
1.981433 0.530380 0.001933 0.0
2.516414 1.770642 -0.000525 0.0
3.805673 1.070477 0.004884 0.0
1.727856 0.702561 0.003671 0.0
4.033562 2.168300 0.000950 0.0
3.750630 0.193597 -0.004304 0.0
0.743921 2.359118 -0.001679 0.0
3.507853 1.068171 0.001906 0.0
0.203738 0.792138 -0.002347 0.0
2.679501 0.307377 -0.001531 0.0
0.151276 0.842624 0.002289 0.0
1.853885 0.748313 -0.003963 0.0
2.753009 0.786465 -0.000479 0.0
4.324679 1.236556 -0.000113 0.0
4.448381 1.688231 0.000597 0.0
3.349893 1.195384 -0.000214 0.0
1.658229 2.150598 0.001860 0.0
3.895170 1.931026 0.000870 0.0
4.275377 1.040612 -0.001548 0.0
2.468188 1.647481 -0.000358 0.0
4.711695 1.947638 0.004213 0.0
0.908276 0.835982 -0.000814 0.0
1.118115 1.170961 0.004025 0.0
1.781382 0.305686 0.000030 0.0
0.159297 2.265964 -0.001650 0.0
4.181130 1.294877 -0.002525 0.0
4.169889 1.737904 -0.000964 0.0
0.361151 0.721831 0.002679 0.0
3.047527 1.760377 -0.000381 0.0
0.743346 0.351334 -0.001664 0.0
0.013248 1.107018 0.000413 0.0
1.614184 0.939214 0.006798 0.0
3.515811 1.776059 0.002410 0.0
1.129913 0.402269 0.000708 0.0
0.753812 0.367450 -0.000631 0.0
0.867025 1.644311 0.000507 0.0
2.652478 1.900434 0.002677 0.0
1.444871 1.385678 -0.003054 0.0
1.551714 0.335930 0.002544 0.0
3.285283 2.224424 0.004121 0.0
2.299333 2.275295 -0.000351 0.0
0.677207 1.682591 -0.002020 0.0
4.651355 1.118091 0.002626 0.0
2.911972 1.224031 0.000628 0.0
4.686251 1.217710 0.001018 0.0
0.120638 1.530437 0.003242 0.0
2.846247 1.070431 0.000914 0.0
0.285586 2.196524 -0.005708 0.0
2.680968 1.884003 0.000444 0.0
4.107715 0.859273 0.001469 0.0
1.710979 0.396809 -0.001431 0.0
0.371579 0.442223 -0.001915 0.0
4.087846 1.242751 -0.000718 0.0
1.549935 0.941148 -0.005241 0.0
4.668831 2.122461 -0.000538 0.0
0.755361 0.681619 -0.002023 0.0
3.259983 0.214671 -0.001994 0.0
3.545950 2.170772 -0.002105 0.0
4.466828 1.115290 0.002298 0.0
3.131933 2.007727 0.001219 0.0
2.540489 2.323974 0.003969 0.0
3.104748 2.260491 -0.000299 0.0
1.638538 2.281989 -0.000772 0.0
3.452655 0.493157 -0.001346 0.0
3.963475 0.649219 0.001003 0.0
3.831489 2.275977 0.001378 0.0
3.635173 0.620693 -0.002351 0.0
4.576095 2.339203 0.001697 0.0
4.202810 0.818107 0.001111 0.0
2.059892 0.634788 0.004892 0.0
0.889843 1.566732 -0.001135 0.0
2.238631 1.406203 -0.001806 0.0
1.098633 1.425460 0.001367 0.0
2.918868 1.050332 0.000349 0.0
4.224747 1.257819 -0.001510 0.0
0.309496 0.258693 -0.000866 0.0
4.167516 2.252751 -0.000381 0.0
3.201890 1.726647 -0.000299 0.0
4.102228 0.227368 -0.002056 0.0
0.211345 2.283486 0.003596 0.0
1.732646 1.231041 0.001617 0.0
1.706838 0.826533 0.000725 0.0
0.139444 1.090958 -0.001014 0.0
4.090040 0.400231 0.006674 0.0
3.918445 0.021535 0.002744 0.0
1.895185 0.220147 -0.002612 0.0
4.523045 0.228369 -0.001771 0.0
2.728226 1.536958 -0.001291 0.0
1.074017 1.321225 -0.001245 0.0
1.032656 0.063331 -0.002468 0.0
0.695277 1.646903 -0.003524 0.0
0.750453 2.209031 -0.003361 0.0
3.967499 0.838839 -0.003412 0.0
1.695688 0.322146 0.003278 0.0
3.131371 1.836998 -0.000342 0.0
2.932948 0.080327 -0.004419 0.0
0.868161 1.012813 -0.002213 0.0
3.093187 1.967686 -0.002694 0.0
3.206571 0.594468 -0.004596 0.0
3.084493 0.739753 -0.002317 0.0
1.303077 2.135363 0.000270 0.0
1.326922 0.604946 -0.000924 0.0
0.355688 2.345226 -0.001520 0.0
1.739746 0.584083 -0.002248 0.0
4.675631 0.207628 0.004239 0.0
4.689251 0.742742 -0.002618 0.0
3.174328 2.381740 -0.000436 0.0
2.593508 0.270482 -0.004552 0.0
4.547288 1.525281 0.003216 0.0
2.331155 0.725726 0.003756 0.0
2.788659 1.506916 0.001163 0.0
4.273557 1.506396 0.001312 0.0
2.531479 0.351350 -0.006395 0.0
0.897049 0.204625 0.001725 0.0
2.023477 2.250744 0.001839 0.0
4.198594 2.137164 -0.000152 0.0
0.028712 2.205075 -0.001750 0.0
1.335179 1.762601 -0.002483 0.0
1.867650 0.744685 0.004482 0.0
2.743421 0.468850 0.000083 0.0
2.136796 2.368208 0.002568 0.0
4.662320 2.417229 -0.000856 0.0
4.744671 1.439945 0.004995 0.0
0.668446 0.435189 -0.001213 0.0
0.254429 1.606079 0.000981 0.0
3.760138 1.217165 -0.004461 0.0
0.171467 0.845815 0.002022 0.0
1.162586 0.737578 0.000500 0.0
4.585694 1.857486 0.001255 0.0
2.066038 2.433312 0.000452 0.0
3.031462 0.179885 0.002760 0.0
3.188156 0.066249 0.000518 0.0
1.080507 1.764371 0.002390 0.0
4.132114 2.432550 0.001501 0.0
1.275158 0.853426 -0.001558 0.0
0.721918 0.826687 -0.005183 0.0
3.283445 1.134678 -0.001184 0.0
2.429516 1.233461 0.001590 0.0
1.117608 1.252198 -0.004397 0.0
0.982331 0.808615 0.001525 0.0
3.197676 1.788164 0.004886 0.0
1.869567 0.406426 -0.000653 0.0
2.771167 0.382816 0.000109 0.0
3.312859 2.295156 -0.001110 0.0
1.564698 2.311538 -0.005127 0.0
2.861144 1.332950 0.004451 0.0
3.770270 0.155397 -0.003770 0.0
0.330215 2.453377 -0.001800 0.0
3.188581 2.060871 -0.002914 0.0
4.564751 1.929554 -0.000826 0.0
4.758401 1.027153 -0.000005 0.0
4.108743 0.818796 -0.001730 0.0
0.300735 2.129833 -0.000516 0.0
3.435617 0.573426 0.000942 0.0
0.971102 1.506688 -0.000253 0.0
3.309321 0.558978 0.001138 0.0
1.088787 0.493764 -0.002747 0.0
0.029878 0.749576 -0.000238 0.0
2.526120 0.691961 -0.000770 0.0
1.374069 2.386889 0.003119 0.0
3.527539 1.692076 -0.003622 0.0
2.296364 0.407587 -0.000817 0.0
3.697146 1.491506 0.002633 0.0
1.563693 2.469655 0.001455 0.0
0.015702 0.272581 0.001258 0.0
2.783058 1.167335 0.001591 0.0
3.517989 1.474485 0.004052 0.0
3.261652 0.186639 -0.000259 0.0
0.245562 0.836219 -0.001295 0.0
0.660347 0.727369 0.001064 0.0
4.596099 0.770958 0.001998 0.0
2.408430 1.220408 -0.002617 0.0
2.309926 2.142241 -0.002370 0.0
2.098829 1.226523 0.000612 0.0
2.590802 0.913377 -0.001039 0.0
3.236575 1.861515 -0.001497 0.0
2.738926 1.530334 0.002138 0.0
0.069839 2.426717 -0.002496 0.0
0.029273 2.141974 0.001924 0.0
2.810555 0.094717 0.002247 0.0
1.427279 1.993104 0.002102 0.0
1.643256 1.348690 -0.000018 0.0
1.886733 1.592118 -0.002368 0.0
4.775266 1.434454 -0.003408 0.0
2.044983 2.279551 0.000369 0.0
2.039881 0.790386 0.001604 0.0
0.912287 1.647487 0.002470 0.0
3.195123 0.371049 -0.000801 0.0
0.800247 0.335138 0.003064 0.0
4.204642 2.334190 -0.001372 0.0
0.965683 1.459073 0.001014 0.0
1.111993 0.866188 0.001239 0.0
4.145960 2.480368 -0.000133 0.0
0.002531 1.069413 -0.001959 0.0
1.933659 0.543336 0.005105 0.0
1.464927 2.112986 0.000350 0.0
3.834694 1.356259 -0.003863 0.0
0.385627 2.129426 -0.001125 0.0
1.196040 2.025091 -0.000812 0.0
2.374600 1.473693 -0.000735 0.0
0.636949 0.487176 0.001163 0.0
2.983055 1.656133 0.001150 0.0
0.346990 0.423756 0.002167 0.0
4.298106 0.485264 0.003827 0.0
4.210916 0.580245 -0.002320 0.0
1.102216 1.736116 -0.003184 0.0
4.713155 2.284732 0.004368 0.0
3.694897 2.406591 -0.002092 0.0
1.515397 0.857306 0.002372 0.0
4.634988 0.970290 -0.003466 0.0
3.804101 0.839122 -0.001874 0.0
1.932822 2.465902 -0.001972 0.0
2.800428 1.452398 0.004418 0.0
2.886739 1.551828 -0.001929 0.0
0.201043 0.019343 -0.001999 0.0
3.726433 0.694414 -0.000506 0.0
1.913896 0.668131 0.002603 0.0
0.717629 0.592952 0.004622 0.0
4.127072 1.498692 0.002137 0.0
2.796002 0.886734 0.002251 0.0
2.914213 0.386981 0.000627 0.0
3.856965 0.346711 0.004477 0.0
1.807412 1.338713 -0.002179 0.0
4.669116 2.477845 0.001413 0.0
3.594380 0.661432 -0.000859 0.0
2.497341 0.907972 -0.003107 0.0
0.619029 1.361573 -0.002182 0.0
2.058531 1.591460 -0.003520 0.0
1.693789 0.623865 0.001311 0.0
4.360322 2.373521 0.001716 0.0
0.560103 0.932051 0.001522 0.0
3.468112 1.436746 -0.000732 0.0
3.889202 1.445302 0.003213 0.0
2.776340 0.847269 -0.000571 0.0
3.185242 1.464753 -0.002124 0.0
1.797372 1.079670 -0.001254 0.0
2.562711 1.751622 -0.000951 0.0
1.491505 1.395357 0.003479 0.0
3.833391 1.347210 -0.001190 0.0
2.103662 0.046656 0.001385 0.0
1.449067 0.920346 0.003454 0.0
3.117602 2.196859 0.000068 0.0
0.354910 0.546998 0.002064 0.0
1.233060 0.410336 0.002856 0.0
1.243263 0.087429 0.001519 0.0
1.590392 0.884154 0.001263 0.0
4.863779 2.013394 -0.001374 0.0
3.285140 1.817249 -0.004686 0.0
2.709622 1.075551 0.000833 0.0
2.129072 1.503028 0.002639 0.0
2.183654 0.372310 -0.003592 0.0
0.435216 0.492176 0.002193 0.0
2.323973 0.430273 0.003787 0.0
3.725322 0.065999 -0.004454 0.0
1.553218 1.638139 -0.000681 0.0
3.435227 2.229484 0.000045 0.0
2.918120 1.522657 0.001883 0.0
1.891268 2.058231 -0.001905 0.0
0.175321 1.517851 -0.001392 0.0
1.050468 2.312136 -0.001759 0.0
2.625779 0.515636 0.002244 0.0
0.161514 2.189232 0.002920 0.0
4.664424 0.009294 0.001293 0.0
0.800773 0.661031 -0.001488 0.0
1.420452 1.892219 -0.001088 0.0
4.400513 2.118935 0.005476 0.0
2.115224 0.794879 -0.000655 0.0
0.843677 1.213082 0.000768 0.0
0.267732 2.342557 -0.002181 0.0
1.929195 2.109837 0.000675 0.0
1.939116 0.575805 0.000664 0.0
1.038915 2.393956 -0.001638 0.0
0.649515 0.073318 -0.002954 0.0
1.867549 1.502261 -0.001214 0.0
4.429803 2.335265 -0.003287 0.0
4.862348 2.059071 -0.001382 0.0
2.219772 1.156772 0.002502 0.0
4.562859 1.761090 0.000589 0.0
2.651006 0.828338 0.001173 0.0
3.482415 1.220959 -0.000161 0.0
0.744211 1.206863 0.001191 0.0
0.428551 0.839249 0.003711 0.0
3.938646 0.743570 -0.003068 0.0
0.881207 2.375578 -0.002258 0.0
0.747111 1.326397 -0.000146 0.0
4.491942 1.286679 -0.002626 0.0
4.044455 2.208840 0.001228 0.0
3.242219 1.324171 -0.003612 0.0
2.188626 2.329094 0.000547 0.0
1.829305 1.263162 -0.000818 0.0
1.691810 0.649598 -0.000557 0.0
3.022350 0.654560 -0.001115 0.0
0.125337 2.058534 0.001887 0.0
1.871338 1.182379 -0.003668 0.0
4.809753 2.153711 0.004779 0.0
2.347829 2.042245 -0.000773 0.0
2.100582 0.818597 -0.000883 0.0
3.486032 2.210294 0.000482 0.0
2.572048 1.285959 -0.001530 0.0
0.447919 1.165061 0.003869 0.0
3.115148 1.844457 -0.000263 0.0
1.756386 1.398287 -0.001832 0.0
0.395865 0.917526 0.002200 0.0
4.768069 0.337803 -0.000480 0.0
0.369560 1.562307 -0.000086 0.0
4.282435 1.139400 0.002637 0.0
0.722131 1.236999 0.003626 0.0
4.826282 0.102201 -0.002566 0.0
0.798083 1.973536 -0.001449 0.0
4.646929 1.131432 0.003845 0.0
3.264512 0.118846 -0.001601 0.0
1.058261 0.851990 -0.001542 0.0
3.957532 1.733990 0.000658 0.0
1.359892 0.924333 -0.002272 0.0
1.307575 0.216608 -0.003975 0.0
1.332069 1.532644 0.000649 0.0
3.031347 1.685683 -0.004497 0.0
2.824783 2.045364 -0.002475 0.0
2.089185 1.998365 0.003817 0.0
4.326738 1.679306 -0.002339 0.0
2.426801 0.765416 0.000357 0.0
3.934661 1.433797 -0.001028 0.0
4.332059 0.773846 0.004607 0.0
2.935683 1.887231 -0.001995 0.0
0.569322 1.869721 -0.001184 0.0
4.101469 2.011734 0.003212 0.0
4.696492 0.221335 -0.002055 0.0
2.385774 0.716688 -0.004676 0.0
4.469392 0.173738 0.001357 0.0
4.069277 0.571306 0.000371 0.0
2.337835 2.199792 0.004212 0.0
2.857360 0.372500 -0.000370 0.0
0.293630 1.146751 0.003148 0.0
2.703444 1.732511 0.001715 0.0
0.248083 0.294844 -0.001653 0.0
4.495749 1.883141 0.002401 0.0
2.027224 1.986814 0.000826 0.0
0.747131 1.571910 0.005473 0.0
1.535352 1.716114 0.000356 0.0
1.001049 0.956092 0.001245 0.0
1.967921 1.993803 -0.007370 0.0
3.211576 0.916621 -0.002828 0.0
2.861426 0.485285 0.001233 0.0
3.937100 0.254957 0.001387 0.0
2.324425 0.835140 0.001091 0.0
4.480861 0.812313 0.001213 0.0
1.595394 1.521340 0.004319 0.0
2.645994 2.262100 -0.003483 0.0
1.932356 0.324027 0.002152 0.0
0.389876 1.282041 -0.001192 0.0
2.907684 1.671467 -0.002781 0.0
0.463981 0.795448 -0.002854 0.0
3.370599 1.293398 0.002727 0.0
2.934785 0.690513 -0.001678 0.0
2.729544 2.075998 0.002066 0.0
3.018191 1.584150 -0.000293 0.0
1.218842 1.800977 -0.000479 0.0
3.574149 0.196256 0.000733 0.0
4.510293 0.594168 -0.001888 0.0
3.942934 0.938533 0.001005 0.0
1.700745 1.982180 0.000819 0.0
2.372934 2.004776 0.003099 0.0
2.827404 0.514656 -0.002294 0.0
2.162566 0.556304 0.005515 0.0
1.906982 2.365269 0.004746 0.0
2.228446 1.990360 -0.001494 0.0
1.742255 1.962561 -0.000666 0.0
2.140455 0.527643 0.004934 0.0
1.988787 1.792206 0.002979 0.0
3.880562 0.841851 0.001394 0.0
2.494181 2.043836 -0.000945 0.0
4.064031 0.063076 -0.000615 0.0
0.296048 0.743398 0.000266 0.0
0.704235 0.935419 0.001650 0.0
4.459084 1.156454 0.003884 0.0
3.164360 0.139880 -0.006595 0.0
1.753054 0.450586 0.000379 0.0
4.319824 0.575619 0.001609 0.0
0.353883 1.655881 -0.000694 0.0
3.230319 1.766226 -0.000076 0.0
4.730378 1.348586 -0.001227 0.0
2.244013 1.492707 0.002205 0.0
1.121632 0.385706 0.001784 0.0
1.702776 1.045108 0.000552 0.0
1.697761 0.513110 0.000801 0.0
3.385490 0.502697 -0.002306 0.0
3.800197 1.946683 0.003082 0.0
3.275293 0.344879 -0.001036 0.0
3.481949 0.072574 0.000860 0.0
4.161140 1.152586 0.001193 0.0
0.925134 1.820065 0.004587 0.0
1.352703 0.814563 -0.003892 0.0
4.061644 0.642305 0.000699 0.0
0.705992 2.347100 -0.005284 0.0
0.986203 0.235942 0.003935 0.0
3.011888 0.276833 0.005322 0.0
0.937922 1.540620 -0.001487 0.0
2.527994 2.396443 0.000551 0.0
0.040811 1.556079 -0.000447 0.0
0.252383 1.716785 0.000543 0.0
0.518316 2.230053 -0.002103 0.0
1.113414 2.432713 -0.006502 0.0
4.059257 1.554591 0.001672 0.0
0.767761 2.352090 0.000119 0.0
3.435393 0.132829 0.000861 0.0
3.027071 0.298848 0.002946 0.0
2.469318 0.162641 0.003960 0.0
3.379160 1.016918 0.002758 0.0
3.576427 2.211174 0.001857 0.0
2.632749 1.132737 0.000644 0.0
3.409328 0.448901 -0.002942 0.0
0.862310 0.397147 -0.000635 0.0
4.787139 1.416862 0.002404 0.0
1.120795 0.030548 0.002486 0.0
0.479052 1.966592 0.001383 0.0
1.063978 2.077876 0.001982 0.0
2.543759 1.274810 0.003685 0.0
3.602992 2.464982 0.002087 0.0
2.544898 0.958880 -0.003789 0.0
1.058409 1.630554 0.002487 0.0
3.580103 0.894032 -0.000013 0.0
1.901222 1.824191 -0.004240 0.0
4.019530 1.902653 -0.001570 0.0
1.886705 1.438332 -0.000070 0.0
0.711585 0.035939 -0.002135 0.0
4.678321 0.696933 0.000639 0.0
1.862205 0.425362 0.002089 0.0
4.096021 1.946543 0.000379 0.0
2.590282 1.610721 -0.001550 0.0
4.570122 1.723541 -0.004383 0.0
1.189347 1.303554 -0.001446 0.0
3.456530 2.459381 0.000562 0.0
1.374836 1.310593 -0.003481 0.0
2.743400 1.829911 -0.000225 0.0
0.580174 0.616548 -0.000743 0.0
4.634886 2.122509 0.005556 0.0
2.580170 2.049898 -0.001553 0.0
1.899592 1.826098 -0.001479 0.0
1.243641 2.481377 0.002073 0.0
0.622441 2.297389 -0.002001 0.0
1.789573 1.068517 -0.001120 0.0
2.171278 1.781741 0.003328 0.0
3.931963 1.976471 -0.001221 0.0
3.681858 1.586344 0.000326 0.0
0.399159 1.880604 0.000198 0.0
0.845034 1.425986 0.002012 0.0
2.956466 0.127873 0.004003 0.0
2.801916 2.221117 -0.000864 0.0
4.153757 1.014238 0.002054 0.0
2.579548 1.641311 0.001228 0.0
1.591050 0.065976 -0.005901 0.0
4.735221 0.796623 -0.002768 0.0
2.313552 0.954058 -0.001576 0.0
3.330748 0.674173 -0.004850 0.0
0.887725 0.088393 0.003442 0.0
3.446949 1.777658 -0.002411 0.0
0.831071 0.671393 0.004007 0.0
3.227639 2.061727 -0.000516 0.0
3.106569 0.759651 -0.000968 0.0
1.599702 1.556319 -0.003301 0.0
4.310680 0.574199 0.001429 0.0
2.183356 1.256193 0.001476 0.0
2.111423 1.670283 0.001102 0.0
0.439968 0.161231 0.003629 0.0
1.327100 1.311599 -0.001994 0.0
1.416095 0.704679 0.001649 0.0
3.567946 1.043945 -0.001819 0.0
2.971777 0.223039 -0.000881 0.0
3.694504 0.902008 -0.000393 0.0
1.116849 2.389733 0.005406 0.0
3.731827 1.488747 -0.003569 0.0
0.671837 0.988060 -0.002868 0.0
2.911409 0.141015 -0.000438 0.0
1.536886 2.368579 -0.004145 0.0
3.670703 1.969002 -0.000312 0.0
2.190213 0.238692 0.005092 0.0
3.842714 1.677463 0.000122 0.0
2.379975 2.408445 -0.003635 0.0
1.242008 1.376215 0.004006 0.0
4.091186 0.569070 0.001344 0.0
0.096379 2.227387 -0.001448 0.0
0.276801 0.601102 -0.002630 0.0
0.442247 0.237871 -0.005795 0.0
1.176981 0.556614 0.002762 0.0
2.513731 0.588757 0.002449 0.0
0.783774 0.442862 0.004264 0.0
3.483404 0.429952 0.001724 0.0
1.789136 0.253260 -0.004296 0.0
4.406819 1.291200 0.001903 0.0
0.133854 0.764303 0.001675 0.0
4.253154 0.453984 0.000563 0.0
0.675932 1.503767 -0.003211 0.0
3.615007 2.000245 -0.000824 0.0
0.577675 0.560746 0.006675 0.0
0.689508 2.328252 0.005489 0.0
4.055484 1.293847 -0.001877 0.0
3.438469 0.141401 0.002624 0.0
4.109371 1.105521 -0.000925 0.0
2.949549 1.826851 0.003641 0.0
2.580634 0.258618 -0.001965 0.0
2.455373 0.577566 0.000154 0.0
3.372932 0.110540 -0.000916 0.0
0.284520 0.539860 0.001160 0.0
3.555558 2.390401 0.002043 0.0
2.301180 1.133772 -0.002386 0.0
0.084935 1.913711 0.001576 0.0
1.172203 0.718734 0.006117 0.0
4.109739 0.920747 -0.001659 0.0
0.940426 1.294188 0.002413 0.0
1.916931 0.318916 0.000737 0.0
2.188054 1.840630 -0.004083 0.0
3.561901 0.475215 0.000183 0.0
3.371051 2.177705 0.000984 0.0
4.448583 0.947997 -0.001651 0.0
1.998572 1.958372 -0.003583 0.0
1.185294 0.539155 -0.002004 0.0
3.376240 0.755986 -0.002645 0.0
2.500449 2.105116 -0.000525 0.0
2.903923 0.771202 -0.001603 0.0
2.852336 0.587377 0.001806 0.0
0.449617 0.880653 0.000081 0.0
1.086882 1.568579 0.003606 0.0
3.294488 0.615237 -0.003313 0.0
2.453562 0.331974 0.000898 0.0
3.721611 1.881348 -0.002680 0.0
3.530699 0.357282 -0.001123 0.0
2.186169 2.146147 0.000330 0.0
2.642396 2.391474 -0.003319 0.0
4.336340 2.223825 0.002753 0.0
4.782851 2.278204 -0.000818 0.0
3.862034 0.670497 -0.001461 0.0
0.797311 0.412405 -0.000801 0.0
3.406807 0.841418 0.004546 0.0
0.305727 1.112941 -0.001957 0.0
0.933962 2.179915 0.001285 0.0
0.307710 0.382296 0.002180 0.0
1.373647 1.241990 0.000442 0.0
1.188898 0.799250 0.003713 0.0
2.318112 0.688690 0.000253 0.0
0.338588 2.273237 0.000045 0.0
1.598396 2.192886 -0.001737 0.0
3.169002 1.848999 0.003703 0.0
3.226819 2.197838 -0.005051 0.0
4.713672 2.116340 0.000289 0.0
3.709641 0.473817 0.000766 0.0
0.171531 2.138912 0.001543 0.0
3.429476 1.849385 -0.002341 0.0
4.361998 1.033865 0.001514 0.0
3.067867 0.768650 -0.003033 0.0
4.617604 0.074415 -0.000466 0.0
4.033514 1.397397 0.001126 0.0
4.445153 0.263422 0.003194 0.0
0.565282 2.189633 0.000302 0.0
3.340851 1.341931 0.003277 0.0
0.369052 1.550330 -0.000310 0.0
0.020405 1.439226 -0.002649 0.0
1.335445 1.834736 -0.001277 0.0
3.442979 0.029476 0.002672 0.0
2.969289 2.297245 0.003466 0.0
4.237192 1.878580 0.001507 0.0
0.910324 0.151443 -0.000583 0.0
4.275949 2.187052 -0.006219 0.0
2.585960 1.034335 -0.000190 0.0
2.159315 2.237086 -0.000420 0.0
1.161446 1.698018 -0.002518 0.0
4.006569 2.359783 0.003123 0.0
0.310570 0.491988 -0.000196 0.0
0.470550 0.875751 0.006999 0.0
0.926673 1.930752 -0.002147 0.0
1.796508 2.174035 -0.002974 0.0
2.302387 0.185922 0.000375 0.0
0.159667 1.301090 0.001038 0.0
1.013933 1.676445 0.001164 0.0
3.445303 0.086580 -0.003500 0.0
0.134547 1.568339 0.000128 0.0
1.456830 1.767859 0.006547 0.0
4.125262 2.029268 -0.000726 0.0
2.582239 0.955663 0.004775 0.0
0.104119 0.785651 0.000301 0.0
0.713048 0.104961 0.002762 0.0
3.951417 2.361698 0.000405 0.0
3.189308 0.359395 0.001021 0.0
3.047267 2.188658 0.000731 0.0
0.101598 0.334142 -0.002676 0.0
1.367154 2.373675 -0.001192 0.0
2.434992 0.162639 0.001241 0.0
0.338800 2.072866 0.002333 0.0
3.765342 0.970610 0.000189 0.0
3.736359 2.147972 0.001664 0.0
0.157907 2.473253 -0.001631 0.0
4.767724 0.175597 -0.002579 0.0
1.430278 1.658492 -0.001349 0.0
1.988767 1.704753 0.001740 0.0
4.690578 2.371585 -0.000500 0.0
3.747761 0.382406 0.001672 0.0
0.568258 2.123670 -0.000118 0.0
1.961073 1.550610 -0.002925 0.0
2.738459 0.575962 -0.000191 0.0
0.556519 0.192989 0.000518 0.0
0.668735 1.581235 0.003558 0.0
4.607735 2.246050 0.001609 0.0
1.194605 1.871023 0.001615 0.0
3.964693 0.090049 -0.006997 0.0
3.633109 1.203641 0.004640 0.0
0.451748 2.002567 -0.002831 0.0
1.543761 0.077213 -0.002786 0.0
0.174498 0.736765 -0.001417 0.0
3.109166 2.101893 0.003225 0.0
0.778422 0.704800 0.000925 0.0
3.667064 1.545412 0.002161 0.0
1.868367 0.199208 0.003775 0.0
1.870535 1.443346 0.001432 0.0
1.385534 0.372063 0.004125 0.0
2.325011 1.049989 0.000311 0.0
2.536322 0.893565 -0.000799 0.0
0.660226 0.796885 -0.001328 0.0
3.886809 1.660241 -0.001103 0.0
0.129640 1.370482 -0.001607 0.0
1.649427 1.560104 -0.002287 0.0
0.556627 1.774391 0.000338 0.0
1.609106 1.178476 0.002022 0.0
4.184431 2.363504 -0.002585 0.0
0.447985 2.252409 -0.000498 0.0
1.094017 1.235021 0.000838 0.0
0.891952 -0.001159 0.004562 0.0
3.872205 2.063462 -0.002973 0.0
0.255605 0.219984 -0.002553 0.0
0.963006 1.411764 0.001689 0.0
2.019725 0.766835 -0.002589 0.0
3.030799 0.987959 -0.000636 0.0
4.516702 0.995894 -0.000088 0.0
0.191716 2.255934 0.001810 0.0
0.274001 0.853019 0.001279 0.0
2.147824 0.757617 -0.004873 0.0
4.658738 1.552908 0.001280 0.0
1.376194 0.424598 0.002663 0.0
0.927875 1.186393 -0.000399 0.0
2.223596 0.727128 -0.002874 0.0
0.707556 1.179992 -0.000806 0.0
2.348999 0.768424 -0.005352 0.0
2.528016 1.396393 0.003677 0.0
3.347232 1.404906 0.002416 0.0
2.242033 0.858409 -0.002820 0.0
3.699442 1.305063 -0.002402 0.0
3.097233 1.278598 0.000368 0.0
3.400618 1.900901 0.001491 0.0
3.760732 0.004191 0.000826 0.0
1.865568 1.319182 0.000897 0.0
2.773647 1.057187 -0.001910 0.0
2.417855 0.388340 0.002056 0.0
1.436475 2.025542 0.000508 0.0
2.034334 1.203430 0.003706 0.0
1.296877 0.118524 0.002147 0.0
1.198362 0.238922 -0.003594 0.0
4.626886 1.629853 -0.000522 0.0
4.259919 1.298104 0.001347 0.0
0.308913 0.359413 0.003824 0.0
2.683083 1.742539 0.001070 0.0
1.777288 0.956715 -0.002229 0.0
2.192175 2.265754 0.000966 0.0
2.915850 1.929438 0.002463 0.0
2.599147 2.052690 0.003826 0.0
0.048298 0.670773 0.004610 0.0
4.729209 1.880012 -0.002324 0.0
2.965231 1.722509 0.003484 0.0
0.597160 1.587922 0.002049 0.0
3.020334 0.576355 0.003197 0.0
0.204484 1.790087 -0.000888 0.0
0.261137 2.435573 0.003280 0.0
1.634194 1.627386 0.002161 0.0
3.195345 1.956690 0.001936 0.0
1.302179 0.930460 0.002283 0.0
2.028450 0.332689 -0.003378 0.0
1.550755 1.222418 -0.002504 0.0
3.696229 2.287225 0.005352 0.0
4.194929 1.869721 0.004012 0.0
2.494842 0.696713 -0.004730 0.0
0.306075 2.077139 -0.000384 0.0
0.118087 1.843357 0.001049 0.0
0.492071 0.074583 -0.002377 0.0
2.967197 2.018470 0.000866 0.0
3.093630 2.268367 -0.001037 0.0
3.739301 0.418596 -0.005864 0.0
0.335497 0.504671 -0.000335 0.0
4.771552 1.120987 0.001248 0.0
2.847907 1.042691 0.000735 0.0
3.484269 0.907354 -0.004425 0.0
3.054229 1.554523 -0.000998 0.0
1.005982 1.402945 0.000775 0.0
1.368742 2.209662 -0.003342 0.0
4.185493 2.174179 -0.006448 0.0
3.434450 1.798844 0.005627 0.0
4.426354 1.007504 0.001337 0.0
0.380706 1.400719 -0.005679 0.0
4.383571 0.513458 -0.001434 0.0
4.576756 0.921188 0.004606 0.0
3.404117 0.231649 0.004728 0.0
4.281069 1.842557 0.001843 0.0
3.587420 1.573080 -0.000915 0.0
0.149350 1.897997 0.003501 0.0
0.939340 0.838082 -0.000880 0.0
2.536714 0.041506 0.000153 0.0
1.549953 2.340650 -0.001891 0.0
2.416572 0.023722 0.000597 0.0
1.219349 1.429903 -0.002441 0.0
1.013311 1.709391 -0.004193 0.0
4.810103 0.564627 -0.000868 0.0
1.036742 0.791675 0.000747 0.0
1.008418 1.838956 -0.001330 0.0
3.128903 0.519450 0.002927 0.0
2.384074 0.532260 0.004170 0.0
3.665579 0.708772 0.000602 0.0
1.876028 2.363714 0.001439 0.0
1.752483 0.836164 -0.000868 0.0
0.937395 0.344123 0.001129 0.0
4.682731 2.053633 0.003595 0.0
1.940431 1.026371 0.000422 0.0
1.279939 1.951250 -0.001647 0.0
0.323160 0.818247 -0.004024 0.0
1.573321 1.445162 0.003663 0.0
3.089686 0.312440 0.001066 0.0
1.493695 1.693609 -0.003027 0.0
3.011657 0.080553 0.001751 0.0
1.266998 2.055489 -0.000546 0.0
3.721353 2.266280 0.002449 0.0
0.282715 0.979495 0.004336 0.0
4.255612 0.053238 -0.001682 0.0
3.157709 1.075095 0.002254 0.0
3.687991 0.957820 -0.000223 0.0
0.020744 0.358643 0.001269 0.0
4.523113 1.482472 -0.003688 0.0
3.148121 1.131660 -0.001579 0.0
3.219640 1.870059 -0.005780 0.0
0.216082 1.491762 0.001008 0.0
4.640527 1.836174 0.000216 0.0
2.020955 0.828471 -0.000830 0.0
0.993256 0.788933 0.001998 0.0
3.911391 0.341036 -0.001123 0.0
4.860915 2.222027 -0.003636 0.0
1.604836 0.757003 0.004583 0.0
0.370521 2.227323 -0.004116 0.0
2.252930 2.218450 0.003320 0.0
4.259660 1.094498 0.000262 0.0
1.754609 2.410597 -0.007968 0.0
2.050628 0.120789 -0.001059 0.0
1.535507 0.115615 0.002865 0.0
3.065238 1.090164 -0.002006 0.0
2.147949 1.822692 0.000726 0.0
4.791769 0.385346 -0.002142 0.0
4.821449 1.305579 -0.002105 0.0
3.232443 0.819440 -0.000543 0.0
3.495757 0.077365 -0.000794 0.0
2.822708 0.645643 0.005373 0.0
2.606289 1.133104 -0.004137 0.0
0.339445 1.359225 0.000396 0.0
2.746099 1.722010 -0.000407 0.0
4.337620 2.145248 -0.001881 0.0
1.022860 1.478970 0.001230 0.0
1.408076 2.432150 0.000577 0.0
3.543003 1.279716 0.002116 0.0
2.558296 1.549915 0.000939 0.0
1.545303 1.638720 -0.000489 0.0
3.329041 0.360723 0.001805 0.0
4.810651 2.303937 -0.000188 0.0
1.971512 2.126014 0.001686 0.0
3.115214 0.676412 -0.000733 0.0
1.286460 1.536723 0.000219 0.0
1.790614 2.375608 -0.003186 0.0
1.270155 0.936783 -0.000333 0.0
2.707435 0.887167 -0.000671 0.0
2.443962 2.265555 -0.001900 0.0
3.964976 2.006587 0.001136 0.0
3.129172 2.049224 -0.001109 0.0
0.770053 2.341361 0.000057 0.0
3.523113 1.255332 0.003003 0.0
0.589340 1.169659 -0.005359 0.0
3.744432 1.333755 0.000120 0.0
0.586025 1.937083 0.000174 0.0
4.028254 0.167249 -0.000938 0.0
2.431583 2.191991 0.001748 0.0
3.685116 1.329849 -0.005733 0.0
1.964723 1.307737 0.000416 0.0
0.940486 0.122073 -0.001707 0.0
2.213144 0.674793 0.001696 0.0
3.484561 0.984379 0.000155 0.0
0.701824 0.237059 -0.000317 0.0
3.400691 1.554266 0.002841 0.0
3.441370 2.084947 -0.001329 0.0
4.247515 1.648906 -0.002604 0.0
3.611057 0.908075 0.002888 0.0
0.421958 1.849783 0.001223 0.0
0.221954 2.323026 -0.004164 0.0
0.970068 2.280868 0.001258 0.0
2.774699 0.153484 0.004354 0.0
3.050038 0.644339 0.000485 0.0
3.439444 1.485802 -0.000480 0.0
1.649380 1.061478 0.001233 0.0
2.058977 0.787638 -0.005038 0.0
0.033266 1.052704 0.003067 0.0
0.257550 2.052743 -0.001309 0.0
0.905568 0.301670 0.002793 0.0
1.860788 0.556614 0.000346 0.0
3.816940 1.695593 -0.001860 0.0
3.713463 0.852628 0.002780 0.0
4.472966 1.002826 0.001571 0.0
0.292512 1.373288 -0.002425 0.0
3.603103 0.243830 -0.001988 0.0
1.059866 0.820976 0.001591 0.0
0.866871 0.189775 0.005309 0.0
2.799485 0.116689 0.002860 0.0
0.331547 1.727406 -0.000118 0.0
3.165111 0.747182 -0.003390 0.0
3.994504 2.465458 0.005382 0.0
4.799096 2.094253 0.001120 0.0
2.436344 2.071141 0.002276 0.0
4.011539 1.691729 0.001084 0.0
0.849965 1.498947 -0.003372 0.0
0.588085 1.680767 -0.000202 0.0
2.175883 2.284809 -0.001418 0.0
2.358298 1.703931 0.001788 0.0
1.321334 2.382280 -0.001509 0.0
4.121165 2.373790 -0.003142 0.0
4.667186 2.051828 0.002239 0.0
1.969975 1.387119 0.005743 0.0
4.371668 0.260699 -0.000891 0.0
4.268997 0.652254 0.001181 0.0
3.677798 1.723623 0.000900 0.0
4.024991 0.578019 0.000542 0.0
3.074911 0.206677 0.002138 0.0
1.446150 1.306704 -0.001674 0.0
2.218102 2.379958 -0.002354 0.0
4.141944 0.368605 0.002261 0.0
4.127568 1.949425 -0.000389 0.0
4.164531 0.633677 -0.001334 0.0
4.532217 0.949782 -0.001474 0.0
1.828549 1.771732 -0.000575 0.0
4.804502 1.217265 0.000340 0.0
2.088171 1.355943 -0.002012 0.0
1.813222 0.818508 0.002589 0.0
4.164482 0.058499 0.001558 0.0
4.074468 1.139023 0.001065 0.0
2.761614 0.858252 -0.002487 0.0
3.852350 1.191568 -0.000051 0.0
0.278053 0.869818 -0.000721 0.0
4.418485 2.331197 0.001411 0.0
1.552885 1.645000 -0.000936 0.0
3.421543 1.723555 0.000257 0.0
2.234322 0.356598 -0.001064 0.0
4.284746 1.273923 -0.001756 0.0
4.135422 0.818485 0.007290 0.0
2.057630 2.177960 0.002552 0.0
1.976090 1.884341 0.000558 0.0
1.873727 0.414685 -0.000630 0.0
4.261047 1.285053 -0.002237 0.0
1.316441 1.359119 0.000798 0.0
1.022482 0.119050 0.001334 0.0
2.913505 1.747325 -0.001689 0.0
4.572599 2.231528 0.001129 0.0
3.384357 1.100819 -0.001795 0.0
0.862339 1.186072 0.004236 0.0
4.624037 1.285857 -0.001335 0.0
4.718793 1.479474 -0.002032 0.0
1.984668 2.267157 -0.003411 0.0
2.642907 2.241900 0.001530 0.0
3.728789 1.355229 0.001137 0.0
0.319561 0.637013 0.001380 0.0
3.144285 2.465189 0.001181 0.0
0.256058 0.468232 0.000022 0.0
4.318125 0.289299 0.001647 0.0
1.760960 0.286338 0.003094 0.0
0.238142 2.369058 0.000950 0.0
2.250436 0.670247 -0.000920 0.0
3.953845 1.118965 0.002397 0.0
1.086240 1.479123 0.001357 0.0
0.615387 0.442672 0.000114 0.0
1.116152 0.805398 0.000137 0.0
1.444277 0.890730 -0.001054 0.0
4.723595 1.178071 0.002299 0.0
2.251124 1.282173 0.002315 0.0
4.307938 0.934047 -0.002583 0.0
2.644512 2.096444 -0.001908 0.0
0.877567 2.049142 -0.000132 0.0
0.247593 0.791537 -0.000162 0.0
0.389633 1.469418 -0.001085 0.0
3.173126 1.651303 -0.000079 0.0
2.642331 1.081312 0.000459 0.0
3.285998 2.434902 0.001913 0.0
1.409583 0.042170 0.002607 0.0
2.059797 0.654452 -0.001395 0.0
1.323424 2.149011 0.001120 0.0
4.472702 1.572142 -0.002808 0.0
2.634556 0.726254 -0.002635 0.0
2.517238 0.212185 0.004770 0.0
1.435503 1.938704 0.001075 0.0
3.959681 0.061934 0.003314 0.0
4.437005 1.175249 0.003424 0.0
1.560619 0.512082 0.000663 0.0
0.723278 1.875343 0.000566 0.0
4.668455 1.707611 -0.003598 0.0
0.645277 1.483251 -0.003307 0.0
4.795163 1.464709 -0.002664 0.0
1.758369 1.607664 0.002760 0.0
0.435983 1.783419 -0.001205 0.0
0.991737 1.932949 -0.004912 0.0
0.029177 2.261122 0.004003 0.0
4.486962 0.412278 0.000754 0.0
4.836815 1.136957 -0.006228 0.0
0.720222 2.223699 0.000196 0.0
0.614438 1.217819 -0.002734 0.0
4.177721 0.595211 0.000358 0.0
2.736180 2.392403 0.000986 0.0
4.128355 0.149079 0.005228 0.0
2.316624 1.818174 -0.000557 0.0
0.080024 0.786890 -0.001944 0.0
0.763604 0.177403 -0.000845 0.0
1.279839 1.768684 0.000404 0.0
2.863432 1.163163 0.003657 0.0
1.951731 2.439298 -0.003979 0.0
4.544415 0.739094 -0.003158 0.0
0.823261 0.859773 0.003270 0.0
0.776759 1.894087 -0.002164 0.0
1.421471 0.570538 0.003113 0.0
1.818795 0.090393 -0.001861 0.0
1.703905 2.197804 -0.000779 0.0
1.956726 1.120774 -0.000497 0.0
3.281962 1.683523 -0.000194 0.0
2.585613 2.199939 0.007142 0.0
3.127747 1.597380 -0.003853 0.0
1.937034 1.237020 0.000774 0.0
2.347727 0.629169 -0.001875 0.0
4.398180 0.262442 -0.001784 0.0
3.769662 1.319760 -0.000555 0.0
4.690129 1.968143 -0.004609 0.0
1.536174 0.466763 0.000008 0.0
4.507988 0.665009 -0.003109 0.0
3.120960 0.324087 -0.001798 0.0
1.662536 0.128347 -0.000579 0.0
2.942214 1.347265 -0.003246 0.0
3.448739 1.357708 0.003345 0.0
4.051685 2.006519 0.001590 0.0
2.326508 1.033387 0.000005 0.0
3.017377 1.043851 0.000992 0.0
1.893011 2.434952 -0.004800 0.0
3.583998 1.532231 -0.000436 0.0
1.145582 1.080915 -0.003414 0.0
4.680671 0.409804 -0.003681 0.0
4.195372 0.788860 0.001828 0.0
1.554967 1.272526 0.001552 0.0
0.223278 1.965419 0.002407 0.0
3.170986 2.000743 0.000058 0.0
3.330647 2.260607 -0.000902 0.0
4.405949 1.087709 -0.001676 0.0
3.115763 1.684805 0.000205 0.0
2.640395 1.190023 -0.005165 0.0
3.479231 0.119491 -0.003047 0.0
3.143213 2.475958 0.001334 0.0
3.247588 1.342402 -0.000940 0.0
1.579646 1.637300 0.004326 0.0
0.679560 1.119734 -0.001100 0.0
2.417638 0.595335 0.002646 0.0
2.739707 2.071945 0.004160 0.0
3.486039 1.309327 -0.004983 0.0
3.188231 0.380848 0.003684 0.0
2.387374 1.734534 -0.005474 0.0
2.625220 2.249346 -0.002958 0.0
0.091584 0.112185 -0.001646 0.0
2.600218 0.654497 -0.000066 0.0
2.213274 1.687968 0.004210 0.0
2.519911 0.426140 -0.001218 0.0
1.712065 0.168706 -0.003591 0.0
4.142042 2.254510 0.002143 0.0
4.337995 2.025176 0.000945 0.0
0.606710 1.069220 0.001189 0.0
1.482950 1.527125 -0.001147 0.0
4.601193 1.785834 0.000996 0.0
0.315391 0.555002 0.003458 0.0
2.713823 2.233361 -0.003416 0.0
1.547580 1.586227 0.000331 0.0
1.795630 0.747375 -0.000937 0.0
0.561400 0.761671 -0.000443 0.0
2.178779 1.886654 0.001384 0.0
2.727440 0.052911 0.001601 0.0
0.030633 0.564705 0.002064 0.0
1.155629 0.020217 0.003765 0.0
2.621648 1.148607 0.000023 0.0
2.765823 1.174164 0.001051 0.0
2.069043 2.473188 -0.000073 0.0
0.400684 0.679332 -0.002049 0.0
2.112093 0.574217 -0.000152 0.0
4.559506 0.905248 -0.003103 0.0
3.321774 2.136079 0.003101 0.0
2.015277 1.141338 -0.005968 0.0
0.757343 2.296462 0.005177 0.0
1.573860 2.253646 0.005062 0.0
4.602116 1.023222 -0.004068 0.0
0.306546 0.112856 -0.002322 0.0
1.029286 1.550293 0.004040 0.0
3.500879 0.305255 0.001109 0.0
2.487989 1.226479 0.002112 0.0
1.932361 2.040936 -0.003803 0.0
3.742892 0.028352 0.000096 0.0
4.695235 1.579451 0.000509 0.0
0.422378 0.301981 -0.001872 0.0
4.120421 1.947614 0.000517 0.0
3.787570 0.840526 -0.000539 0.0
3.959424 0.287850 0.004105 0.0
4.649934 1.569730 0.002739 0.0
2.634403 1.583638 0.002790 0.0
1.536320 0.933447 -0.000547 0.0
2.502650 1.413418 -0.000411 0.0
4.657735 1.452864 -0.002199 0.0
0.844365 2.364000 -0.002373 0.0
4.390751 1.040892 0.002528 0.0
1.710420 0.680990 -0.000289 0.0
1.413251 0.622123 0.000737 0.0
2.295045 0.520083 0.005209 0.0
4.737326 0.192030 -0.002926 0.0
3.197895 1.209757 0.000541 0.0
1.394360 0.076078 0.002838 0.0
3.538421 0.603501 -0.000507 0.0
3.378187 1.788297 0.000638 0.0
0.539304 0.793085 -0.001023 0.0
0.396662 1.106467 0.001116 0.0
2.053287 1.427061 0.002856 0.0
0.450568 0.604567 -0.003394 0.0
1.433836 1.987579 0.001136 0.0
3.817783 0.556006 0.001350 0.0
0.208246 1.352324 0.004450 0.0
0.750298 0.920748 0.003498 0.0
4.164182 1.006640 -0.000926 0.0
2.154604 1.575461 0.000910 0.0
4.542271 0.733197 -0.001245 0.0
3.969496 1.827300 0.006778 0.0
1.094835 1.124832 0.003567 0.0
1.918142 1.708842 0.002340 0.0
1.588935 0.729384 0.002074 0.0
0.792732 0.687339 -0.004662 0.0
0.134328 1.655604 -0.002677 0.0
3.554440 0.343801 0.001183 0.0
3.564916 2.333227 -0.004526 0.0
1.453611 0.339780 -0.000460 0.0
2.948528 2.109940 -0.001306 0.0
1.148323 0.264048 0.003940 0.0
0.687643 0.719221 0.002466 0.0
2.243376 0.986139 0.003413 0.0
0.643039 2.071841 -0.000968 0.0
0.820846 0.610195 -0.002571 0.0
4.670314 1.423644 0.001161 0.0
3.779472 0.686164 -0.002225 0.0
1.104010 0.351064 -0.000605 0.0
3.388628 0.596702 -0.001534 0.0
0.631039 1.993110 0.000663 0.0
4.362428 1.200342 -0.003016 0.0
3.384073 2.115212 -0.001307 0.0
2.303451 0.639054 0.002089 0.0
0.105331 2.291786 0.001208 0.0
3.938414 1.259129 0.006404 0.0
2.232647 0.123412 0.001881 0.0
1.246736 0.592135 0.001096 0.0
3.299443 2.421083 -0.000844 0.0
2.381588 0.587044 -0.004583 0.0
4.226806 1.561148 -0.000761 0.0
3.420193 1.083443 -0.002901 0.0
4.548635 2.181624 -0.002099 0.0
4.269387 1.997979 -0.004300 0.0
3.243985 1.718614 0.001104 0.0
1.649042 0.505704 0.000949 0.0
2.329116 0.638852 0.000156 0.0
0.228920 2.283853 -0.001810 0.0
0.225456 0.112390 0.000558 0.0
3.877893 0.590676 0.004004 0.0
2.412315 1.408583 -0.001280 0.0
1.345644 2.387579 0.000506 0.0
1.345996 1.955100 -0.001790 0.0
3.436642 1.524947 0.003347 0.0
3.858861 2.193862 0.000330 0.0
1.608378 0.535922 -0.001029 0.0
3.985706 0.887652 -0.001918 0.0
1.628156 0.951440 -0.002560 0.0
0.196853 0.296035 0.001323 0.0
4.707377 2.401827 0.001667 0.0
0.785589 0.375266 0.001895 0.0
0.648346 1.794604 0.002442 0.0
2.577373 1.020689 0.001062 0.0
0.651579 1.460300 -0.003183 0.0
1.477242 1.359346 0.000049 0.0
3.073012 1.910857 0.002395 0.0
1.571214 2.117269 -0.003396 0.0
2.139944 1.655782 0.001052 0.0
2.055580 0.940001 -0.000732 0.0
1.126427 0.333130 -0.002326 0.0
2.757612 1.378594 -0.002685 0.0
2.970219 1.669453 -0.001800 0.0
4.589945 1.815562 -0.003678 0.0
0.713140 0.160597 -0.000928 0.0
4.595327 1.521118 0.001271 0.0
3.583089 0.964524 -0.000955 0.0
1.756142 2.245667 -0.000805 0.0
1.364979 0.248705 0.000787 0.0
4.100789 0.104900 0.003615 0.0
2.589881 1.526154 -0.000473 0.0
1.795784 0.131552 0.000469 0.0
1.593296 1.073233 0.000720 0.0
1.401866 0.447953 -0.002038 0.0
2.742045 1.415123 -0.000315 0.0
0.364877 1.904621 0.002928 0.0
1.475671 2.203476 -0.002814 0.0
4.828546 1.590385 0.001254 0.0
3.148378 1.471044 0.000511 0.0
1.772120 0.640480 -0.001753 0.0
0.009767 1.384000 0.001252 0.0
4.426362 1.463938 -0.001702 0.0
4.164191 0.550647 0.000079 0.0
1.674321 0.381625 0.000793 0.0
0.262919 0.686476 -0.000973 0.0
1.136064 0.544155 0.002012 0.0
3.890000 1.507790 -0.000762 0.0
1.445148 1.033926 -0.001097 0.0
4.262474 2.104234 -0.004214 0.0
4.245782 2.426996 -0.001741 0.0
3.123193 1.211520 0.001676 0.0
3.278977 0.142084 0.003121 0.0
2.574897 1.972702 -0.001558 0.0
1.063628 0.831306 0.001207 0.0
2.913171 0.647355 -0.001567 0.0
4.521089 1.210684 0.001513 0.0
4.277391 0.710953 -0.001701 0.0
3.809943 1.488320 0.000310 0.0
3.048415 1.295495 0.002830 0.0
3.076315 1.958390 0.001326 0.0
1.039901 0.974905 -0.006524 0.0
2.672695 1.359772 0.001986 0.0
4.391369 2.385342 -0.001646 0.0
3.003902 2.051736 0.001818 0.0
1.644495 1.796281 -0.001059 0.0
3.293341 1.510840 0.000467 0.0
1.527017 2.159170 0.003577 0.0
0.590517 2.325390 -0.000207 0.0
2.341660 0.860082 -0.000524 0.0
4.839569 0.603573 0.002963 0.0
0.981540 0.891697 0.000718 0.0
3.966214 1.011165 0.003014 0.0
0.149835 1.686554 -0.001827 0.0
4.085918 1.191986 -0.000211 0.0
1.584096 0.128179 -0.000048 0.0
0.944541 2.100832 -0.000370 0.0
3.508373 0.212565 -0.001296 0.0
3.666019 0.613532 -0.005990 0.0
4.610237 1.542959 0.001586 0.0
4.554070 0.293242 -0.000991 0.0
2.436908 0.466598 0.000585 0.0
0.785248 0.938155 -0.002923 0.0
0.158030 0.712776 0.001570 0.0
3.549531 1.584455 0.000553 0.0
2.907058 1.000004 0.001580 0.0
2.196279 0.550025 -0.002293 0.0
4.512219 1.148943 0.001401 0.0
0.038441 1.138011 -0.004246 0.0
1.543198 0.592079 0.002333 0.0
0.997268 2.011902 0.002272 0.0
1.127789 1.223718 0.000493 0.0
1.822409 0.754626 0.001066 0.0
0.193597 0.533325 0.001127 0.0
0.666175 2.049038 0.000381 0.0
2.884242 1.247463 0.001213 0.0
1.160336 1.937376 0.003275 0.0
2.652491 0.575767 -0.002852 0.0
3.566811 1.301838 -0.003748 0.0
2.649914 1.729008 0.001853 0.0
1.009706 1.719228 -0.000853 0.0
1.334324 1.886488 -0.002805 0.0
2.892405 1.527813 0.000529 0.0
0.710998 2.098046 0.002428 0.0
2.463413 0.388652 0.001888 0.0
2.205749 1.262707 -0.001816 0.0
4.660159 1.473821 -0.004316 0.0
3.702954 2.425855 -0.004853 0.0
4.282106 1.665326 -0.000052 0.0
3.447987 1.426542 -0.000922 0.0
3.072775 1.420196 0.001026 0.0
4.050947 1.609182 -0.000606 0.0
0.794196 1.214365 -0.000742 0.0
2.865584 1.179865 0.000790 0.0
1.560689 0.068872 -0.001528 0.0
1.214214 1.766952 -0.000622 0.0
3.889876 2.205227 -0.004607 0.0
0.539448 1.340785 -0.001096 0.0
4.143583 2.369556 -0.000831 0.0
0.714555 1.366227 0.001056 0.0
1.887632 0.503132 -0.002847 0.0
2.792252 1.742689 0.004373 0.0
0.021860 1.338881 -0.001405 0.0
1.262642 1.107780 -0.002686 0.0
0.773308 0.395683 0.000638 0.0
4.509248 1.613465 0.002492 0.0
4.003628 0.935861 0.001570 0.0
2.960732 0.951738 -0.002561 0.0
4.607501 2.475722 0.001469 0.0
1.382694 0.251382 -0.001473 0.0
0.803593 1.541772 -0.000771 0.0
4.163902 1.102050 0.001887 0.0
3.197621 0.737091 0.001382 0.0
3.466127 1.867397 -0.001010 0.0
1.076537 1.245645 0.001331 0.0
1.257597 0.618930 0.002549 0.0
2.678470 1.953338 0.000908 0.0
1.927900 2.193241 -0.002434 0.0
1.064808 0.360999 -0.002942 0.0
4.173243 0.483100 0.000249 0.0
0.605108 1.093988 -0.001140 0.0
3.206125 1.504942 0.006590 0.0
3.603831 1.651781 -0.001436 0.0
0.621631 2.188870 -0.003553 0.0
3.173639 1.163623 -0.000745 0.0
3.837957 0.026558 -0.000255 0.0
3.035703 1.322777 0.001712 0.0
1.286021 1.590338 0.000387 0.0
4.641003 1.138021 0.000437 0.0
0.634928 1.282730 -0.000087 0.0
1.209773 2.434035 -0.000318 0.0
0.945903 0.200402 -0.005085 0.0
3.063272 0.535112 -0.000159 0.0
3.165048 1.239376 -0.003150 0.0
3.837879 0.017024 0.001308 0.0
0.316994 0.776536 0.001818 0.0
4.404803 0.233543 0.004165 0.0
0.679568 2.237963 -0.000896 0.0
1.481707 0.793483 0.000047 0.0
2.511689 0.382492 0.001236 0.0
3.177745 0.751274 -0.000686 0.0
0.209658 0.549976 -0.006294 0.0
0.708251 0.748669 -0.002963 0.0
0.899152 1.444262 0.002343 0.0
3.826545 2.476646 -0.001749 0.0
0.517574 2.446828 0.003678 0.0
0.447021 2.017558 -0.001947 0.0
0.755075 0.596725 -0.002487 0.0
1.999172 1.179100 -0.001975 0.0
0.086016 0.105543 -0.002143 0.0
4.731062 0.111885 0.002807 0.0
1.910969 1.678422 0.002458 0.0
4.280147 2.212967 -0.003270 0.0
2.059945 1.129026 0.001763 0.0
4.612805 2.435481 -0.001962 0.0
0.081098 1.208342 0.002276 0.0
4.183131 0.102125 0.003174 0.0
0.773057 0.948818 -0.000399 0.0
1.165359 2.112472 0.002469 0.0
1.260103 0.808765 0.000637 0.0
1.228184 0.605094 0.001571 0.0
3.644545 2.112017 0.000831 0.0
3.654125 0.291091 -0.001841 0.0
3.880495 1.134913 0.001682 0.0
2.014147 0.984201 -0.007055 0.0
3.273551 1.906064 0.000004 0.0
2.213011 1.336789 -0.002432 0.0
0.323854 0.341522 -0.001280 0.0
3.701244 0.497319 0.001752 0.0
0.302772 1.453784 0.001519 0.0
0.624961 2.243621 0.000802 0.0
4.210272 1.573862 -0.001810 0.0
1.546903 0.756286 0.004463 0.0
0.035478 1.154128 0.001774 0.0
2.415342 0.904186 0.004255 0.0
4.025995 0.062614 -0.000954 0.0
3.210908 2.019566 -0.000244 0.0
3.972785 1.660860 -0.000296 0.0
0.232211 0.902792 -0.000074 0.0
0.768177 0.112845 0.001306 0.0
0.904481 0.333093 -0.007028 0.0
0.289456 2.249581 -0.001072 0.0
4.642871 2.016779 0.000165 0.0
2.739842 1.777243 -0.003011 0.0
3.798214 0.673711 -0.004161 0.0
3.004349 0.394053 0.002290 0.0
4.313506 0.980838 0.001201 0.0
4.666233 0.775804 0.000621 0.0
1.511899 0.524914 -0.002065 0.0
3.003654 1.943327 -0.001514 0.0
3.708910 2.171878 -0.001516 0.0
0.880558 2.138765 0.000504 0.0
0.305565 0.336950 0.001147 0.0
4.726941 0.985847 -0.000392 0.0
2.435120 0.278922 0.003454 0.0
0.531437 1.420946 -0.002318 0.0
3.701134 1.549688 0.001099 0.0
3.621773 2.378526 -0.001381 0.0
4.018660 0.222819 0.002991 0.0
2.381672 0.140806 0.001263 0.0
4.699067 0.304807 -0.001120 0.0
1.093412 0.779034 0.001266 0.0
1.123292 0.413402 0.002155 0.0
4.606406 1.977705 0.002909 0.0
1.000677 0.735065 -0.001602 0.0
0.118880 0.361270 0.000108 0.0
3.226478 1.948411 -0.001370 0.0
1.623182 1.746829 -0.002549 0.0
4.661214 0.849965 0.002620 0.0
0.374753 1.093564 -0.002934 0.0
2.911915 0.360305 0.001822 0.0
1.233303 0.360287 0.001423 0.0
2.921298 1.866376 -0.004595 0.0
4.363891 0.072172 0.000642 0.0
4.165672 1.972353 -0.002261 0.0
0.957381 1.139087 -0.000449 0.0
2.518958 2.012805 0.004402 0.0
3.187332 1.915515 0.004092 0.0
4.010165 0.479058 -0.004025 0.0
1.005535 1.345341 -0.001792 0.0
2.314214 2.430812 0.001069 0.0
2.970389 1.556109 0.002421 0.0
0.468844 0.719425 -0.000490 0.0
3.070470 1.538539 -0.003031 0.0
1.824375 2.344768 -0.001588 0.0
2.716008 2.357980 0.001562 0.0
1.957399 0.973331 -0.002402 0.0
2.974021 1.838534 0.004751 0.0
4.034392 1.688429 0.000495 0.0
4.243452 0.850015 -0.000643 0.0
3.572018 0.928058 0.004423 0.0
1.670825 2.427358 0.003746 0.0
0.996238 1.698234 0.001744 0.0
4.187009 0.805726 -0.000123 0.0
0.142717 0.086996 0.001815 0.0
1.207410 1.292069 0.002268 0.0
3.602486 0.315263 -0.001634 0.0
1.815844 0.001635 0.002526 0.0
2.124323 1.005528 0.000602 0.0
4.666117 0.544134 -0.003767 0.0
2.393741 1.795447 0.001966 0.0
1.576053 1.556442 -0.000536 0.0
2.193467 1.604960 0.001121 0.0
2.110949 0.738799 -0.000604 0.0
2.811634 2.477797 -0.001989 0.0
0.638539 1.916444 -0.003944 0.0
3.823069 1.961554 -0.000671 0.0
3.625014 1.301831 0.002613 0.0
1.335369 1.513120 0.001309 0.0
0.083354 0.759786 -0.004183 0.0
3.252166 1.371338 -0.002925 0.0
4.084688 2.129091 0.000097 0.0
0.721029 2.316348 -0.000541 0.0
2.157992 0.730050 -0.003480 0.0
3.043289 1.151511 -0.000431 0.0
0.485526 2.134340 0.001606 0.0
2.087522 1.221964 0.004216 0.0
4.785655 0.993161 -0.003337 0.0
1.016955 1.360862 -0.004853 0.0
0.022816 1.595926 0.001468 0.0
1.304520 0.262916 -0.004157 0.0
3.286329 1.417323 -0.002160 0.0
3.372133 1.360945 -0.001323 0.0
4.686591 2.343027 0.001460 0.0
3.853460 2.303851 -0.003697 0.0
3.484766 0.235385 0.002336 0.0
2.698205 1.480276 -0.001819 0.0
4.536413 1.231696 0.000717 0.0
2.041730 0.227663 0.000043 0.0
4.623876 1.435681 0.002342 0.0
3.440187 0.716354 -0.000110 0.0
0.977384 0.111787 -0.003279 0.0
4.230951 0.250220 -0.000400 0.0
1.529255 2.032795 0.000833 0.0
2.113698 1.447970 0.000112 0.0
0.957366 2.448059 0.000492 0.0
3.084419 2.205337 0.000023 0.0
0.940407 1.050263 0.001175 0.0
3.623719 1.736028 -0.001000 0.0
4.525107 0.393476 0.002412 0.0
3.704138 2.475669 0.000317 0.0
0.854214 1.240799 0.002951 0.0
0.200720 0.650022 -0.004410 0.0
2.286092 2.180615 0.002008 0.0
1.277183 2.267967 0.002064 0.0
3.301344 0.171930 -0.004335 0.0
1.854952 0.983361 0.001045 0.0
1.576318 1.082894 0.004766 0.0
4.474797 0.000151 0.000213 0.0
4.330395 0.060642 -0.001573 0.0
0.900568 0.092105 0.004760 0.0
2.560522 1.863129 -0.000842 0.0
0.878132 0.291479 0.002107 0.0
3.678952 0.842296 0.004833 0.0
2.622847 0.476417 0.002245 0.0
0.398843 1.057474 -0.002645 0.0
0.715495 0.448918 -0.000153 0.0
3.144684 1.589428 0.004197 0.0
2.351274 2.031841 0.003670 0.0
0.766963 2.079853 -0.001598 0.0
0.309399 0.785241 0.003527 0.0
0.838589 0.397113 -0.004680 0.0
3.076898 1.166809 0.001903 0.0
0.094053 0.285965 0.001628 0.0
1.720198 2.357446 0.001526 0.0
1.813177 1.460047 -0.005137 0.0
4.417642 1.769951 0.003714 0.0
0.135103 1.833880 0.001250 0.0
1.608898 1.597157 0.001216 0.0
2.857459 0.947430 -0.003685 0.0
1.646987 1.047570 -0.001188 0.0
2.453382 2.380511 0.002984 0.0
2.386784 2.059878 0.003232 0.0
3.983642 1.258685 -0.002040 0.0
3.661206 0.992566 -0.001838 0.0
4.767330 0.925359 0.001792 0.0
4.242860 2.436393 -0.001049 0.0
0.230359 1.496668 0.004504 0.0
3.786966 1.993782 0.000017 0.0
1.485917 2.028326 -0.003301 0.0
2.867669 0.287482 -0.003245 0.0
1.347655 1.344041 0.002723 0.0
1.867859 0.059944 -0.000060 0.0
1.287605 1.533873 -0.001889 0.0
1.942139 1.308412 -0.000488 0.0
4.771994 2.188365 0.000934 0.0
2.047274 0.061057 0.000923 0.0
0.608666 0.300859 -0.000600 0.0
2.105203 1.381921 0.002193 0.0
4.005633 0.064805 0.005175 0.0
0.140721 0.959826 -0.002992 0.0
0.516752 1.205482 0.001711 0.0
1.951871 2.183489 -0.001322 0.0
3.266547 0.910992 -0.001097 0.0
4.764266 1.051921 0.000963 0.0
4.560076 0.865944 0.005620 0.0
1.149821 2.002164 -0.000746 0.0
2.486931 0.957503 0.002865 0.0
3.504900 1.447457 -0.000223 0.0
2.585904 1.962311 0.002768 0.0
0.583343 0.512840 0.000901 0.0
1.949430 2.278955 -0.000960 0.0
1.465642 2.120077 -0.004936 0.0
0.205954 0.925660 -0.000664 0.0
2.784183 2.200435 0.006088 0.0
3.411348 0.313704 0.000138 0.0
0.095588 1.314485 0.003205 0.0
2.036378 0.872505 -0.001547 0.0
1.163895 0.870889 0.001230 0.0
0.207797 0.345932 -0.003346 0.0
3.451055 1.298231 0.000720 0.0
1.529397 2.266554 0.001356 0.0
1.915959 0.790842 0.001032 0.0
3.814685 1.700783 0.000047 0.0
1.651879 0.665142 0.000957 0.0
4.392655 2.283456 -0.003834 0.0
2.037414 0.539109 -0.001269 0.0
4.777631 0.804596 -0.001503 0.0
0.635119 0.521168 -0.000478 0.0
1.169141 1.042711 0.001112 0.0
0.137246 2.082877 0.000802 0.0
0.347894 1.746845 0.001385 0.0
0.688462 1.013365 0.000925 0.0
2.647363 1.537934 -0.002215 0.0
0.904602 2.154244 -0.000212 0.0
3.586978 1.612049 0.000731 0.0
1.523166 0.698132 0.002607 0.0
1.630253 1.956720 0.000274 0.0
2.438753 2.094528 -0.001347 0.0
3.056369 0.608239 -0.000906 0.0
2.262863 2.126637 0.000265 0.0
1.887751 1.116375 -0.001803 0.0
1.111935 1.956138 0.001353 0.0
1.254683 1.370802 0.000494 0.0
1.809397 0.133354 0.002208 0.0
1.785766 1.586263 0.002058 0.0
3.432370 0.900343 0.001314 0.0
0.296960 0.432674 -0.001960 0.0
4.150286 2.040608 -0.003121 0.0
2.385111 2.227868 -0.000559 0.0
4.529616 1.564984 -0.001639 0.0
0.823724 2.460432 0.000020 0.0
3.249772 2.089006 -0.002138 0.0
3.585983 1.548208 0.000248 0.0
2.593342 0.605597 0.001006 0.0
3.297317 2.008601 -0.000568 0.0
1.408653 2.158151 0.000266 0.0
3.988016 1.396804 0.000885 0.0
3.014897 0.665024 -0.003616 0.0
1.943354 1.566474 -0.003518 0.0
3.607030 0.694660 -0.004129 0.0
2.302732 0.190576 -0.000459 0.0
0.669377 2.157896 -0.004436 0.0
0.983770 1.177567 -0.003461 0.0
2.406199 0.049688 0.001908 0.0
4.206963 1.323805 0.007043 0.0
1.558323 2.213866 -0.000505 0.0
1.464194 2.203488 -0.000330 0.0
3.200564 0.046463 0.002341 0.0
4.351818 0.344354 -0.002492 0.0
2.733142 2.253650 0.001464 0.0
0.200172 0.340186 -0.003341 0.0
0.472873 1.642162 -0.001903 0.0
2.744921 0.366264 0.001402 0.0
3.266924 1.382586 0.003283 0.0
4.100916 2.105016 0.000094 0.0
1.334237 1.335527 0.002011 0.0
0.213646 0.860534 0.000046 0.0
0.760144 1.620023 0.002984 0.0
1.112176 0.531947 -0.001219 0.0
1.861677 1.701694 0.001222 0.0
2.218801 0.842331 -0.002943 0.0
2.453139 2.261318 -0.000694 0.0
0.829172 2.040732 0.000774 0.0
2.031939 2.130284 0.006807 0.0
3.344319 2.123740 0.001315 0.0
1.117738 0.902032 -0.001642 0.0
1.813248 0.540709 0.003201 0.0
3.041761 1.971605 0.001180 0.0
4.560893 2.433686 0.002542 0.0
1.301344 2.290914 -0.001120 0.0
4.205950 2.327381 -0.006136 0.0
2.030017 1.235696 -0.000377 0.0
3.944456 0.446677 -0.001833 0.0
0.308168 2.367095 0.002216 0.0
3.508751 2.019181 0.001715 0.0
3.158089 1.407880 -0.001856 0.0
