0.63176107 1.64561057 -0.00194452 0.00000000
2.84965998 1.51068120 0.00220549 0.00000000
0.59481538 0.23527222 0.00245662 0.00000000
2.32320834 1.02849206 -0.00016013 0.00000000
1.68692476 1.59158400 0.00406265 0.00000000
2.99617398 1.73594316 0.00156233 0.00000000
0.35582766 0.55398492 0.00026167 0.00000000
3.36681589 1.20691888 -0.00259476 0.00000000
0.62561742 2.19963923 0.00173212 0.00000000
3.27688459 2.19704379 -0.00420254 0.00000000
2.93867100 2.04822162 -0.00058907 0.00000000
3.01111239 0.24514579 -0.00083804 0.00000000
0.97957305 1.80817997 -0.00194373 0.00000000
3.47328874 1.09414893 -0.00156964 0.00000000
4.33572663 0.58268277 -0.00242314 0.00000000
1.79159617 0.69806655 -0.00101838 0.00000000
1.68477346 0.08500786 -0.00295071 0.00000000
2.06885702 0.55350106 0.00003754 0.00000000
4.19678123 0.58189143 -0.00093964 0.00000000
0.59593447 0.25616958 -0.00388755 0.00000000
0.04863055 2.21325178 -0.00182909 0.00000000
4.35062543 0.71845243 0.00110531 0.00000000
1.10491921 2.05835252 -0.00345263 0.00000000
2.93500070 0.41926018 -0.00496894 0.00000000
2.86242606 1.54700031 -0.00470740 0.00000000
3.52903868 1.04944128 0.00201579 0.00000000
0.03803064 1.59057942 -0.00017478 0.00000000
0.74719397 0.03980520 -0.00124143 0.00000000
2.83390384 1.75507528 0.00240556 0.00000000
2.33429221 0.43251982 -0.00047304 0.00000000
0.52719942 1.06697410 -0.00136911 0.00000000
1.67391117 1.55434223 0.00020871 0.00000000
3.78418726 1.75199849 0.00090821 0.00000000
1.32336549 0.26816002 0.00307951 0.00000000
3.94858922 0.83465946 0.00145662 0.00000000
2.87497723 0.13215062 0.00291403 0.00000000
2.71595981 0.00878591 0.00028727 0.00000000
0.56601689 0.25413332 -0.00121119 0.00000000
0.52070434 0.13416726 -0.00252879 0.00000000
2.72709955 1.52621757 0.00394469 0.00000000
1.19865876 0.16409308 0.00052676 0.00000000
2.69482897 0.16173683 0.00224831 0.00000000
2.84103901 0.58029510 0.00255884 0.00000000
0.76547109 1.50487215 -0.00099906 0.00000000
3.58054289 0.53330957 0.00379494 0.00000000
0.02204665 0.44940504 -0.00058639 0.00000000
3.69824303 2.20924777 0.00553629 0.00000000
3.72458290 1.72862071 -0.00296694 0.00000000
0.68447943 0.23353722 0.00452487 0.00000000
0.63211498 0.76447014 -0.00145460 0.00000000
3.11004555 1.38300258 -0.00551966 0.00000000
4.12588123 2.20744594 -0.00148550 0.00000000
2.36538584 0.08156160 0.00001853 0.00000000
3.20911022 1.92385348 0.00304633 0.00000000
0.47561820 1.27971482 0.00098642 0.00000000
1.57975319 0.79746046 -0.00046930 0.00000000
0.99926600 1.14032502 0.00537900 0.00000000
3.84759943 0.43144732 0.00269790 0.00000000
3.43491257 2.13314142 -0.00507032 0.00000000
2.43552049 1.42608624 0.00145418 0.00000000
2.41529042 2.17996765 0.00023477 0.00000000
1.54800445 0.60250938 0.00145292 0.00000000
0.55728421 1.58848604 0.00459976 0.00000000
3.52130041 1.23977029 -0.00442290 0.00000000
2.33257557 1.55966228 -0.00027322 0.00000000
2.17243546 0.55517343 -0.00295307 0.00000000
1.76683952 1.47369047 -0.00030941 0.00000000
0.34993776 1.90298317 -0.00203384 0.00000000
3.10999091 1.12384745 0.00282642 0.00000000
0.75566729 0.11424572 0.00183130 0.00000000
3.03314777 0.13341714 -0.00061696 0.00000000
3.40331176 2.14561419 -0.00359746 0.00000000
2.91974062 1.43347325 0.00607838 0.00000000
2.47289630 2.22072698 0.00223590 0.00000000
0.22345262 0.46296048 -0.00195640 0.00000000
1.24440300 1.56061877 0.00532204 0.00000000
0.06367064 1.53753747 -0.00060572 0.00000000
0.92283082 0.51689981 0.00090828 0.00000000
1.01802726 2.01618051 0.00186148 0.00000000
4.14849410 1.52181227 -0.00201369 0.00000000
0.62274046 1.99379952 0.00208019 0.00000000
3.81193503 1.89099419 0.00102125 0.00000000
0.27048535 1.99280182 -0.00161328 0.00000000
1.30697788 0.19200195 0.00646780 0.00000000
1.04763659 2.11803896 0.00004386 0.00000000
4.16717305 0.23252225 0.00239082 0.00000000
2.38236884 1.49470049 0.00049181 0.00000000
3.41350749 0.36787896 0.00028698 0.00000000
1.27060151 1.37407980 0.00459829 0.00000000
4.14908034 1.54042906 0.00255922 0.00000000
1.04736221 1.50880096 -0.00378213 0.00000000
2.80919062 1.99656988 0.00031821 0.00000000
3.28100896 0.34851490 -0.00042990 0.00000000
0.36083656 0.86336638 0.00028898 0.00000000
1.79857885 0.30867482 -0.00215304 0.00000000
0.68201737 1.78600166 -0.00130607 0.00000000
0.07619692 0.60174410 0.00123779 0.00000000
1.59894623 0.99884333 -0.00260356 0.00000000
2.09999935 0.57823889 0.00084638 0.00000000
2.24624313 1.97516431 -0.00559153 0.00000000
3.89151467 0.47105463 0.00247717 0.00000000
0.92439785 2.13416698 -0.00300513 0.00000000
3.75514751 1.08782772 0.00446534 0.00000000
3.78293682 1.05200718 0.00264407 0.00000000
2.34554893 2.18880199 -0.00124550 0.00000000
3.46724805 1.80689481 0.00292308 0.00000000
0.97012326 0.47002573 0.00049228 0.00000000
1.72016032 0.66846043 0.00303538 0.00000000
2.51701394 0.89441110 0.00157844 0.00000000
1.78994575 1.13339085 -0.00290897 0.00000000
3.16639249 0.88871589 -0.00521298 0.00000000
1.26858273 1.06459437 -0.00323855 0.00000000
0.23875083 1.57375367 -0.00192890 0.00000000
0.99072796 1.72167325 -0.00054280 0.00000000
2.64786962 2.13909540 -0.00032340 0.00000000
0.37143282 0.37399684 -0.00313914 0.00000000
0.44143810 1.60954256 0.00036934 0.00000000
0.30171773 1.20529025 -0.00152021 0.00000000
2.08870680 1.64895782 0.00174237 0.00000000
1.15431525 0.87738079 0.00535817 0.00000000
1.28320738 1.43608625 0.00214096 0.00000000
3.51620225 0.81082842 -0.00123032 0.00000000
0.08452889 1.27028018 -0.00181509 0.00000000
0.61318499 0.49870391 -0.00174019 0.00000000
0.26856860 1.41319424 -0.00075391 0.00000000
3.61763122 0.73361069 -0.00282601 0.00000000
4.33413450 2.13911577 0.00154249 0.00000000
3.47568743 2.04780651 0.00201098 0.00000000
2.59390646 1.81673860 0.00286978 0.00000000
0.08755847 0.72718429 -0.00243224 0.00000000
0.31443479 2.06925137 0.00000132 0.00000000
2.76184390 0.26949963 0.00223734 0.00000000
2.92363363 1.31783991 -0.00330540 0.00000000
0.04879064 1.40767049 -0.00192612 0.00000000
3.89728498 0.56370886 -0.00084234 0.00000000
1.78230069 0.99100229 -0.00191003 0.00000000
0.62138198 1.25652848 -0.00311033 0.00000000
1.90658380 0.17506657 0.00175378 0.00000000
2.37350765 1.16847589 -0.00412517 0.00000000
0.18103381 0.90495082 -0.00135994 0.00000000
1.39032965 1.10583457 -0.00434734 0.00000000
2.10484899 1.08626121 0.00106637 0.00000000
2.14539175 1.69172364 0.00218107 0.00000000
2.29700573 0.87247480 0.00383567 0.00000000
0.67678128 1.60740642 0.00156837 0.00000000
1.53265092 2.11268483 -0.00063343 0.00000000
2.10399908 0.05507816 0.00264191 0.00000000
0.99502198 1.07281980 0.00263906 0.00000000
3.98705690 1.16869623 -0.00031843 0.00000000
1.76239318 1.39513028 -0.00089919 0.00000000
2.25982851 1.08650331 0.00023308 0.00000000
1.63287639 1.10749763 0.00193119 0.00000000
2.96343222 1.38904496 0.00083838 0.00000000
2.79751668 2.22285929 0.00061512 0.00000000
2.74972747 0.10233816 -0.00245397 0.00000000
4.19432316 2.08751384 0.00292481 0.00000000
2.05367569 1.61773367 -0.00247725 0.00000000
3.98234721 2.00647338 -0.00545707 0.00000000
2.43200685 1.83594527 -0.00128954 0.00000000
0.46666308 1.24034888 -0.00139858 0.00000000
4.00834430 0.75219098 -0.00143142 0.00000000
1.72523629 1.59121943 0.00007218 0.00000000
2.51072484 0.09047788 -0.00493740 0.00000000
2.38492057 0.24512085 -0.00058420 0.00000000
1.20818423 0.95404293 0.00335181 0.00000000
1.51042469 2.15823084 0.00345879 0.00000000
4.21103615 1.63217288 0.00119491 0.00000000
1.63702099 0.19550192 0.00093204 0.00000000
2.56502922 2.19872320 0.00018606 0.00000000
1.14493362 1.07061020 0.00289743 0.00000000
3.29489334 0.11372955 0.00022142 0.00000000
0.88515827 1.23488075 0.00265735 0.00000000
3.83183350 0.01532129 -0.00513174 0.00000000
1.19269998 0.47301974 0.00112343 0.00000000
2.28627573 0.16416260 -0.00001186 0.00000000
0.40322312 1.48359943 -0.00041410 0.00000000
0.28291118 0.87212349 0.00451547 0.00000000
1.43311500 1.08626966 -0.00127667 0.00000000
3.20766990 2.14963019 0.00071454 0.00000000
2.12207020 0.04391851 -0.00183143 0.00000000
4.03700540 1.43729547 -0.00059615 0.00000000
0.80209368 1.59741981 0.00190509 0.00000000
4.28110400 0.99777432 -0.00309864 0.00000000
1.88289362 0.00497126 -0.00081916 0.00000000
0.27981784 2.01224760 0.00202672 0.00000000
3.45387582 0.13991017 0.00282144 0.00000000
1.03125148 0.00811905 -0.00109300 0.00000000
0.61150909 0.05447798 0.00213626 0.00000000
1.08755281 1.49639438 0.00372643 0.00000000
3.48125197 0.54635230 -0.00035487 0.00000000
0.09596231 0.93086456 0.00179410 0.00000000
3.84165208 0.09496647 0.00001092 0.00000000
1.75950361 1.20630545 -0.00132093 0.00000000
0.02800121 0.68317147 -0.00082040 0.00000000
1.99662891 1.21522748 0.00320805 0.00000000
2.18728213 1.45791810 0.00266936 0.00000000
3.17937303 2.04164338 0.00149324 0.00000000
2.62315306 0.71169019 0.00011686 0.00000000
1.74338211 1.58851511 -0.00097394 0.00000000
3.75722872 0.94733330 0.00261410 0.00000000
3.65066974 1.58361161 -0.00247602 0.00000000
1.12772166 2.10735936 0.00131183 0.00000000
2.71450977 1.00744463 0.00070295 0.00000000
1.46697757 0.93268943 -0.00012745 0.00000000
3.75835176 0.41169493 -0.00209665 0.00000000
1.69856551 0.86162127 0.00051001 0.00000000
4.31547735 0.06807842 0.00072420 0.00000000
2.81803173 1.05987654 0.00217662 0.00000000
1.51759957 0.94145859 0.00111741 0.00000000
2.33637383 1.38013533 -0.00209568 0.00000000
3.82139504 1.18743962 -0.00051055 0.00000000
2.41459211 0.35026197 0.00145095 0.00000000
0.18592393 1.79593146 0.00084834 0.00000000
1.13664995 0.17007304 -0.00194368 0.00000000
3.15925945 1.52656663 -0.00075822 0.00000000
2.58809209 1.37455709 0.00433965 0.00000000
1.77469775 0.27570685 -0.00196401 0.00000000
0.68219540 0.75428683 -0.00449264 0.00000000
3.52591993 2.12493083 -0.00198691 0.00000000
1.90468488 2.14295395 0.00343503 0.00000000
2.73190818 0.65553813 0.00052809 0.00000000
4.30829967 1.91532006 0.00051221 0.00000000
2.21784941 2.04734811 0.00084655 0.00000000
0.31596638 0.16280709 0.00178121 0.00000000
0.58719502 1.41220092 0.00100021 0.00000000
4.19388084 1.65012336 0.00250527 0.00000000
1.50013269 0.25951980 0.00353067 0.00000000
3.86624753 1.89413936 0.00471925 0.00000000
1.66296215 2.19069486 0.00029770 0.00000000
3.10858641 0.62154193 0.00558739 0.00000000
2.73149061 0.83837915 0.00558280 0.00000000
0.72963811 1.55439466 -0.00171438 0.00000000
1.73122797 2.10335508 0.00107769 0.00000000
2.79068410 1.88533970 0.00191425 0.00000000
0.82402079 2.04998333 0.00030874 0.00000000
4.00643880 0.57171665 0.00029529 0.00000000
0.08938788 0.45921398 0.00209445 0.00000000
1.96239059 0.32931802 0.00359391 0.00000000
0.52782349 1.58170330 -0.00320856 0.00000000
2.81433934 0.34743570 0.00556755 0.00000000
1.02749820 2.13443120 0.00116632 0.00000000
3.17104618 1.21890043 0.00144608 0.00000000
4.09058616 1.23220108 -0.00082323 0.00000000
0.19147803 1.04051520 0.00325640 0.00000000
2.18449511 1.02679663 0.00033187 0.00000000
2.58499818 2.08528273 0.00112565 0.00000000
0.10065055 1.66050640 0.00366932 0.00000000
3.60959330 0.85594370 0.00086919 0.00000000
3.81835306 0.82301444 -0.00092006 0.00000000
0.54281332 2.18958139 -0.00253939 0.00000000
1.32941181 1.32443710 0.00403483 0.00000000
3.41768583 1.83170064 0.00052963 0.00000000
1.99742833 0.63920467 -0.00239807 0.00000000
0.61691968 0.63014340 -0.00288587 0.00000000
3.63806076 0.49063531 0.00008916 0.00000000
4.11183888 0.68681014 -0.00094551 0.00000000
1.29645791 0.34553125 -0.00092260 0.00000000
0.33069591 2.05732083 -0.00033348 0.00000000
3.22610959 1.36826454 0.00438426 0.00000000
3.21759962 0.92813648 -0.00187161 0.00000000
1.13399373 0.34490179 -0.00017607 0.00000000
0.31258910 0.89917309 -0.00079729 0.00000000
0.34725498 1.38774919 -0.00024812 0.00000000
4.01022010 0.56584801 0.00117563 0.00000000
4.33825168 2.17471072 0.00196150 0.00000000
1.68551249 0.05085009 -0.00056811 0.00000000
1.17869245 1.21529738 0.00157267 0.00000000
3.28964811 1.37967085 -0.00111163 0.00000000
1.68503685 2.03438247 -0.00135544 0.00000000
4.23229471 1.04215212 0.00233060 0.00000000
0.19161283 0.15062585 0.00322593 0.00000000
0.08796863 0.75453776 -0.00004436 0.00000000
1.77248291 1.31420552 0.00051223 0.00000000
0.82956034 0.00810791 0.00150583 0.00000000
2.58760665 1.30404020 -0.00215612 0.00000000
4.28197525 0.29188051 -0.00068560 0.00000000
1.66953115 0.91882418 0.00425061 0.00000000
3.75769013 0.27872927 -0.00093855 0.00000000
0.74211312 0.75030157 -0.00147897 0.00000000
3.22893976 0.02035075 -0.00342425 0.00000000
3.99018143 0.20302946 -0.00141816 0.00000000
3.19508726 2.09149505 0.00137514 0.00000000
1.05143354 0.33751774 -0.00093817 0.00000000
0.00438719 1.83170659 0.00392935 0.00000000
4.05203100 1.08407036 0.00091727 0.00000000
1.23047604 0.70558736 0.00136457 0.00000000
2.02664323 1.99096153 0.00317302 0.00000000
0.52812949 2.08791960 0.00056037 0.00000000
0.41746359 0.57172675 -0.00316924 0.00000000
1.29632066 2.00728895 0.00070980 0.00000000
3.18085768 0.09846315 -0.00252951 0.00000000
2.72260549 0.50138568 -0.00065721 0.00000000
0.16343484 1.03779362 -0.00044534 0.00000000
2.99710621 1.13780446 -0.00119967 0.00000000
1.43454195 0.35120929 0.00099663 0.00000000
1.75944114 1.35132335 0.00485458 0.00000000
4.23397469 0.70780972 0.00085919 0.00000000
1.76269658 0.11220040 -0.00456202 0.00000000
3.86496868 1.61027829 -0.00115878 0.00000000
0.16813559 0.44666048 -0.00491699 0.00000000
4.22554213 1.51219658 0.00340126 0.00000000
3.07771799 1.01737206 0.00134189 0.00000000
1.35701068 0.70075860 -0.00123406 0.00000000
1.25085439 1.50205029 0.00053301 0.00000000
0.72957409 1.00355710 0.00174893 0.00000000
1.92234723 0.63394218 0.00272969 0.00000000
2.87768303 1.23087487 0.00106268 0.00000000
2.87902641 0.08935436 0.00172649 0.00000000
3.89515374 1.40668314 -0.00573010 0.00000000
2.88846767 1.39433046 -0.00375079 0.00000000
3.20466571 2.09267405 0.00169829 0.00000000
2.67645158 1.36305614 -0.00193263 0.00000000
2.59369217 0.23349570 -0.00037435 0.00000000
2.64597899 0.75026198 0.00346129 0.00000000
3.74075471 1.33622671 -0.00313645 0.00000000
1.79881074 1.48469550 0.00102508 0.00000000
2.58255060 1.70787623 0.00017183 0.00000000
4.14261140 0.11927216 0.00008059 0.00000000
3.86488228 0.46341323 -0.00391047 0.00000000
3.15358844 1.16443952 0.00206795 0.00000000
1.00691806 1.03761705 -0.00347499 0.00000000
0.60113024 1.34922074 0.00248748 0.00000000
0.41017355 0.25430571 0.00145124 0.00000000
4.13115756 2.04783618 -0.00560204 0.00000000
2.34624490 1.19946768 0.00148467 0.00000000
1.83209675 1.91402233 -0.00254051 0.00000000
2.00623140 0.04328726 -0.00337936 0.00000000
1.59705417 1.79204626 -0.00145567 0.00000000
2.28149782 1.44529649 -0.00138346 0.00000000
3.13527213 0.05891745 -0.00151317 0.00000000
2.27946406 0.37674311 -0.00299000 0.00000000
0.06310180 1.56413921 -0.00418554 0.00000000
2.52603547 0.81689139 -0.00343447 0.00000000
4.34695589 2.20247689 0.00129925 0.00000000
2.58467417 0.34183774 -0.00703179 0.00000000
1.79980384 0.75399178 -0.00060481 0.00000000
2.69601623 0.91195762 0.00430886 0.00000000
2.64036442 0.78420072 0.00102977 0.00000000
4.24912744 0.81971088 -0.00137839 0.00000000
0.66990740 1.34303331 -0.00129723 0.00000000
2.26679551 1.12140101 -0.00397730 0.00000000
0.07574276 0.45305835 -0.00328451 0.00000000
2.98435593 1.22943892 -0.00000837 0.00000000
1.54718437 0.27872412 -0.00273347 0.00000000
4.05759392 0.75653262 0.00015472 0.00000000
1.93727888 0.84927828 0.00030416 0.00000000
3.69584838 0.50211873 0.00363167 0.00000000
0.93923373 0.85002735 -0.00119632 0.00000000
0.26585635 0.71467976 0.00340771 0.00000000
0.57810506 1.08993067 0.00352516 0.00000000
1.23046935 1.10961992 -0.00023546 0.00000000
3.37422064 1.88930847 0.00246654 0.00000000
2.01533182 2.04235785 -0.00194728 0.00000000
4.25920747 0.69972317 0.00076290 0.00000000
4.10808470 1.03544262 -0.00802238 0.00000000
3.80803835 0.39898852 0.00367995 0.00000000
1.88249090 1.15116513 -0.00328166 0.00000000
0.81857185 1.23483868 -0.00088039 0.00000000
1.18188870 1.70528959 0.00357848 0.00000000
3.93217159 0.91332794 -0.00029443 0.00000000
3.86986732 1.44584076 -0.00323186 0.00000000
1.84598416 1.14797665 0.00161416 0.00000000
3.40319249 0.65383895 -0.00083821 0.00000000
4.04397141 0.01918954 0.00100061 0.00000000
2.34674583 1.13948507 -0.00376340 0.00000000
3.14041233 0.07110876 0.00169972 0.00000000
0.00640039 1.66931896 0.00081790 0.00000000
0.50720185 1.52229349 0.00194578 0.00000000
0.05381749 1.05233781 -0.00128127 0.00000000
1.24949154 2.15045924 0.00072008 0.00000000
2.64625900 0.27222529 -0.00116923 0.00000000
1.73829775 0.89479272 -0.00143476 0.00000000
3.87968012 2.06453887 0.00133179 0.00000000
1.14320921 1.02814009 0.00143018 0.00000000
0.35274293 0.05676718 0.00000953 0.00000000
3.90838079 1.99079309 0.00139638 0.00000000
3.08753257 1.03443538 -0.00147410 0.00000000
0.19367281 1.13345257 -0.00224842 0.00000000
0.35109959 1.97177184 -0.00295576 0.00000000
3.29260657 2.19442375 -0.00161157 0.00000000
2.27016483 2.20201939 0.00802269 0.00000000
0.34084342 0.96231574 0.00277936 0.00000000
0.79949487 1.96826252 -0.00131629 0.00000000
2.98293455 1.36376646 0.00279906 0.00000000
4.05209612 0.30117180 -0.00180972 0.00000000
1.28254294 1.20019855 -0.00088851 0.00000000
2.22240897 1.19356220 -0.00034219 0.00000000
0.29579267 0.98368662 0.00059816 0.00000000
1.89194717 0.33953289 -0.00196821 0.00000000
3.00623549 0.41523515 0.00391134 0.00000000
2.10229811 1.33986445 0.00215627 0.00000000
1.70465866 1.78123535 0.00074563 0.00000000
2.25314542 0.91972070 0.00156872 0.00000000
2.82685556 0.52893600 -0.00097176 0.00000000
3.55740413 1.08092780 0.00002448 0.00000000
0.36593233 1.78795773 -0.00628770 0.00000000
0.87617327 1.79560027 0.00071916 0.00000000
3.30430011 1.01128444 -0.00244498 0.00000000
1.83087393 0.05252365 -0.00154324 0.00000000
1.43766521 1.19091714 0.00113874 0.00000000
0.30839704 1.96340747 -0.00031415 0.00000000
3.60975498 0.85656795 -0.00168890 0.00000000
1.83109446 1.16210448 -0.00036331 0.00000000
2.10988889 0.31674126 -0.00058997 0.00000000
2.16043293 0.43178061 -0.00446367 0.00000000
2.41178613 0.36059609 0.00102649 0.00000000
2.56607616 1.33764760 -0.00303783 0.00000000
1.77364876 0.74060683 -0.00160637 0.00000000
2.70270768 1.56174437 -0.00099560 0.00000000
1.37546554 1.87048729 -0.00170410 0.00000000
4.13369664 0.55251976 -0.00006849 0.00000000
3.91822344 1.88777086 -0.00112777 0.00000000
1.17961329 1.30746399 0.00224042 0.00000000
2.90782060 0.31528629 0.00196637 0.00000000
0.81811497 0.68525743 0.00257235 0.00000000
3.06195566 1.51358124 0.00235122 0.00000000
1.06012397 1.11269442 -0.00225417 0.00000000
1.78307429 1.49781317 0.00099724 0.00000000
2.71563458 0.84904118 0.00173433 0.00000000
2.58221624 0.34423480 0.00375812 0.00000000
2.22054336 0.61231595 -0.00371326 0.00000000
2.49427132 1.48806552 -0.00274224 0.00000000
4.03176032 2.11249248 0.00461660 0.00000000
3.60659434 0.90606487 -0.00239249 0.00000000
3.41990955 1.32644670 -0.00604077 0.00000000
2.19679223 0.86146733 -0.00121456 0.00000000
3.46939776 1.42591055 -0.00165233 0.00000000
1.65146062 1.05197776 -0.00472832 0.00000000
0.96520726 0.01183239 -0.00497223 0.00000000
0.60690316 0.01372858 -0.00071556 0.00000000
0.24123488 0.37908207 -0.00164298 0.00000000
2.23588455 0.44974221 0.00060558 0.00000000
3.36231400 0.63577065 -0.00190413 0.00000000
3.57482895 1.02104808 0.00372212 0.00000000
2.53817639 1.52400458 0.00082762 0.00000000
2.85269887 1.90176544 -0.00020373 0.00000000
0.46947062 1.19348643 0.00012541 0.00000000
3.73393206 0.43014750 -0.00093164 0.00000000
3.54209339 1.23648383 -0.00025323 0.00000000
0.53048006 1.05769070 0.00302838 0.00000000
3.80690402 0.92458944 -0.00158140 0.00000000
4.35584213 1.28928360 0.00202836 0.00000000
0.67322672 0.82663088 0.00008818 0.00000000
2.72377382 1.52663533 -0.00312968 0.00000000
1.23929982 1.82883106 0.00077323 0.00000000
3.04933093 1.90395333 0.00163232 0.00000000
3.19326585 1.68477109 -0.00280741 0.00000000
0.61197776 0.54565272 0.00282516 0.00000000
0.33494394 1.30669034 -0.00010864 0.00000000
4.20207967 0.84456902 0.00354946 0.00000000
1.53976667 2.01831846 0.00046393 0.00000000
4.12957279 1.34720673 0.00137737 0.00000000
0.60908900 0.63399283 -0.00122665 0.00000000
1.85863562 0.35043902 0.00008634 0.00000000
4.29249362 0.58211069 0.00018088 0.00000000
3.50544419 0.71114662 0.00133076 0.00000000
1.80665124 1.64557597 0.00349925 0.00000000
2.76632370 1.50500272 -0.00031579 0.00000000
0.81477318 0.81824302 0.00063910 0.00000000
0.11888440 0.30268826 0.00160675 0.00000000
3.64949999 1.84707885 -0.00099244 0.00000000
1.95873801 1.91139340 -0.00147107 0.00000000
3.37784141 0.78384907 0.00078890 0.00000000
0.50452650 2.01513659 0.00460019 0.00000000
2.18334327 1.90923577 0.00188728 0.00000000
0.49751404 2.16683497 0.00050063 0.00000000
3.25887626 1.66776306 -0.00282758 0.00000000
1.53254675 0.67526070 -0.00235624 0.00000000
1.65716917 1.18452942 -0.00369825 0.00000000
1.85695296 0.87493699 0.00223191 0.00000000
2.10929478 0.47856407 0.00355583 0.00000000
1.39693527 0.98762069 0.00028843 0.00000000
2.99309515 1.80485319 0.00270000 0.00000000
2.74746591 1.94829238 0.00095301 0.00000000
1.75444822 1.93323470 -0.00035078 0.00000000
0.11515471 0.14346650 -0.00177847 0.00000000
3.47253315 0.16759349 0.00246622 0.00000000
2.96260854 0.94323266 -0.00389659 0.00000000
0.82118694 1.96636235 0.00007366 0.00000000
3.46812140 0.16719401 0.00139278 0.00000000
4.08992304 0.64498019 0.00011360 0.00000000
0.89317499 1.74238120 -0.00406633 0.00000000
1.02681215 1.97206809 0.00247371 0.00000000
1.83491435 0.97282880 -0.00218590 0.00000000
0.58347969 0.55403712 0.00279723 0.00000000
0.62989471 1.21078092 0.00259062 0.00000000
1.38702352 1.64324361 0.00294824 0.00000000
3.62728279 2.13572347 0.00317691 0.00000000
4.31647046 0.23135539 0.00392081 0.00000000
0.39688506 1.17638921 0.00094159 0.00000000
3.70380954 0.84021595 -0.00167895 0.00000000
3.20652213 2.07364211 -0.00486574 0.00000000
0.27009267 2.08927355 0.00300375 0.00000000
2.25235264 1.15274630 0.00132696 0.00000000
2.14292384 1.82522599 -0.00078114 0.00000000
2.38810284 0.94607769 0.00100752 0.00000000
1.57198931 0.66209873 -0.00170141 0.00000000
2.24694806 1.26566173 -0.00368723 0.00000000
4.09366308 1.87510560 0.00143128 0.00000000
2.77331021 2.06024129 -0.00211155 0.00000000
2.45511646 0.35854954 0.00474960 0.00000000
0.01289687 2.19639303 -0.00306314 0.00000000
2.56171977 0.74115438 -0.00208792 0.00000000
1.02768068 0.33931767 -0.00149896 0.00000000
1.47767184 0.33130698 0.00288591 0.00000000
3.78529453 1.14041144 -0.00334592 0.00000000
0.04258078 0.43539457 0.00316276 0.00000000
4.31020154 1.20523200 -0.00288159 0.00000000
1.79711915 1.49926844 0.00244942 0.00000000
1.01250727 0.14322981 0.00229116 0.00000000
0.67589877 1.29540061 0.00045253 0.00000000
2.30464221 1.45056374 -0.00042705 0.00000000
2.32930149 2.02025651 0.00403401 0.00000000
1.35560221 0.15687350 0.00086192 0.00000000
0.78812539 1.52872660 -0.00039878 0.00000000
3.66735091 1.18858073 0.00218622 0.00000000
1.94291168 0.41679801 0.00276899 0.00000000
3.36325823 0.63643251 -0.00317237 0.00000000
0.38841923 1.91402742 -0.00133830 0.00000000
3.13680274 1.64914629 0.00170592 0.00000000
1.62220044 1.78345888 -0.00223232 0.00000000
1.01305237 0.78924618 -0.00124086 0.00000000
1.09411436 0.29743745 -0.00511966 0.00000000
1.56987906 0.95968436 -0.00007946 0.00000000
0.98262745 2.08724567 -0.00098368 0.00000000
0.94987401 1.40850448 -0.00053820 0.00000000
1.74464256 0.06854688 0.00459988 0.00000000
0.36880099 0.53043630 0.00217235 0.00000000
2.81758130 0.13451966 -0.00288265 0.00000000
4.10361955 1.63683092 0.00204318 0.00000000
3.06454178 1.65586354 -0.00137554 0.00000000
2.28417411 0.78508507 -0.00069233 0.00000000
1.45115143 0.98176076 0.00167138 0.00000000
2.61479158 0.99696560 0.00214019 0.00000000
0.57454102 0.61604772 0.00494881 0.00000000
0.40929564 0.56714462 0.00007416 0.00000000
1.59035557 1.64688120 -0.00164480 0.00000000
2.85875548 0.15386937 0.00293806 0.00000000
3.38839708 0.79469409 -0.00047739 0.00000000
0.18625400 0.38624900 -0.00186177 0.00000000
3.68929722 1.35396141 0.00167527 0.00000000
0.83330039 1.20525992 -0.00448622 0.00000000
0.32488664 0.72421417 0.00055516 0.00000000
0.89037822 1.65819299 0.00042936 0.00000000
4.22916050 0.13674531 0.00141555 0.00000000
3.03485349 1.72618150 -0.00226503 0.00000000
1.97054295 1.89811924 -0.00075211 0.00000000
3.24424424 2.19139310 0.00154318 0.00000000
4.29106878 0.68028092 0.00184058 0.00000000
0.59442083 1.64419555 -0.00076478 0.00000000
0.00641518 2.02443476 0.00037388 0.00000000
0.59237217 0.45249871 0.00444093 0.00000000
0.31197426 2.17459797 0.00019491 0.00000000
3.24587946 0.89665514 0.00203572 0.00000000
0.07762164 0.48348767 0.00133698 0.00000000
2.91335816 1.07772816 0.00037026 0.00000000
3.90850310 1.32902564 -0.00330770 0.00000000
2.32109360 1.22516620 -0.00018794 0.00000000
0.66462066 1.99075486 0.00282278 0.00000000
3.61365149 0.20790529 -0.00177199 0.00000000
2.74292630 0.29960106 0.00550722 0.00000000
2.86610458 1.35360651 -0.00448544 0.00000000
2.12315583 2.02755840 -0.00339147 0.00000000
2.27562153 1.26080371 0.00054416 0.00000000
0.10051791 1.10873112 0.00111765 0.00000000
2.70357922 1.10186746 0.00009239 0.00000000
3.68927779 1.34630075 -0.00073807 0.00000000
3.95924889 1.17049121 -0.00368656 0.00000000
1.24603994 1.38787910 0.00198311 0.00000000
0.53799757 1.98355819 0.00085311 0.00000000
0.64596506 1.52880273 -0.00062148 0.00000000
3.51677032 0.33137486 -0.00333254 0.00000000
0.93733782 0.06125135 0.00118753 0.00000000
2.07246362 0.14261522 0.00110997 0.00000000
2.90347619 1.52034751 0.00059197 0.00000000
4.07601838 0.82247534 -0.00148380 0.00000000
4.18504391 0.79075920 -0.00135201 0.00000000
3.78244972 0.30520234 -0.00155412 0.00000000
3.79566799 1.55170745 0.00419326 0.00000000
3.29651917 0.09611446 -0.00331501 0.00000000
1.24098082 1.43346158 -0.00260191 0.00000000
4.04907215 0.30343616 0.00007170 0.00000000
2.89608094 2.18480911 0.00017824 0.00000000
1.63003741 0.63445226 -0.00053284 0.00000000
1.19340684 1.45896840 -0.00349893 0.00000000
1.09810472 0.93777863 0.00064020 0.00000000
1.21184549 1.45008047 -0.00359808 0.00000000
4.11992133 0.12276314 0.00340306 0.00000000
3.70746144 1.72085302 -0.00301893 0.00000000
1.38894903 1.06585957 0.00128160 0.00000000
3.02340846 1.22845519 0.00176063 0.00000000
0.03550357 0.26756288 0.00310959 0.00000000
3.61746264 0.08719216 0.00127318 0.00000000
3.32098585 1.79254018 -0.00075307 0.00000000
4.23059584 1.28409150 0.00087952 0.00000000
3.60593752 1.36647951 -0.00095646 0.00000000
2.60431783 0.55063785 -0.00040834 0.00000000
1.88873430 1.64638988 0.00094448 0.00000000
2.18442852 1.28824300 0.00117849 0.00000000
1.45420173 1.08650576 -0.00666382 0.00000000
0.85608005 0.88990338 0.00153760 0.00000000
0.01245072 0.81362797 -0.00174427 0.00000000
2.73866117 0.87456717 -0.00027306 0.00000000
3.34450987 1.56354305 0.00483568 0.00000000
1.54304424 0.01068374 -0.00348546 0.00000000
1.52622738 0.82572668 -0.00085727 0.00000000
3.15087172 0.22216184 0.00294690 0.00000000
0.28161651 1.72564050 0.00119114 0.00000000
3.12153567 1.25390703 -0.00190689 0.00000000
0.48503595 1.65202001 0.00296557 0.00000000
2.59022099 1.33766293 0.00024406 0.00000000
3.43041814 0.17176863 0.00161553 0.00000000
1.60780376 1.80832690 -0.00005075 0.00000000
4.22315792 2.14977138 -0.00204938 0.00000000
3.56998098 2.12415522 -0.00104923 0.00000000
0.90139175 0.70479783 0.00017450 0.00000000
1.13186201 0.21169238 -0.00263501 0.00000000
2.37831377 1.45537042 -0.00070015 0.00000000
0.99536521 1.34190880 -0.00045799 0.00000000
2.90303847 0.44432760 -0.00200354 0.00000000
1.86702372 0.25852191 0.00000110 0.00000000
2.99186568 0.10288847 -0.00305905 0.00000000
3.82923156 1.44507964 0.00001543 0.00000000
4.30336617 0.47690552 0.00182955 0.00000000
3.32203403 0.89885394 0.00263177 0.00000000
3.73314809 1.01084607 -0.00167729 0.00000000
3.11387656 1.31156993 0.00133790 0.00000000
2.93196261 2.13621145 -0.00484767 0.00000000
4.33317811 1.68263624 -0.00055529 0.00000000
0.88678270 0.10947108 0.00011158 0.00000000
1.67634656 0.74240831 -0.00172343 0.00000000
0.94140394 0.69326349 0.00450262 0.00000000
1.83761070 0.13232704 -0.00174336 0.00000000
1.00569583 1.32830232 0.00181014 0.00000000
0.89819934 1.48251403 0.00713216 0.00000000
0.52202429 1.89638878 0.00007697 0.00000000
3.26460682 2.01615541 0.00277934 0.00000000
3.87300544 1.92826541 -0.00002268 0.00000000
2.92007373 1.80681568 0.00235340 0.00000000
2.56806997 1.09090504 0.00080769 0.00000000
3.06326913 0.22799906 -0.00555250 0.00000000
1.37695707 1.88010729 0.00605220 0.00000000
2.56052427 1.92932256 -0.00065327 0.00000000
2.10358244 1.37986920 0.00081472 0.00000000
1.39367744 1.18953319 0.00148909 0.00000000
2.56060710 1.57160635 -0.00060676 0.00000000
4.25980083 1.54514975 -0.00121861 0.00000000
0.98809049 0.54825045 0.00168631 0.00000000
2.16063881 2.09459098 0.00055251 0.00000000
4.34664495 2.01113738 0.00220218 0.00000000
0.75210176 1.49339916 -0.00012808 0.00000000
2.71393089 1.27968027 -0.00218177 0.00000000
1.31075945 1.66356859 -0.00172706 0.00000000
1.18278569 1.03774680 0.00404041 0.00000000
2.05529910 1.54677362 -0.00220336 0.00000000
3.31310450 1.59297967 0.00023186 0.00000000
1.76903359 0.16336021 0.00088693 0.00000000
2.95796580 0.81936995 -0.00390781 0.00000000
3.66501705 0.44114066 -0.00163211 0.00000000
0.45567008 0.43893236 0.00426860 0.00000000
0.81033268 0.87002678 -0.00464916 0.00000000
2.01288508 0.16987345 0.00196282 0.00000000
1.56108567 0.50906834 -0.00006892 0.00000000
1.82332468 0.41639005 0.00024993 0.00000000
1.96591544 1.35229475 -0.00275344 0.00000000
0.44366757 1.73446372 0.00398003 0.00000000
1.73286419 0.97256345 0.00057021 0.00000000
3.71330459 0.51154941 0.00488134 0.00000000
2.74629192 0.20217078 0.00014422 0.00000000
2.20756049 0.27861212 0.00169548 0.00000000
3.15189150 0.96976274 0.00060664 0.00000000
1.17309655 0.68503800 0.00197097 0.00000000
2.95831644 1.15999382 -0.00116461 0.00000000
1.88088958 1.13110890 0.00056271 0.00000000
0.93250427 1.13207126 0.00388407 0.00000000
0.84511219 1.22025222 -0.00001481 0.00000000
2.38016869 0.83100831 -0.00396516 0.00000000
3.24632533 0.04013495 -0.00155511 0.00000000
0.18018599 1.26097616 -0.00561144 0.00000000
1.89030663 2.15484387 -0.00187793 0.00000000
3.86378223 0.33279303 0.00231962 0.00000000
0.97004929 1.27622118 0.00311070 0.00000000
2.12121669 1.87121318 -0.00409283 0.00000000
3.76237208 2.13318232 -0.00020184 0.00000000
3.37773769 2.07927719 -0.00148843 0.00000000
2.98479068 1.41403701 -0.00304763 0.00000000
2.04789875 0.83745463 -0.00107776 0.00000000
0.14985508 2.19867116 -0.00083336 0.00000000
0.60344585 0.78487960 0.00029375 0.00000000
1.43423712 0.14679625 0.00056187 0.00000000
0.60174635 1.87147231 -0.00239273 0.00000000
2.85651797 2.09081179 0.00072422 0.00000000
4.13711970 1.96538157 -0.00210642 0.00000000
1.76330484 1.66277176 -0.00317125 0.00000000
2.78342449 1.29212736 0.00047909 0.00000000
2.03512590 1.31606371 0.00301093 0.00000000
0.23059155 0.37565965 0.00239630 0.00000000
4.22563721 1.13030045 -0.00091260 0.00000000
0.32825561 0.41910134 -0.00417344 0.00000000
1.47914979 0.15490501 0.00014593 0.00000000
0.94806643 0.51551160 -0.00009138 0.00000000
0.55919311 1.89904499 0.00365943 0.00000000
2.90114727 0.40289087 0.00460162 0.00000000
1.40622358 0.28318913 0.00170154 0.00000000
0.69739987 0.75563798 -0.00233635 0.00000000
1.21024993 1.50113042 -0.00303870 0.00000000
1.44266277 0.82354243 -0.00136451 0.00000000
1.71650311 2.09636005 0.00007676 0.00000000
2.92835547 0.70538018 0.00206185 0.00000000
3.91138015 2.04448769 -0.00389424 0.00000000
4.30609472 1.02657408 0.00257302 0.00000000
3.11664020 1.90876032 -0.00207562 0.00000000
1.67561699 0.49031019 -0.00135559 0.00000000
3.85719137 0.96303199 0.00241492 0.00000000
0.40621603 0.15782490 0.00066449 0.00000000
2.59473429 1.49643933 0.00056978 0.00000000
3.82070152 0.60729903 -0.00081662 0.00000000
3.64009495 0.08485448 0.00492609 0.00000000
4.09903913 1.88699994 0.00098731 0.00000000
3.30790380 1.02868250 -0.00221678 0.00000000
3.28210129 1.70862532 0.00233700 0.00000000
3.62032848 0.14427457 -0.00493313 0.00000000
1.17453012 0.84836483 0.00033986 0.00000000
0.13548065 0.98643162 -0.00064297 0.00000000
1.62558715 0.25974072 0.00302444 0.00000000
1.96531101 1.44664256 0.00100340 0.00000000
1.00310696 0.22528417 -0.00087195 0.00000000
3.45209923 0.11055964 -0.00265589 0.00000000
0.01335750 1.98366515 -0.00419010 0.00000000
0.41883090 0.11707966 0.00084057 0.00000000
3.71844609 1.46587303 -0.00148830 0.00000000
1.39853849 0.71617196 -0.00010416 0.00000000
0.94528175 0.64159241 0.00202368 0.00000000
1.29939079 1.51248750 -0.00202314 0.00000000
3.81304077 1.76364552 -0.00036035 0.00000000
1.03114587 1.03571634 0.00061486 0.00000000
2.93096585 0.98663970 0.00475981 0.00000000
0.00181653 1.23644103 -0.00551924 0.00000000
1.81802431 0.73541363 0.00163399 0.00000000
1.41733848 0.31394074 -0.00077116 0.00000000
0.47584545 1.27055117 -0.00162598 0.00000000
2.46142454 0.92417487 0.00053562 0.00000000
1.96055878 0.10584517 0.00063874 0.00000000
3.50984115 1.30679422 -0.00023953 0.00000000
3.40218351 0.91221760 0.00020031 0.00000000
0.54228908 0.84533456 0.00252863 0.00000000
3.78912639 0.15109418 -0.00251020 0.00000000
0.41797427 1.67199488 0.00121698 0.00000000
1.37105141 0.82526819 -0.00012001 0.00000000
0.88738622 0.88015215 0.00183320 0.00000000
0.30670320 0.25705156 -0.00002400 0.00000000
1.31034903 0.53411374 -0.00045086 0.00000000
2.86449789 0.79710494 0.00203807 0.00000000
4.26591392 0.84299661 -0.00030920 0.00000000
1.01358423 1.09274963 -0.00356612 0.00000000
2.63457925 1.43287488 -0.00165525 0.00000000
2.10395466 1.94407895 -0.00041369 0.00000000
3.24278124 1.97381016 -0.00067699 0.00000000
1.48708460 1.55810964 -0.00474517 0.00000000
3.10373055 1.36399302 -0.00154774 0.00000000
1.48123782 0.28441127 0.00183448 0.00000000
0.26002937 0.92511915 -0.00134476 0.00000000
0.96306965 2.16686879 0.00207067 0.00000000
0.92984495 0.00900037 -0.00302521 0.00000000
3.10033520 0.35904987 -0.00106474 0.00000000
2.99412636 1.36667671 -0.00000357 0.00000000
3.80495145 1.75307913 0.00449248 0.00000000
1.21321187 1.36313931 0.00119535 0.00000000
3.46167666 0.26330706 -0.00055893 0.00000000
2.91334147 2.16185477 0.00176622 0.00000000
0.80982403 2.10204237 0.00098528 0.00000000
2.74351431 1.33140483 -0.00018957 0.00000000
0.54580574 1.73795425 0.00066524 0.00000000
2.65720562 0.50169974 -0.00091523 0.00000000
2.64776666 0.91637728 -0.00277772 0.00000000
4.20832858 1.39961021 -0.00210889 0.00000000
3.01305569 0.64716048 0.00015578 0.00000000
2.12919810 1.58364755 0.00045495 0.00000000
1.61155024 0.91576774 0.00485033 0.00000000
2.34453874 1.40029776 -0.00047684 0.00000000
1.84301285 1.13196057 0.00035678 0.00000000
2.13182768 0.73090336 0.00382446 0.00000000
1.65008224 1.21646456 -0.00074445 0.00000000
2.16519972 0.17968364 0.00322794 0.00000000
2.11168381 0.29190736 -0.00254442 0.00000000
0.49322108 0.61148231 0.01085144 0.00000000
3.10447607 1.29343355 -0.00267124 0.00000000
0.53457537 1.12874462 -0.00062107 0.00000000
2.87514000 1.40155152 -0.00252523 0.00000000
1.15547843 1.23684608 0.00034276 0.00000000
3.79331498 0.42848281 0.00492119 0.00000000
3.23469211 1.31139161 0.00168354 0.00000000
3.99101234 1.75936081 0.00351475 0.00000000
0.24056963 1.22483179 -0.00182995 0.00000000
2.14486541 2.01269465 -0.00005912 0.00000000
4.13341982 1.72083039 -0.00460918 0.00000000
4.07791946 0.02237702 -0.00286433 0.00000000
1.41585246 0.73411586 0.00087960 0.00000000
1.89286352 0.66149885 0.00317087 0.00000000
3.92925484 1.18569764 -0.00216753 0.00000000
0.91598384 1.37903104 0.00320539 0.00000000
1.52719118 1.84929343 -0.00087170 0.00000000
3.81932990 1.60184568 0.00105829 0.00000000
0.98133285 1.84602116 -0.00119591 0.00000000
3.13515135 2.14472149 0.00101892 0.00000000
3.85268477 0.79101311 0.00156159 0.00000000
4.10188350 1.11166334 0.00147529 0.00000000
3.12421786 1.78444465 -0.00449584 0.00000000
0.98223470 1.09229987 0.00285890 0.00000000
1.92187537 1.02831684 -0.00085949 0.00000000
1.38901888 0.48304690 0.00472779 0.00000000
0.19323834 2.08873328 0.00262800 0.00000000
3.45042614 2.16990875 -0.00272453 0.00000000
3.41550984 0.99325832 0.00239607 0.00000000
3.06982287 0.90989559 0.00136547 0.00000000
0.39936635 0.47692855 0.00059579 0.00000000
2.59476386 0.36547886 -0.00157815 0.00000000
1.35391200 0.71776689 0.00277472 0.00000000
4.22196088 0.53177258 0.00355053 0.00000000
1.00822402 2.18488923 0.00277787 0.00000000
3.05940308 0.97326857 0.00299795 0.00000000
4.12811261 0.04013317 0.00014736 0.00000000
0.75472121 1.16662137 0.00260979 0.00000000
1.39663784 0.59623697 -0.00376017 0.00000000
0.50718346 2.07891981 0.00230546 0.00000000
2.66676899 1.56094476 -0.00139852 0.00000000
0.77040256 0.92099889 -0.00242039 0.00000000
3.14560149 1.75035519 -0.00166154 0.00000000
1.55916489 2.16377682 0.00370620 0.00000000
1.65382206 0.39670695 -0.00031302 0.00000000
2.50886160 0.48636068 -0.00302518 0.00000000
1.27181021 1.70215680 -0.00197981 0.00000000
3.17224785 0.62100759 -0.00094346 0.00000000
3.85057356 1.45470936 -0.00204731 0.00000000
0.51014880 0.03155710 0.00342664 0.00000000
4.01949584 0.58750210 -0.00361974 0.00000000
3.24284033 0.60394299 0.00372442 0.00000000
1.90290218 0.25180556 0.00325055 0.00000000
2.27418481 1.69558515 0.00245218 0.00000000
2.47214913 1.37351809 -0.00120917 0.00000000
3.79640194 1.66784204 0.00203966 0.00000000
4.27942074 2.19037177 0.00337021 0.00000000
3.80510458 0.76147179 0.00387858 0.00000000
1.73502080 0.27718044 0.00046398 0.00000000
3.91061652 0.88538390 -0.00213088 0.00000000
3.04032741 0.11364660 -0.00179450 0.00000000
3.80456340 1.88725337 0.00507825 0.00000000
2.21358671 0.50571798 -0.00440449 0.00000000
0.04374979 0.90355819 -0.00010482 0.00000000
2.40926263 0.35338895 -0.00199396 0.00000000
2.52411778 1.68041350 -0.00183306 0.00000000
2.93650357 0.20397574 -0.00211025 0.00000000
2.40786022 0.38603305 -0.00091475 0.00000000
3.43823489 0.32115878 -0.00070612 0.00000000
0.23021998 0.14104489 -0.00117716 0.00000000
2.78958018 0.75623084 0.00286407 0.00000000
0.83691886 1.44290560 -0.00007495 0.00000000
1.66874236 1.56534941 -0.00287656 0.00000000
3.05150466 2.12146296 -0.00009764 0.00000000
1.24162506 1.79022576 0.00060046 0.00000000
2.52598451 1.00908658 0.00056185 0.00000000
3.03399443 0.23021580 -0.00299934 0.00000000
2.88325113 0.52603183 0.00479654 0.00000000
3.25892118 1.75610316 -0.00252449 0.00000000
3.59165589 1.72319868 0.00297252 0.00000000
1.68282592 1.91277663 0.00347388 0.00000000
0.87401588 1.73377499 0.00268449 0.00000000
3.23472953 0.59640246 -0.00237586 0.00000000
1.98975285 0.87410885 -0.00027753 0.00000000
0.32630669 1.89574196 -0.00097827 0.00000000
0.87419514 1.21436022 0.00081944 0.00000000
3.55267599 0.40017554 -0.00306829 0.00000000
3.15382386 1.85542278 -0.00140783 0.00000000
0.46204138 1.38207460 0.00414946 0.00000000
3.59039609 0.06512459 0.00141732 0.00000000
2.91704498 2.18228668 0.00693056 0.00000000
4.35469158 0.42082121 0.00148243 0.00000000
0.84843352 1.36253503 -0.00095914 0.00000000
0.44199978 0.20856212 0.00166444 0.00000000
1.27886165 1.25658888 -0.00027026 0.00000000
2.84901008 0.35191471 -0.00228053 0.00000000
2.40359943 1.31469654 -0.00068711 0.00000000
1.05273201 1.37194715 -0.00051609 0.00000000
0.77425005 0.14484286 0.00413340 0.00000000
3.26940447 2.07778912 0.00043401 0.00000000
3.65202265 2.08736502 0.00174001 0.00000000
3.15363276 1.91012088 0.00129037 0.00000000
2.37127289 1.61810341 0.00167642 0.00000000
3.66121068 1.19183700 0.00460969 0.00000000
4.34928569 0.90591797 0.00087638 0.00000000
1.97536811 1.40497004 -0.00082300 0.00000000
0.55144313 1.41726110 -0.00064767 0.00000000
3.63574437 0.19695357 -0.00432117 0.00000000
4.13652810 1.39710064 -0.00090478 0.00000000
0.58836887 0.92481900 -0.00327163 0.00000000
3.84762368 0.72314678 -0.00403113 0.00000000
3.28526015 0.94345583 0.00331892 0.00000000
1.59404330 1.13084617 0.00058372 0.00000000
0.36117873 0.93016992 -0.00682927 0.00000000
0.43897815 1.07972443 -0.00160790 0.00000000
3.00367345 1.08123900 0.00133033 0.00000000
2.73677716 1.96571695 0.00014519 0.00000000
4.32568769 1.81475166 -0.00239324 0.00000000
1.66054834 1.35962605 0.00522789 0.00000000
0.33854245 0.30728140 0.00275321 0.00000000
1.62447466 1.09945042 0.00069820 0.00000000
2.53187627 0.17998170 0.00254267 0.00000000
0.30123957 0.97138522 -0.00149007 0.00000000
0.84928652 0.73757288 0.00384257 0.00000000
0.33628112 1.96290186 0.00290447 0.00000000
2.00166698 2.04085305 0.00256012 0.00000000
0.81093681 1.10927311 0.00249332 0.00000000
0.34033511 2.06840419 -0.00074504 0.00000000
2.08512765 1.50713440 -0.00082741 0.00000000
1.06668752 1.59328104 0.00069930 0.00000000
1.75304103 1.01748011 -0.00400675 0.00000000
2.79070680 0.70564933 -0.00099194 0.00000000
3.87981418 0.56088616 -0.00120854 0.00000000
2.37151442 2.02321720 0.00452783 0.00000000
2.77860708 0.26399773 0.00271041 0.00000000
1.99792206 1.65722218 -0.00095179 0.00000000
3.26250268 0.10039305 0.00361579 0.00000000
1.68840531 0.36158758 0.00088048 0.00000000
2.65800165 1.88204387 -0.00074333 0.00000000
1.93686694 0.74333760 -0.00286498 0.00000000
2.09577523 1.19252628 -0.00214062 0.00000000
3.42335060 1.65697665 0.00148219 0.00000000
0.62998859 1.79354036 -0.00005959 0.00000000
1.74785846 0.31717026 0.00069145 0.00000000
0.28128019 2.20181426 0.00038940 0.00000000
2.34301690 0.67980483 0.00559578 0.00000000
1.27987051 0.54521163 -0.00043546 0.00000000
0.69985886 0.06686048 0.00090268 0.00000000
3.36996608 1.22667649 0.00573021 0.00000000
3.68207495 0.37105066 -0.00427288 0.00000000
0.23541641 0.27387601 -0.00031519 0.00000000
1.50993287 0.72980928 -0.00065698 0.00000000
0.78379717 1.18658907 0.00198450 0.00000000
2.50887801 0.28813987 -0.00520788 0.00000000
0.95166240 0.06563533 -0.00085167 0.00000000
1.05000056 1.83852859 0.00014732 0.00000000
0.05625945 0.34144688 0.00054421 0.00000000
2.00978258 0.25500799 0.00020205 0.00000000
3.24634397 0.30342610 0.00388024 0.00000000
0.54659197 0.19743583 -0.00496273 0.00000000
2.85779321 1.72225599 0.00109638 0.00000000
0.86750393 1.93639211 0.00046001 0.00000000
3.71529410 0.51445154 -0.00197648 0.00000000
2.31750737 2.11306108 0.00129535 0.00000000
3.85477702 0.82653027 -0.00076180 0.00000000
0.79446049 1.09012464 0.00347959 0.00000000
2.26737084 2.19124987 -0.00110126 0.00000000
2.08836607 0.11985093 -0.00046834 0.00000000
0.09090626 1.69518460 0.00028280 0.00000000
3.58474961 0.34860421 -0.00193846 0.00000000
2.43824503 1.15670798 0.00329470 0.00000000
2.81499667 1.12228701 0.00308888 0.00000000
4.02770743 1.42851451 -0.00536430 0.00000000
3.87692580 2.15366167 0.00066741 0.00000000
3.72840478 1.98755131 0.00701395 0.00000000
3.54039126 1.85267792 -0.00470024 0.00000000
1.64954639 1.82299401 -0.00284350 0.00000000
3.75583694 1.16378886 0.00011592 0.00000000
1.45122930 0.89516941 0.00193804 0.00000000
0.94461308 0.15882372 -0.00136515 0.00000000
1.61674365 0.76996618 0.00264945 0.00000000
2.63121305 1.85701133 -0.00271011 0.00000000
2.57248150 1.40405379 -0.00273765 0.00000000
2.58830101 1.96926348 -0.00371203 0.00000000
2.85664089 0.03115149 -0.00067208 0.00000000
1.30638427 1.73579454 0.00198874 0.00000000
0.82883183 1.10118677 -0.00274659 0.00000000
2.68229588 1.32627041 0.00055092 0.00000000
1.45523312 0.20149531 -0.00102981 0.00000000
2.52822542 1.55370101 0.00082894 0.00000000
0.30161520 2.14953373 0.00261708 0.00000000
3.51174217 1.01890514 -0.00183939 0.00000000
2.93757563 0.58802964 0.00109395 0.00000000
1.04912589 1.95608763 0.00184312 0.00000000
0.52587896 1.47987187 0.00203037 0.00000000
3.57004181 1.44252671 -0.00333170 0.00000000
2.43726432 1.41357859 0.00240671 0.00000000
2.90170510 1.92283239 0.00388246 0.00000000
3.98510503 0.04810434 -0.00343466 0.00000000
3.45676272 0.23840432 -0.00054524 0.00000000
0.59347253 0.71242564 0.00118516 0.00000000
2.66728022 1.58368021 -0.00244802 0.00000000
1.65987816 2.09752922 0.00188249 0.00000000
2.35754966 0.26197047 0.00171247 0.00000000
2.46662354 0.72567089 -0.00230278 0.00000000
1.52475344 1.59219525 -0.00043500 0.00000000
2.71630732 1.54101042 0.00240971 0.00000000
2.25422589 1.08293825 -0.00099914 0.00000000
2.00371126 0.95007311 -0.00071944 0.00000000
1.58437593 1.83438445 -0.00020807 0.00000000
3.13412228 2.15491881 0.00135377 0.00000000
2.33629740 1.02555758 -0.00218918 0.00000000
1.15569426 0.75969954 -0.00109013 0.00000000
3.86177018 1.07351164 0.00547982 0.00000000
1.11476028 0.06092296 0.00051651 0.00000000
0.50092043 0.27467090 -0.00204514 0.00000000
4.15440750 0.30767878 0.00115058 0.00000000
1.48618857 0.91854070 -0.00092950 0.00000000
2.59244583 1.36874888 0.00233815 0.00000000
0.96456804 1.87353389 0.00297013 0.00000000
1.77882812 1.72207578 -0.00281352 0.00000000
3.32578620 2.04905162 -0.00412057 0.00000000
0.11817541 0.66293455 0.00461087 0.00000000
3.02116088 1.07739594 0.00562400 0.00000000
3.09323073 1.95964119 0.00010191 0.00000000
0.67624327 0.33804136 0.00282223 0.00000000
2.29494421 2.12001742 0.00267500 0.00000000
2.03181052 0.07170876 0.00053105 0.00000000
4.18110382 1.06931687 -0.00035624 0.00000000
3.24499948 0.44904849 -0.00305024 0.00000000
4.08375131 1.49917925 0.00358164 0.00000000
4.29865323 1.53417231 -0.00349553 0.00000000
3.84942293 1.63138088 -0.00049331 0.00000000
2.61285024 0.05352552 0.00256257 0.00000000
1.72659356 0.33578583 0.00279176 0.00000000
3.04531669 1.31807451 0.00372644 0.00000000
1.82917179 2.16512546 0.00068074 0.00000000
3.04412747 0.76821470 0.00120557 0.00000000
1.78923650 1.33047745 -0.00079849 0.00000000
2.76924792 1.04203724 0.00232098 0.00000000
1.42477409 0.25994600 0.00349918 0.00000000
1.94741990 0.71446152 0.00011339 0.00000000
2.69343740 0.21343165 0.00019388 0.00000000
0.33022321 0.47362405 0.00527576 0.00000000
3.33351913 0.69359314 -0.00293107 0.00000000
1.60003730 0.94976922 -0.00337441 0.00000000
3.81378124 1.66572990 0.00100908 0.00000000
0.18019764 0.05153028 0.00172720 0.00000000
1.21498491 1.72577755 -0.00156293 0.00000000
2.65571322 0.08223031 0.00058569 0.00000000
3.49730139 1.38736755 0.00008342 0.00000000
3.96920334 1.93322427 -0.00503227 0.00000000
3.53487472 1.25198704 0.00085325 0.00000000
0.47530398 1.35945741 -0.00211237 0.00000000
2.45290217 0.58564081 -0.00152568 0.00000000
3.05827718 1.31647680 0.00097577 0.00000000
3.72393936 0.71114034 -0.00158915 0.00000000
3.60725335 0.66803831 0.00161931 0.00000000
2.76017582 0.94706347 -0.00007066 0.00000000
4.29763680 1.05725174 -0.00151850 0.00000000
2.11520531 0.56217850 -0.00334883 0.00000000
0.69576836 1.53120673 -0.00116685 0.00000000
0.33887715 0.17968326 0.00373056 0.00000000
1.85190165 1.52689456 0.00197502 0.00000000
1.28720460 2.17185170 0.00079552 0.00000000
0.30430572 1.57704509 0.00271964 0.00000000
2.28258260 1.85489713 -0.00306571 0.00000000
0.96513069 1.71419312 -0.00441096 0.00000000
3.67025001 1.55327972 0.00006461 0.00000000
0.45662228 0.56110239 0.00476625 0.00000000
1.11370971 1.50037431 -0.00057074 0.00000000
3.26831574 0.37846576 -0.00294914 0.00000000
0.91909882 0.75487849 0.00037147 0.00000000
2.01462877 0.05472597 0.00237932 0.00000000
3.92229221 1.78941124 -0.00201214 0.00000000
0.92613548 1.74766130 -0.00344217 0.00000000
0.86012420 0.50985458 -0.00628104 0.00000000
2.64145519 0.71933592 0.00115142 0.00000000
1.96453520 0.08145927 0.00369658 0.00000000
2.19657146 0.83505471 0.00223336 0.00000000
0.65973384 2.11685921 -0.00206006 0.00000000
0.52558775 0.87492430 -0.00128493 0.00000000
1.49033956 0.43399106 -0.00110375 0.00000000
0.55041557 0.04717096 -0.00224829 0.00000000
0.95061370 0.24430866 0.00275677 0.00000000
3.49284229 0.79651665 -0.00320054 0.00000000
1.03640334 2.04986265 -0.00636394 0.00000000
2.80053632 1.49171000 0.00164703 0.00000000
3.61841408 0.15925371 0.00180653 0.00000000
1.07308240 1.60169150 0.00405512 0.00000000
0.91610766 1.97630609 0.00032144 0.00000000
1.21287899 0.35718906 -0.00227886 0.00000000
2.19272832 0.92229720 -0.00126308 0.00000000
1.27655070 1.59076849 -0.00382003 0.00000000
