3.20070956 1.52885941 0.00167344 0.00000000
2.29055007 1.81573873 -0.00236227 0.00000000
3.95373222 0.85283417 0.00278040 0.00000000
0.81145018 2.41330703 0.00116450 0.00000000
0.65544208 1.37481878 0.00027145 0.00000000
0.87918270 1.32573727 -0.00113697 0.00000000
0.17068054 0.12877891 0.00068210 0.00000000
4.04294134 0.38245825 0.00185367 0.00000000
2.67087564 2.24871529 0.00044507 0.00000000
3.25195611 0.76658222 -0.00266676 0.00000000
3.38659487 0.15700581 -0.00357168 0.00000000
1.86543703 1.81770409 0.00304348 0.00000000
2.39867941 2.05932494 -0.00146081 0.00000000
0.51795104 1.23898629 0.00202938 0.00000000
2.34896544 1.62637237 -0.00244758 0.00000000
3.60161646 1.93298706 -0.00065617 0.00000000
2.66626648 1.81113912 0.00143888 0.00000000
3.91852352 0.20299542 0.00138816 0.00000000
3.79386606 0.33621616 0.00052677 0.00000000
3.28456401 0.97150722 -0.00133339 0.00000000
3.78670810 0.31386220 -0.00000167 0.00000000
2.54312328 0.97535031 -0.00019224 0.00000000
3.21116657 1.88435198 0.00074716 0.00000000
2.28219276 2.06724992 0.00094464 0.00000000
4.42412345 0.09180983 0.00108104 0.00000000
2.63843834 0.92575452 -0.00090950 0.00000000
0.54292783 0.24146781 -0.00062790 0.00000000
1.66886606 1.22515923 0.00297836 0.00000000
3.16620003 1.88375462 -0.00436358 0.00000000
1.86628631 2.31523649 0.00574772 0.00000000
3.16902038 0.09505414 -0.00128794 0.00000000
3.13954511 0.16036841 -0.00117749 0.00000000
0.64056439 0.34204751 -0.00470727 0.00000000
3.52328799 2.32703405 -0.00179478 0.00000000
4.35351516 2.00430536 -0.00157026 0.00000000
4.19090773 1.93998142 0.00032827 0.00000000
4.30082502 0.63144525 0.00139886 0.00000000
2.52638565 0.37034977 -0.00079039 0.00000000
3.43770291 0.15566416 -0.00575206 0.00000000
2.37128868 0.11989555 0.00105114 0.00000000
0.36411437 1.95157698 -0.00100550 0.00000000
0.12687308 1.44100699 0.00389283 0.00000000
3.30386537 0.30174353 0.00340479 0.00000000
1.42076133 0.99813575 -0.00111004 0.00000000
1.72202293 1.73555560 0.00598436 0.00000000
1.60299031 2.17104926 -0.00446531 0.00000000
2.77632196 1.17148811 0.00315154 0.00000000
1.78586442 1.52499484 -0.00216616 0.00000000
0.37693796 1.90666982 -0.00184266 0.00000000
1.12865356 0.79430473 0.00229859 0.00000000
4.02293541 0.56454464 0.00233401 0.00000000
1.98822425 1.80660856 0.00004246 0.00000000
3.29845813 1.43011687 -0.00160285 0.00000000
1.26783637 2.04104331 -0.00104809 0.00000000
2.29887365 0.80003271 0.00337712 0.00000000
0.00869377 0.99887513 0.00018870 0.00000000
3.09389167 0.93635241 -0.00502045 0.00000000
3.28340277 1.23131612 -0.00031709 0.00000000
1.84901245 0.31043771 0.00322193 0.00000000
3.16289210 0.87213986 0.00222968 0.00000000
1.15147775 2.36473805 -0.00113208 0.00000000
3.43427895 0.17641016 0.00061986 0.00000000
1.90268904 2.16892082 -0.00058127 0.00000000
3.45990800 0.76282158 0.00083161 0.00000000
2.21340209 0.10553100 -0.00078348 0.00000000
0.66175914 0.96424311 -0.00534823 0.00000000
2.54862241 0.03129519 0.00433529 0.00000000
1.96588815 1.83522072 0.00071911 0.00000000
4.17887193 0.70508810 -0.00037910 0.00000000
0.83059199 1.13634988 -0.00016107 0.00000000
0.30521888 0.74410820 -0.00137687 0.00000000
3.23369115 1.29638501 -0.00215147 0.00000000
4.47174300 0.69121515 -0.00165636 0.00000000
2.94484277 1.95534595 0.00257795 0.00000000
3.08439954 1.93548106 -0.00106964 0.00000000
2.30265181 2.20143417 -0.00254702 0.00000000
4.10870599 2.31813566 -0.00170649 0.00000000
2.64015636 0.99063235 0.00037578 0.00000000
0.84320007 1.28298151 0.00137107 0.00000000
0.50281748 2.37326737 -0.00217423 0.00000000
0.64750909 1.14385912 -0.00038323 0.00000000
2.44051270 1.68917038 0.00222075 0.00000000
0.88639065 0.29723994 -0.00279720 0.00000000
2.33536551 1.77510919 -0.00102192 0.00000000
1.69238338 1.05127493 -0.00202300 0.00000000
1.86930196 0.28062202 -0.00390118 0.00000000
0.94302408 1.07132862 -0.00050949 0.00000000
3.43095719 0.14255222 -0.00282456 0.00000000
0.41780799 0.01145041 -0.00222253 0.00000000
1.80645427 2.26941463 -0.00171685 0.00000000
0.57360225 0.81763962 0.00339591 0.00000000
4.10702432 0.26266297 0.00244617 0.00000000
1.36822429 1.76594103 0.00367020 0.00000000
3.29827624 2.19610023 0.00364583 0.00000000
2.55970784 0.30210011 -0.00403365 0.00000000
0.78896180 1.42520302 -0.00602618 0.00000000
1.44594330 2.01860766 -0.00224096 0.00000000
2.15552386 2.18368975 0.00135211 0.00000000
4.24828986 1.67704117 -0.00126219 0.00000000
3.21862246 0.06690215 0.00335014 0.00000000
2.93069734 0.30489747 0.00038446 0.00000000
2.42199785 0.71404858 0.00228906 0.00000000
3.75696367 2.22556458 -0.00306780 0.00000000
4.47459746 0.46088499 0.00014931 0.00000000
2.51143795 2.14964388 0.00132384 0.00000000
2.37168019 1.11416426 -0.00488197 0.00000000
3.65848424 2.37671517 0.00268691 0.00000000
1.27786265 0.75453207 -0.00001996 0.00000000
0.82742415 2.14142449 0.00240121 0.00000000
2.02352703 0.17413815 -0.00050132 0.00000000
3.97877390 1.24614764 -0.00034041 0.00000000
1.41496708 0.44369480 -0.00025748 0.00000000
1.52147288 1.79846382 0.00448771 0.00000000
3.90356603 2.05957327 0.00104376 0.00000000
0.06337097 1.59469242 -0.00029188 0.00000000
0.09730757 0.30841739 -0.00221031 0.00000000
0.90182137 2.35315217 -0.00242875 0.00000000
1.36616941 0.22694438 -0.00331371 0.00000000
2.64088474 0.76824450 0.00297996 0.00000000
0.80426547 1.00164118 -0.00169302 0.00000000
1.67382732 1.03198013 -0.00333118 0.00000000
2.05343235 1.44632136 0.00392327 0.00000000
4.28390399 1.89359681 -0.00057533 0.00000000
2.51741458 1.14493211 -0.00041451 0.00000000
0.24236408 1.64129745 0.00071202 0.00000000
3.08806994 0.87205750 -0.00558801 0.00000000
1.15195384 0.64965426 0.00101503 0.00000000
3.39380323 1.19787146 -0.00020613 0.00000000
2.65881193 1.99560303 0.00007706 0.00000000
0.71130392 0.76955804 -0.00142856 0.00000000
1.71481555 2.20081717 -0.00168643 0.00000000
1.80450796 2.05074013 0.00024540 0.00000000
1.17226137 1.92365821 -0.00421546 0.00000000
1.59318288 1.70540704 -0.00195736 0.00000000
1.14194385 1.32006088 -0.00059612 0.00000000
1.10262003 1.00680419 -0.00047768 0.00000000
3.26200474 1.60358993 -0.00028318 0.00000000
1.93337760 1.37540052 -0.00405854 0.00000000
1.09896048 0.63853810 -0.00003508 0.00000000
4.32432938 0.83722260 0.00012645 0.00000000
3.42686384 1.02485735 0.00082881 0.00000000
0.36465702 1.00491238 -0.00234242 0.00000000
1.45372660 0.12629619 0.00048742 0.00000000
4.11693296 0.40716285 -0.00304441 0.00000000
3.56628201 1.87814651 -0.00405117 0.00000000
1.38917899 0.64661543 -0.00014485 0.00000000
0.64117858 1.01213241 -0.00403341 0.00000000
3.46168814 1.37829542 -0.00147087 0.00000000
3.88000178 0.31297679 -0.00357210 0.00000000
0.49262172 0.52640683 0.00332970 0.00000000
2.92400760 1.82759061 -0.00045922 0.00000000
4.49809369 1.10950284 -0.00176516 0.00000000
0.40685364 1.81099707 0.00194966 0.00000000
3.37306664 1.60681636 0.00014707 0.00000000
2.57505842 0.25585197 0.00031283 0.00000000
2.89034134 0.36096633 0.00122480 0.00000000
1.45430248 0.02305544 -0.00138770 0.00000000
4.31412435 2.11365484 -0.00531515 0.00000000
1.99244379 1.55133402 -0.00048226 0.00000000
2.49315003 0.40017823 -0.00047103 0.00000000
4.09896375 2.41142894 0.00207089 0.00000000
3.62521384 0.25911329 0.00256809 0.00000000
1.72874084 1.14670421 0.00009428 0.00000000
0.11142128 2.42261371 0.00228231 0.00000000
1.26283072 1.40142968 -0.00237372 0.00000000
4.45112154 0.07775669 -0.00141777 0.00000000
2.10255433 1.21245501 -0.00044394 0.00000000
0.16569227 1.30864533 -0.00267892 0.00000000
4.36083746 0.32608115 -0.00030082 0.00000000
2.08963581 0.80960878 -0.00226225 0.00000000
2.40114783 2.01574457 0.00409863 0.00000000
3.38754617 0.45136543 0.00146944 0.00000000
4.20981451 0.23518750 -0.00107445 0.00000000
4.44501690 0.05448916 0.00034522 0.00000000
3.54055814 2.21843539 -0.00025882 0.00000000
0.02349867 1.71511116 -0.00067124 0.00000000
0.40726241 0.80967564 -0.00105164 0.00000000
1.10572674 0.14651242 -0.00036213 0.00000000
3.09688583 0.36956392 -0.00504175 0.00000000
3.69410436 0.30580513 0.00295273 0.00000000
1.70404263 2.30563501 0.00288725 0.00000000
3.00945203 1.69276843 0.00626513 0.00000000
1.75820873 1.93624483 -0.00198697 0.00000000
0.68058773 0.53273491 0.00037498 0.00000000
4.16427805 0.41881717 0.00034077 0.00000000
1.47421835 0.94993256 -0.00197748 0.00000000
2.40628241 1.74674204 -0.00144978 0.00000000
4.24877953 0.40665964 -0.00012257 0.00000000
0.08806260 1.93451584 -0.00113698 0.00000000
4.12591427 1.44461773 0.00134352 0.00000000
4.38285395 2.03212923 -0.00086602 0.00000000
2.20424101 1.31713786 -0.00181402 0.00000000
1.75869603 0.07039482 0.00071301 0.00000000
3.42698644 0.41931822 0.00029800 0.00000000
3.47355859 1.89825036 0.00076867 0.00000000
3.52158720 2.21542778 0.00001610 0.00000000
3.25323544 0.06852687 0.00050315 0.00000000
2.76654365 0.27529111 -0.00137625 0.00000000
1.82916372 1.87208872 0.00538739 0.00000000
0.86496048 2.41706631 0.00399759 0.00000000
0.18668625 2.18553388 -0.00328936 0.00000000
2.87598851 0.31946237 -0.00066581 0.00000000
2.61977212 1.22022512 -0.00275078 0.00000000
1.74440062 0.91011403 -0.00087113 0.00000000
4.00569365 1.05454592 0.00183772 0.00000000
3.27690161 1.97848868 0.00107782 0.00000000
2.46470107 1.66058887 0.00227643 0.00000000
0.25811931 2.18241329 0.00374353 0.00000000
0.53966219 0.73355901 0.00193928 0.00000000
1.01992525 0.37355010 0.00108870 0.00000000
0.71835488 1.61245492 0.00214194 0.00000000
3.82714626 0.28433337 0.00327484 0.00000000
2.44441292 1.04899512 -0.00082616 0.00000000
0.11417130 0.06066142 0.00386087 0.00000000
4.26029228 0.33247805 -0.00244860 0.00000000
4.32365824 2.06771150 0.00216451 0.00000000
2.11618337 1.56848189 0.00006206 0.00000000
0.76620683 0.01446305 0.00101330 0.00000000
3.18313077 0.40204109 -0.00053588 0.00000000
2.00035958 1.01635774 -0.00308354 0.00000000
3.75079077 0.20757254 -0.00222424 0.00000000
0.93704520 0.67278136 0.00089772 0.00000000
2.84925714 0.53930612 0.00292377 0.00000000
1.15551931 0.90581725 -0.00287146 0.00000000
0.81123321 1.28584971 -0.00385582 0.00000000
0.32986053 0.13077759 -0.00075245 0.00000000
1.07438985 2.40041999 -0.00022593 0.00000000
1.34632909 0.47693738 0.00018257 0.00000000
1.51862893 0.24676153 0.00113900 0.00000000
4.29124921 0.51629959 -0.00325828 0.00000000
3.42365101 1.86041924 -0.00427872 0.00000000
1.51007860 0.64810341 0.00026185 0.00000000
4.24932353 0.83983960 -0.00025563 0.00000000
0.75697481 1.97132679 -0.00159864 0.00000000
3.75041591 2.38453602 0.00246873 0.00000000
2.57430388 0.77446688 0.00256438 0.00000000
3.60666020 2.33874138 0.00056467 0.00000000
0.78669849 0.90910729 0.00350530 0.00000000
1.72798908 2.08681690 0.00239440 0.00000000
3.57068673 0.40369699 0.00161325 0.00000000
1.47615815 0.31256026 -0.00525641 0.00000000
1.76863707 0.03925280 0.00491244 0.00000000
2.83861485 0.84904975 -0.00303721 0.00000000
1.18290577 1.96618900 0.00221811 0.00000000
3.98032193 0.85806957 -0.00063037 0.00000000
4.02866702 1.41282418 0.00272539 0.00000000
3.89896877 0.91823096 0.00461700 0.00000000
2.76284247 1.33752472 -0.00466851 0.00000000
2.65673851 1.80573493 -0.00161964 0.00000000
0.41952305 1.66223180 -0.00504200 0.00000000
1.13381130 0.36591048 -0.00005206 0.00000000
3.61592711 1.26134499 0.00416891 0.00000000
3.14278635 0.59452426 0.00254582 0.00000000
4.15817908 0.82651623 -0.00209153 0.00000000
3.15016468 2.12478806 0.00010761 0.00000000
3.56692239 0.44902843 0.00028379 0.00000000
0.31283051 0.17329898 0.00043905 0.00000000
2.43010600 0.56248026 -0.00282985 0.00000000
1.99825462 0.78407850 -0.00204401 0.00000000
3.35690684 1.92386616 -0.00077513 0.00000000
2.58075850 1.51345641 -0.00384229 0.00000000
2.37891133 2.08265774 0.00091876 0.00000000
2.78577323 1.79884711 0.00265500 0.00000000
2.03390169 0.43361654 0.00127890 0.00000000
0.63030872 2.22214970 -0.00041200 0.00000000
3.09481018 1.08518344 -0.00211497 0.00000000
3.11237345 1.88241363 -0.00072308 0.00000000
1.81002988 2.21675679 -0.00212097 0.00000000
0.40605108 0.07052632 -0.00103854 0.00000000
3.16259480 1.79873742 0.00082029 0.00000000
1.53018630 2.10156423 0.00274819 0.00000000
0.85941347 0.76471785 0.00310808 0.00000000
2.82801969 0.74364181 -0.00025472 0.00000000
0.86002006 0.19244924 -0.00093993 0.00000000
4.27075179 2.38595273 -0.00448522 0.00000000
3.60948558 1.60461734 0.00308554 0.00000000
1.05428906 0.41877765 0.00317721 0.00000000
2.19903503 1.57265413 0.00087847 0.00000000
0.43913968 0.03962508 -0.00286281 0.00000000
0.26377329 1.94740644 -0.00064702 0.00000000
2.41994156 1.24617782 -0.00031533 0.00000000
2.45633098 0.57463868 -0.00194656 0.00000000
1.98585826 2.01848113 -0.00097770 0.00000000
0.64584262 0.97629977 -0.00030248 0.00000000
2.78069605 0.57327367 -0.00293970 0.00000000
4.31073992 0.63427224 -0.00207494 0.00000000
4.05371689 1.00021041 0.00081404 0.00000000
2.24393167 0.01390188 0.00103240 0.00000000
3.95032144 1.17836214 0.00227712 0.00000000
3.99247987 0.07052793 -0.00063615 0.00000000
1.49881762 1.01271512 0.00029587 0.00000000
2.06762466 0.81739435 0.00013909 0.00000000
0.24162452 2.36875141 -0.00305915 0.00000000
3.67497643 1.24863035 0.00034469 0.00000000
3.53172245 1.16518477 -0.00203817 0.00000000
3.50964188 2.05742037 -0.00009089 0.00000000
3.11145870 0.85853257 0.00115875 0.00000000
1.70751140 0.58844265 -0.00008767 0.00000000
1.51753180 2.19308838 0.00142982 0.00000000
4.14571247 1.28103915 -0.00407278 0.00000000
2.20068285 0.90560850 -0.00076126 0.00000000
3.99672948 1.55245361 0.00119618 0.00000000
3.14266521 1.34939848 0.00054748 0.00000000
2.79240139 2.30702511 0.00248783 0.00000000
0.69495968 1.58827280 -0.00493697 0.00000000
0.39016607 0.71087896 0.00029204 0.00000000
0.83826100 0.67651956 -0.00368582 0.00000000
1.26560033 1.37282273 0.00015562 0.00000000
0.43382750 1.00494183 0.00281313 0.00000000
1.86891891 1.61211589 0.00194023 0.00000000
3.55428293 1.97634232 0.00104249 0.00000000
4.46341510 1.83927329 0.00246768 0.00000000
3.89300711 1.79039026 0.00015972 0.00000000
0.68789805 2.05072750 0.00300037 0.00000000
1.73784299 0.13642306 0.00131062 0.00000000
4.47045515 0.24109093 0.00042122 0.00000000
3.18283709 0.90962115 -0.00218260 0.00000000
1.26253935 1.28325003 0.00160779 0.00000000
1.70353880 2.34481576 -0.00500502 0.00000000
3.49932338 1.84860326 0.00182152 0.00000000
3.80961837 1.66033923 -0.00342319 0.00000000
3.90096391 0.59288993 0.00092850 0.00000000
2.46309210 2.18549779 -0.00007720 0.00000000
1.98652297 1.16766529 -0.00022328 0.00000000
3.42885680 1.04771552 0.00015309 0.00000000
3.25334474 2.16284436 0.00286629 0.00000000
1.08502146 0.40419071 0.00309319 0.00000000
4.08603360 0.85773714 -0.00013803 0.00000000
4.04104573 2.01671610 -0.00160293 0.00000000
0.51520469 1.16091803 -0.00100556 0.00000000
1.78497040 1.63158645 -0.00063432 0.00000000
2.38212114 0.83167260 -0.00174286 0.00000000
2.55857338 1.08095271 -0.00292682 0.00000000
3.11824450 2.01450106 -0.00221557 0.00000000
2.58124800 2.35547813 -0.00134384 0.00000000
2.44913545 0.11979557 0.00114556 0.00000000
4.25982899 1.74575292 -0.00012558 0.00000000
3.44009686 0.58170034 -0.00099140 0.00000000
1.25039590 0.96685597 -0.00057105 0.00000000
0.59171037 2.32660855 -0.00594508 0.00000000
3.60797598 0.98709133 -0.00045405 0.00000000
1.26989388 2.00363593 -0.00590491 0.00000000
0.12993044 0.42471184 -0.00228824 0.00000000
1.46094379 0.52386914 -0.00491992 0.00000000
1.73275778 0.08537113 -0.00145848 0.00000000
1.61812861 0.03049194 -0.00278686 0.00000000
3.99253294 0.15280572 -0.00467112 0.00000000
4.32155483 0.45708045 -0.00131862 0.00000000
1.98333999 1.38736562 0.00156612 0.00000000
2.45177906 0.44580214 0.00154445 0.00000000
3.81431459 1.57933503 0.00034870 0.00000000
3.31908118 1.97808141 -0.00028454 0.00000000
0.66148625 1.57267247 0.00228506 0.00000000
3.35496740 1.95191954 0.00384635 0.00000000
3.48205324 0.44989271 -0.00278448 0.00000000
3.48591641 2.14815488 -0.00308963 0.00000000
1.61511780 2.03357938 0.00310066 0.00000000
0.26176110 1.63572062 0.00043433 0.00000000
1.69531362 0.42220749 0.00105040 0.00000000
1.89853643 1.52152803 -0.00241408 0.00000000
2.35057466 2.28254577 -0.00238179 0.00000000
2.30287786 0.36461004 -0.00063379 0.00000000
1.74405668 2.11749466 0.00229043 0.00000000
2.36968452 1.55867805 0.00249109 0.00000000
3.60339583 1.62958821 0.00040241 0.00000000
2.90849477 0.04289512 0.00170417 0.00000000
4.22205371 2.25357955 -0.00169824 0.00000000
1.04212230 2.21608516 -0.00008527 0.00000000
1.26913690 1.44613574 -0.00210961 0.00000000
3.56214349 1.44805112 -0.00088464 0.00000000
1.29424977 0.65898472 0.00059203 0.00000000
1.48688087 0.83241075 0.00111655 0.00000000
0.17702768 1.57873995 0.00007444 0.00000000
1.79291001 0.01845613 0.00257341 0.00000000
1.13738677 0.36326109 -0.00027893 0.00000000
4.21163838 1.21218028 -0.00121336 0.00000000
4.47683182 0.44011982 0.00074917 0.00000000
2.09519738 0.24413098 0.00456957 0.00000000
2.08765290 2.39732045 0.00051880 0.00000000
3.12815930 1.91123311 -0.00291814 0.00000000
0.14625513 0.30762791 0.00214191 0.00000000
0.28600100 0.57998977 0.00013978 0.00000000
2.13357709 0.04392082 -0.00255378 0.00000000
4.30249063 2.17941719 -0.00208638 0.00000000
0.10574088 0.65378065 -0.00203685 0.00000000
3.48608707 1.17101581 -0.00238354 0.00000000
0.85860072 0.60529300 -0.00148708 0.00000000
2.14466885 0.68613619 -0.00095056 0.00000000
3.46567637 0.50959127 0.00146617 0.00000000
2.54261145 1.01511835 -0.00254745 0.00000000
1.54134379 0.84773478 -0.00300441 0.00000000
1.19278550 2.16377992 -0.00171027 0.00000000
1.36111203 1.27835610 -0.00330502 0.00000000
2.57141768 1.81913094 -0.00237797 0.00000000
4.23970075 0.69396190 0.00091317 0.00000000
1.87004959 0.54214353 0.00006416 0.00000000
4.22373206 2.03254168 -0.00187566 0.00000000
3.49216414 0.88511944 -0.00201633 0.00000000
3.68790219 1.42885582 -0.00099973 0.00000000
3.19131471 1.24962644 0.00644456 0.00000000
3.24709411 2.28952000 0.00159647 0.00000000
3.59103600 1.14077758 0.00046780 0.00000000
1.74677533 1.44098960 -0.00042797 0.00000000
4.16353447 0.82293720 0.00220718 0.00000000
1.46241360 1.34209829 0.00140494 0.00000000
2.74088055 0.30499929 -0.00154563 0.00000000
1.95097745 1.88654395 0.00231432 0.00000000
1.35662064 1.33675077 -0.00267679 0.00000000
2.76335313 0.15682014 -0.00232301 0.00000000
3.78350398 2.41049806 -0.00179167 0.00000000
1.35830344 0.70354247 -0.00354808 0.00000000
3.94576095 1.62658408 0.00311247 0.00000000
1.03737995 0.71603452 -0.00474648 0.00000000
2.02638151 1.33952333 -0.00089993 0.00000000
3.34329960 2.02499408 -0.00187868 0.00000000
0.99663431 0.40471625 0.00193996 0.00000000
3.53681751 2.09862008 0.00215258 0.00000000
1.22770665 0.25938057 -0.00306108 0.00000000
3.38216562 2.21594098 0.00221970 0.00000000
4.03571090 0.23156464 0.00133092 0.00000000
2.84802835 1.84799950 -0.00177012 0.00000000
1.88146006 1.81455473 -0.00084218 0.00000000
1.42099799 1.99872802 0.00088195 0.00000000
1.90053406 1.81978137 -0.00021911 0.00000000
1.31507758 0.06526703 -0.00116615 0.00000000
1.59577103 0.20418227 -0.00017625 0.00000000
4.21576121 0.07303620 -0.00163120 0.00000000
2.65624519 1.14600771 0.00308065 0.00000000
1.93442980 1.09918231 0.00261300 0.00000000
1.22634585 1.89190550 -0.00113695 0.00000000
4.29863283 0.60313332 0.00353165 0.00000000
0.68846003 0.02101335 0.00379388 0.00000000
2.73125099 1.07297483 -0.00174273 0.00000000
4.18747712 1.03939449 -0.00338268 0.00000000
3.29004356 0.45009655 0.00197455 0.00000000
0.07272021 1.00949307 0.00577476 0.00000000
1.39704407 1.36514758 0.00380595 0.00000000
4.52060922 0.65558378 -0.00135299 0.00000000
1.44270639 1.94146677 0.00291039 0.00000000
2.85261933 1.17602837 0.00208918 0.00000000
3.86292384 0.52581215 0.00170001 0.00000000
4.31355356 1.14074949 0.00296390 0.00000000
2.26783171 2.07901782 -0.00654053 0.00000000
3.02557253 0.23084713 -0.00145506 0.00000000
3.11714588 2.41075524 -0.00057996 0.00000000
2.46813092 0.47456550 0.00196104 0.00000000
0.96777269 2.14466816 -0.00202877 0.00000000
1.91233885 0.11417170 -0.00477059 0.00000000
1.38967698 0.16731048 0.00254107 0.00000000
3.09020939 1.25185014 0.00377787 0.00000000
4.41685287 0.77515601 -0.00285511 0.00000000
0.16142574 0.48160762 -0.00170434 0.00000000
3.98376403 1.56929016 0.00198793 0.00000000
2.19062063 1.74718392 -0.00266344 0.00000000
2.89482419 1.22355080 0.00321200 0.00000000
4.01240848 1.28211333 -0.00070245 0.00000000
0.64870821 1.90399902 0.00035658 0.00000000
2.36911355 0.58225479 -0.00015283 0.00000000
1.73068021 0.15223955 0.00031920 0.00000000
1.87591880 2.35598922 0.00035770 0.00000000
2.32738601 1.48460211 0.00348913 0.00000000
2.82944669 0.61538378 -0.00061755 0.00000000
2.49176450 2.28824662 -0.00384774 0.00000000
2.97591106 0.20180036 0.00076726 0.00000000
0.92187669 1.96532221 0.00052486 0.00000000
0.01969568 1.57582669 0.00381278 0.00000000
0.01911608 1.89614910 -0.00226205 0.00000000
1.27013058 1.55058873 -0.00204116 0.00000000
4.45037330 1.46853257 0.00245326 0.00000000
2.79042912 0.82182277 0.00276483 0.00000000
4.50404394 1.72668641 0.00450138 0.00000000
1.78107365 0.94433659 0.00436374 0.00000000
4.27623423 1.79214199 -0.00046488 0.00000000
1.85042094 1.31374529 -0.00465898 0.00000000
1.92814082 0.22081715 -0.00239742 0.00000000
3.04982428 2.02102084 -0.00138580 0.00000000
4.03409335 1.19183246 0.00134288 0.00000000
2.83714036 1.25646525 -0.00208623 0.00000000
4.50256070 1.63064654 0.00068373 0.00000000
3.03259445 1.19452075 -0.00123815 0.00000000
3.85175655 0.52887297 0.00125201 0.00000000
2.88045240 1.08641364 0.00073481 0.00000000
2.73900525 0.58890711 0.00018035 0.00000000
4.42108624 1.84923347 0.00310254 0.00000000
2.21565413 2.14177966 -0.00283127 0.00000000
4.35984332 1.76680792 0.00545640 0.00000000
3.99216462 2.13645334 0.00007844 0.00000000
2.22270333 1.71585924 0.00091797 0.00000000
1.98638618 0.64521276 0.00184380 0.00000000
2.43382037 0.57341797 0.00031252 0.00000000
2.26868438 1.70644153 0.00243109 0.00000000
1.20860888 0.16767491 -0.00104780 0.00000000
0.23452982 1.83293089 -0.00026065 0.00000000
3.07576246 1.59536049 -0.00303661 0.00000000
0.18625904 1.93556201 0.00569487 0.00000000
2.60484248 1.91492556 -0.00150491 0.00000000
3.46893060 2.15489075 -0.00219308 0.00000000
4.31567451 2.30998587 -0.00372290 0.00000000
4.24713142 1.63305777 -0.00079579 0.00000000
4.10933387 0.06578537 0.00008724 0.00000000
0.80046548 0.49074900 0.00148957 0.00000000
4.28831139 0.25265787 -0.00045286 0.00000000
1.24330073 1.99961286 0.00161605 0.00000000
3.76594471 0.20113354 0.00200519 0.00000000
1.64088286 2.38913867 0.00287100 0.00000000
3.19100004 2.04090926 0.00107246 0.00000000
2.92255068 2.17023820 -0.00349766 0.00000000
2.01094816 0.31973740 -0.00243595 0.00000000
3.62544162 1.79352918 -0.00049509 0.00000000
3.60057339 1.62737556 0.00243543 0.00000000
4.04951881 2.17445047 0.00129824 0.00000000
0.59902346 2.01361487 -0.00053681 0.00000000
4.49311644 1.68271701 0.00129365 0.00000000
4.39197793 0.21456973 -0.00016085 0.00000000
1.84690084 1.06513222 0.00121844 0.00000000
0.86846795 0.29046400 0.00078254 0.00000000
0.11324889 0.03789445 -0.00094995 0.00000000
2.77189021 1.74263313 -0.00609025 0.00000000
3.11516535 0.19048044 0.00129580 0.00000000
4.20313091 2.11226723 -0.00093884 0.00000000
4.17059248 0.58831842 -0.00314805 0.00000000
0.25252597 1.46766264 0.00111168 0.00000000
2.19288038 0.91045011 -0.00129597 0.00000000
4.28386333 1.72727577 0.00506913 0.00000000
3.77019565 2.10235020 -0.00390112 0.00000000
0.01108543 0.49152142 -0.00060479 0.00000000
0.35846024 0.64056734 -0.00160950 0.00000000
3.17533957 2.26634071 -0.00207530 0.00000000
1.35841289 1.79294615 -0.00312502 0.00000000
0.92499239 1.61107655 0.00180521 0.00000000
2.80898433 0.11806894 0.00054180 0.00000000
1.60017206 0.96220499 0.00120076 0.00000000
1.05774952 2.30319262 0.00074516 0.00000000
3.56915017 0.38054833 0.00027130 0.00000000
4.08515606 1.10560197 0.00012146 0.00000000
3.65462625 2.00344700 -0.00148203 0.00000000
1.01453470 2.20681674 -0.00050949 0.00000000
2.95781328 0.46764980 -0.00261852 0.00000000
0.57155281 1.72981871 -0.00168691 0.00000000
0.84699948 0.98384550 -0.00013522 0.00000000
1.19716906 2.36774703 -0.00023271 0.00000000
2.26425305 1.95038580 0.00084404 0.00000000
3.64998036 0.92318678 -0.00200035 0.00000000
1.18888871 1.06195596 0.00049484 0.00000000
2.93024764 0.32326096 0.00118215 0.00000000
2.18122171 1.85681834 0.00045252 0.00000000
2.70995691 0.78683158 -0.00242863 0.00000000
3.31737402 1.60475471 -0.00263750 0.00000000
2.55542912 1.50539760 0.00042926 0.00000000
2.56704548 1.97414907 0.00075459 0.00000000
2.60706519 2.35485992 0.00134344 0.00000000
4.30250460 0.66061095 -0.00183797 0.00000000
0.42533085 0.60837915 -0.00041953 0.00000000
4.14503394 0.30562019 -0.00321091 0.00000000
3.37989449 1.86137851 -0.00440928 0.00000000
4.23698977 0.89714556 -0.00168779 0.00000000
2.72848930 2.03489545 0.00306036 0.00000000
1.59427541 1.42106118 -0.00817000 0.00000000
0.98878705 1.65860667 -0.00190227 0.00000000
1.81031009 1.44946968 -0.00022770 0.00000000
4.26560653 1.21011690 -0.00353313 0.00000000
3.74594642 0.56831894 0.00187763 0.00000000
1.37481038 0.33187356 -0.00132500 0.00000000
3.92003640 0.94010506 -0.00433909 0.00000000
4.16986588 0.25072620 -0.00318240 0.00000000
4.06466108 1.37399729 -0.00014984 0.00000000
0.54104046 0.32702405 -0.00030221 0.00000000
2.17462197 0.87614161 0.00060879 0.00000000
2.03548198 0.44693146 0.00046043 0.00000000
2.71893623 1.51608157 0.00078646 0.00000000
3.91489883 1.07755451 0.00108537 0.00000000
2.99802446 2.02388171 -0.00407642 0.00000000
4.32833766 0.26641689 -0.00149450 0.00000000
0.78802963 1.09012124 0.00139349 0.00000000
3.76983493 1.95915236 -0.00056844 0.00000000
0.79546262 0.52628224 0.00183038 0.00000000
0.67383866 1.64860928 -0.00204853 0.00000000
2.30917065 0.17595066 0.00042611 0.00000000
0.28321084 1.12907720 0.00222385 0.00000000
0.04884098 2.02117508 0.00109553 0.00000000
1.93392137 0.13664515 -0.00071340 0.00000000
2.01804425 0.66767908 0.00078386 0.00000000
3.04569300 0.21830885 0.00333196 0.00000000
1.45058310 2.31460894 0.00155067 0.00000000
1.26749466 2.11390632 0.00324518 0.00000000
2.23024274 0.55644142 0.00218508 0.00000000
2.36565237 2.20685773 0.00094638 0.00000000
2.90919882 0.63550121 0.00064930 0.00000000
1.63672331 1.46241339 0.00064156 0.00000000
3.66528555 2.08633222 -0.00095656 0.00000000
2.17478199 0.88654012 -0.00039761 0.00000000
1.01649809 0.40776447 0.00461699 0.00000000
2.41774159 0.56981229 -0.00096209 0.00000000
3.96969595 0.48751500 0.00078027 0.00000000
2.50867887 0.53628588 -0.00443732 0.00000000
4.36838891 1.25837691 0.00232142 0.00000000
0.06753474 0.59968942 -0.00244873 0.00000000
2.74357156 1.80600892 0.00035545 0.00000000
3.57966121 0.94274219 0.00339403 0.00000000
2.83442500 0.38522569 -0.00308794 0.00000000
1.42056040 1.07094165 0.00009508 0.00000000
1.09141091 2.05772682 -0.00134769 0.00000000
1.40302798 1.71877804 -0.00113051 0.00000000
0.11499705 0.38510160 -0.00138842 0.00000000
1.56904586 0.13393316 0.00117466 0.00000000
1.68762129 0.60714316 -0.00328047 0.00000000
4.21711810 0.48816987 0.00112069 0.00000000
4.30734368 0.46013054 -0.00072921 0.00000000
4.43463652 1.79052172 -0.00307210 0.00000000
1.86712656 0.66048259 0.00046357 0.00000000
0.46912663 0.98405639 0.00042223 0.00000000
0.16972906 1.92877099 0.00022660 0.00000000
3.17512904 1.79605966 0.00124374 0.00000000
3.28995175 1.98719156 0.00034172 0.00000000
3.17756319 0.82999366 -0.00110254 0.00000000
1.90347529 0.62471537 0.00108189 0.00000000
1.44612804 2.36248174 0.00043657 0.00000000
1.55278477 0.54255712 -0.00016793 0.00000000
2.52788186 0.43901162 -0.00001622 0.00000000
0.05978732 1.28413599 0.00268235 0.00000000
2.85286978 2.09930213 -0.00538373 0.00000000
2.64723499 0.99098319 -0.00427992 0.00000000
0.81566838 0.71648070 -0.00017866 0.00000000
0.84668338 0.50382901 -0.00544570 0.00000000
2.18443815 1.09192759 0.00320752 0.00000000
1.06270171 0.78526152 -0.00055695 0.00000000
0.77505885 1.48603482 0.00105981 0.00000000
0.26699687 1.21195755 -0.00174176 0.00000000
3.77031706 1.52734453 0.00074860 0.00000000
4.41758825 1.52050773 0.00170278 0.00000000
0.40347877 2.34697434 0.00076535 0.00000000
2.59726383 2.34108768 0.00388119 0.00000000
1.78978191 2.30754032 -0.00102471 0.00000000
3.48340768 1.00493210 0.00485375 0.00000000
3.15401770 1.99844742 0.00344228 0.00000000
2.39969263 1.91851696 -0.00160631 0.00000000
4.26077292 0.53326153 -0.00150137 0.00000000
2.24589719 0.96703239 -0.00240376 0.00000000
2.62303725 2.03677561 -0.00148505 0.00000000
1.95287297 0.57059785 -0.00317180 0.00000000
0.32214295 0.59744238 -0.00074000 0.00000000
1.24844643 2.24043414 -0.00074186 0.00000000
3.79939428 1.86888645 0.00182457 0.00000000
1.96785439 2.08162025 -0.00007644 0.00000000
3.69014411 0.51878557 -0.00297747 0.00000000
3.50885086 2.25885959 0.00146945 0.00000000
3.75957534 0.25428964 0.00097860 0.00000000
4.49041991 2.17106268 -0.00261613 0.00000000
1.30258652 0.83915142 0.00136781 0.00000000
0.05007475 2.40202897 -0.00148040 0.00000000
2.73432380 0.43558087 -0.00053058 0.00000000
3.30326271 1.34680436 -0.00255641 0.00000000
2.49407727 2.02210345 -0.00181722 0.00000000
1.46811957 0.30073691 -0.00432571 0.00000000
2.77975602 1.75197070 -0.00220647 0.00000000
0.52280576 0.71214243 -0.00100830 0.00000000
0.20823527 1.63395030 0.00125635 0.00000000
3.12628345 0.98807554 -0.00080009 0.00000000
2.25736284 0.83702221 0.00068212 0.00000000
1.12311386 2.24343749 0.00061259 0.00000000
3.61268452 1.08425031 -0.00031757 0.00000000
1.26328089 2.06705949 0.00143182 0.00000000
1.46260807 1.57777464 -0.00284504 0.00000000
0.14235558 0.77906289 0.00128688 0.00000000
1.98655312 0.00667528 0.00213991 0.00000000
2.77805029 1.41857757 -0.00152507 0.00000000
3.55500251 1.73716017 0.00242756 0.00000000
0.22547792 1.98839944 0.00264694 0.00000000
0.77496292 0.31110780 -0.00301551 0.00000000
2.26965498 0.61370932 0.00110015 0.00000000
2.38234845 0.92101521 0.00249510 0.00000000
0.71521783 1.46392746 0.00037687 0.00000000
0.42941448 2.31015621 -0.00065224 0.00000000
0.39175865 0.62658717 -0.00365669 0.00000000
2.36826215 1.14672741 0.00196482 0.00000000
0.88535580 1.50295366 0.00145143 0.00000000
3.92422095 0.94646228 0.00149667 0.00000000
3.24018311 0.30405249 0.00117916 0.00000000
3.33886533 1.42164237 0.00055688 0.00000000
4.14995771 1.78192535 0.00103128 0.00000000
0.84163203 0.58527791 0.00456482 0.00000000
3.22518908 1.58987403 -0.00089009 0.00000000
3.86610709 1.84577102 0.00057827 0.00000000
2.18069727 0.84183465 -0.00414680 0.00000000
2.49379835 0.73574337 0.00092737 0.00000000
4.23020386 0.48911348 0.00430928 0.00000000
4.25376774 1.12332039 -0.00482424 0.00000000
4.35701190 0.96693420 0.00075835 0.00000000
1.85979219 1.25620773 -0.00238099 0.00000000
0.92345783 1.85710173 0.00031520 0.00000000
4.04090735 1.59735207 0.00292001 0.00000000
3.07358493 1.13031375 0.00521057 0.00000000
0.21582727 0.67763562 0.00139862 0.00000000
0.53805863 1.35558451 0.00229111 0.00000000
2.70908859 2.34754329 0.00222030 0.00000000
3.10460983 1.63041306 -0.00306992 0.00000000
1.26291978 0.80013124 -0.00014921 0.00000000
0.73393187 2.28395608 0.00480656 0.00000000
3.46052919 1.44265415 -0.00627407 0.00000000
2.85626092 0.97195934 -0.00040319 0.00000000
2.63859492 0.13197006 -0.00187117 0.00000000
0.07157369 1.24242823 -0.00031119 0.00000000
2.72472398 1.20919043 -0.00374677 0.00000000
2.59233704 0.93338662 0.00238029 0.00000000
2.07092427 1.45567604 -0.00357769 0.00000000
0.04127936 0.08467578 0.00094154 0.00000000
1.26281167 1.12811261 0.00440307 0.00000000
4.44498249 1.08928435 0.00140289 0.00000000
4.00496624 1.07780602 -0.00109548 0.00000000
3.54994837 1.12994839 -0.00260604 0.00000000
2.03747948 0.95880354 -0.00182364 0.00000000
2.94177276 1.09202258 0.00162307 0.00000000
1.21073197 1.99299898 -0.00348426 0.00000000
0.00204423 0.40083234 -0.00562129 0.00000000
2.66916962 1.34824851 -0.00183703 0.00000000
2.74623557 2.32694103 -0.00000981 0.00000000
0.04305590 2.33095654 0.00125885 0.00000000
1.09099029 1.83081231 -0.00528038 0.00000000
4.38153808 2.22662198 0.00253455 0.00000000
2.56180923 2.09553545 0.00225439 0.00000000
3.15927077 1.05464238 -0.00096012 0.00000000
4.47288406 2.12058423 -0.00497129 0.00000000
4.09318625 1.62587814 0.00191867 0.00000000
0.01054472 1.26079758 0.00088780 0.00000000
0.99837579 1.49062238 -0.00249860 0.00000000
3.75202311 1.20888315 0.00386559 0.00000000
2.88343155 0.16736618 -0.00023837 0.00000000
0.91865549 0.49963527 0.00182236 0.00000000
0.67748462 1.89600440 0.00473974 0.00000000
0.81918148 1.90118744 -0.00407151 0.00000000
1.39105319 0.25718275 -0.00118199 0.00000000
2.03611973 1.97619287 0.00131970 0.00000000
0.50350975 1.24762513 -0.00308418 0.00000000
3.55973186 0.83798543 0.00112285 0.00000000
3.31576758 1.57720749 -0.00241469 0.00000000
1.51322116 2.32861974 0.00056209 0.00000000
0.93586401 1.10605307 -0.00421895 0.00000000
1.45437691 1.52761857 0.00530799 0.00000000
1.21968983 0.56154316 0.00381466 0.00000000
0.78545533 0.01590096 -0.00172859 0.00000000
4.39780915 1.90659234 -0.00366295 0.00000000
0.08002833 2.15508687 0.00162733 0.00000000
0.85589707 2.12084292 0.00085281 0.00000000
3.66412073 2.35588309 0.00188578 0.00000000
3.51015849 1.80899568 0.00039383 0.00000000
1.02840205 1.41149746 -0.00186817 0.00000000
2.41902946 1.57967313 0.00178922 0.00000000
3.27274902 0.33379304 0.00105822 0.00000000
0.23991501 2.17037638 0.00200744 0.00000000
3.71958530 1.34884830 -0.00146570 0.00000000
0.06113661 0.64813310 0.00106954 0.00000000
2.76622306 1.83774698 -0.00128334 0.00000000
1.23063253 1.17130973 0.00010218 0.00000000
4.23596459 2.06541868 -0.00026650 0.00000000
3.70128895 0.57276879 0.00324429 0.00000000
4.14657241 0.47046001 -0.00672712 0.00000000
2.45485596 0.45069154 -0.00042444 0.00000000
1.03841343 1.61033368 -0.00187878 0.00000000
3.71718235 2.10760154 -0.00187113 0.00000000
3.62163467 0.30143400 -0.00037479 0.00000000
0.80044001 2.18427712 0.00042296 0.00000000
0.67394462 1.60849448 0.00057035 0.00000000
3.37919756 2.02472448 -0.00123224 0.00000000
2.32770708 0.83193170 0.00208118 0.00000000
2.06560702 2.37367713 -0.00133673 0.00000000
0.57400237 1.61979854 0.00197969 0.00000000
3.40651249 0.93475439 -0.00075449 0.00000000
4.21811449 2.07853744 -0.00451169 0.00000000
0.51651331 0.79819616 -0.00115511 0.00000000
2.89369986 0.18116405 -0.00100773 0.00000000
1.41670875 1.12847676 0.00125036 0.00000000
0.76285433 0.25266778 0.00465574 0.00000000
1.37209203 1.48538302 0.00405148 0.00000000
2.33377339 0.69174702 0.00175129 0.00000000
0.50049749 2.12679220 -0.00298413 0.00000000
3.06097286 1.79323969 0.00214106 0.00000000
2.97025093 1.68236635 0.00218003 0.00000000
0.10218376 2.13549773 0.00360411 0.00000000
1.24873148 2.29931931 -0.00068088 0.00000000
1.24174971 1.02113093 0.00138894 0.00000000
0.50523428 0.17334501 -0.00036859 0.00000000
1.34816883 2.15904395 -0.00060010 0.00000000
0.54145969 0.26075927 0.00068786 0.00000000
3.54469998 0.05067838 0.00056966 0.00000000
2.79476606 0.06118126 0.00017615 0.00000000
4.36033320 1.95626720 -0.00421090 0.00000000
4.41526809 0.89260980 -0.00072704 0.00000000
3.83601508 0.16159950 -0.00024852 0.00000000
1.22753847 0.74227970 -0.00312562 0.00000000
3.16265896 0.79086225 -0.00227488 0.00000000
1.42982574 0.79311071 -0.00030909 0.00000000
0.82216037 2.12651238 -0.00042222 0.00000000
1.51294371 0.79652388 -0.00267318 0.00000000
1.37201589 0.30825395 -0.00411933 0.00000000
3.13412236 1.73903330 -0.00213540 0.00000000
3.68737141 1.85719104 0.00152022 0.00000000
0.12485681 0.77492263 0.00283931 0.00000000
0.20381178 0.83954011 0.00092320 0.00000000
0.20349077 0.51183727 -0.00274208 0.00000000
0.67470751 2.31700403 -0.00148159 0.00000000
3.35595692 1.64463709 -0.00018914 0.00000000
3.79870061 2.28690957 -0.00475617 0.00000000
3.97895051 2.34115755 0.00355420 0.00000000
1.80692550 0.81030062 -0.00139828 0.00000000
1.93976428 0.08471075 -0.00271830 0.00000000
1.24430609 1.16261219 0.00095634 0.00000000
1.18216755 0.26379822 -0.00152478 0.00000000
1.60531297 1.81293715 -0.00004990 0.00000000
1.21104964 0.76429533 0.00052114 0.00000000
3.07405142 1.52683326 0.00153378 0.00000000
0.98569666 0.79812005 0.00372150 0.00000000
4.17004268 0.41565787 -0.00340445 0.00000000
3.56131671 0.69293336 -0.00024761 0.00000000
0.42526301 0.33853262 0.00057487 0.00000000
0.66447695 1.46649535 -0.00109399 0.00000000
2.60483755 1.47064476 -0.00441141 0.00000000
0.51146501 1.08992150 -0.00496283 0.00000000
3.84572840 0.19867422 0.00412002 0.00000000
2.38306147 1.25688369 0.00027847 0.00000000
3.22940834 1.56425223 0.00271560 0.00000000
3.66560490 0.00809853 -0.00102328 0.00000000
1.97448897 0.08089828 -0.00173352 0.00000000
2.36265452 2.05614084 0.00255081 0.00000000
1.41807436 1.33560853 -0.00386349 0.00000000
3.04083028 1.89784023 -0.00077047 0.00000000
4.01832044 2.09535462 -0.00733996 0.00000000
1.21498494 2.11342386 -0.00098056 0.00000000
4.40246957 0.24355375 0.00163060 0.00000000
0.44676298 0.06414335 -0.00119920 0.00000000
1.17467207 0.24624493 0.00431409 0.00000000
4.36873482 1.63178762 0.00298773 0.00000000
1.08463494 0.93018410 -0.00306642 0.00000000
4.01198447 1.48880636 0.00124948 0.00000000
1.50735937 1.08641652 0.00158420 0.00000000
1.47389941 0.23472875 -0.00103396 0.00000000
1.07219443 0.02472066 -0.00106456 0.00000000
2.20151873 0.56670234 0.00196217 0.00000000
1.51652602 0.76457572 0.00088744 0.00000000
3.89959229 2.24719480 0.00266730 0.00000000
1.22210897 0.07368909 -0.00156100 0.00000000
2.83027118 0.19122944 0.00340669 0.00000000
3.52609972 1.11600982 0.00011443 0.00000000
1.34963306 1.29108609 -0.00295020 0.00000000
0.40288691 0.85940430 0.00488973 0.00000000
1.23301444 0.70307440 0.00078827 0.00000000
3.61694024 0.74718702 -0.00019103 0.00000000
4.44498396 1.14488024 -0.00343117 0.00000000
0.74041358 0.09695433 0.00433584 0.00000000
1.87312131 2.29229966 0.00216770 0.00000000
0.40239102 1.43103275 0.00109292 0.00000000
0.11012091 1.43389495 0.00011610 0.00000000
0.23731539 2.18252442 -0.00197938 0.00000000
3.39727229 0.77837881 0.00060918 0.00000000
1.82374414 0.83394327 0.00164659 0.00000000
1.21445329 0.71206245 0.00141572 0.00000000
3.44010997 1.64031483 0.00111641 0.00000000
2.88203634 1.07581729 0.00014899 0.00000000
0.24183274 2.06834384 -0.00090289 0.00000000
2.69241485 0.02782704 0.00431458 0.00000000
0.08754351 0.03006176 -0.00071084 0.00000000
2.61944176 1.66770142 0.00096542 0.00000000
3.24063657 1.46286750 0.00223680 0.00000000
2.13767717 0.99693462 0.00138349 0.00000000
3.80991846 1.46552310 0.00037009 0.00000000
2.13027727 1.32989814 0.00263021 0.00000000
1.84242147 2.18237793 -0.00401734 0.00000000
3.68200373 2.16660315 -0.00266149 0.00000000
1.25370382 1.92668176 0.00216224 0.00000000
4.13756060 1.16690345 -0.00078085 0.00000000
3.61005963 1.70252422 -0.00136731 0.00000000
3.18700827 1.86807776 0.00217199 0.00000000
1.98165359 2.25764697 0.00528343 0.00000000
1.22778211 0.79548456 -0.00243358 0.00000000
4.08684544 1.73503100 0.00099154 0.00000000
2.43011716 2.18052369 0.00243391 0.00000000
1.64192978 0.51204190 -0.00354835 0.00000000
3.60441066 2.26567003 0.00005614 0.00000000
4.42418327 0.85753096 -0.00025130 0.00000000
2.88595462 0.42375104 -0.00075314 0.00000000
1.16859537 2.36795385 -0.00215069 0.00000000
4.46856267 0.94976337 -0.00124874 0.00000000
4.09065330 1.96890814 0.00515789 0.00000000
3.41450364 0.88604658 -0.00085127 0.00000000
4.10786586 1.94280913 0.00376269 0.00000000
4.35904033 1.35585712 -0.00144062 0.00000000
0.73036876 0.69563435 -0.00221826 0.00000000
1.73823428 1.46646767 -0.00181694 0.00000000
2.55587422 0.68809134 -0.00253945 0.00000000
1.58601709 0.48571736 -0.00338170 0.00000000
4.18604959 1.20938933 0.00359973 0.00000000
2.40313684 2.07157307 -0.00225094 0.00000000
0.45599101 0.41818162 -0.00028687 0.00000000
1.95430754 2.01230700 -0.00132472 0.00000000
0.28083324 1.32332310 -0.00018852 0.00000000
0.94239039 1.71224263 0.00210106 0.00000000
3.27943075 1.71492872 0.00302292 0.00000000
0.03360058 0.93832981 -0.00133934 0.00000000
0.07760028 1.00494841 -0.00089795 0.00000000
4.11269636 0.12447806 -0.00248476 0.00000000
4.19959540 1.25635963 0.00027342 0.00000000
1.50660809 1.61495219 0.00226306 0.00000000
1.41561159 1.47694574 0.00020304 0.00000000
2.09963234 0.86016965 -0.00149737 0.00000000
1.92097289 1.05618341 0.00300948 0.00000000
4.20915055 1.27413270 0.00160458 0.00000000
2.30201528 2.37135448 -0.00222393 0.00000000
4.50230615 0.81972889 -0.00353224 0.00000000
0.66816097 1.14088535 0.00217979 0.00000000
1.30022606 0.64798725 -0.00073138 0.00000000
1.83117428 1.15453192 -0.00061755 0.00000000
4.05961849 1.35914845 0.00051032 0.00000000
1.73907013 0.10312057 -0.00091042 0.00000000
0.49357558 2.35505746 -0.00116294 0.00000000
0.74255077 1.29425507 -0.00070954 0.00000000
2.40514013 2.37217892 0.00252465 0.00000000
3.05123020 1.29031680 -0.00053605 0.00000000
3.17098421 1.18895997 0.00166291 0.00000000
0.22463210 0.55901066 0.00104515 0.00000000
4.26375353 1.82222141 0.00091247 0.00000000
3.73957704 1.88297089 0.00313893 0.00000000
0.51223773 1.79888331 0.00115710 0.00000000
1.47284897 1.09075626 -0.00051182 0.00000000
0.60716722 1.33620143 -0.00190381 0.00000000
3.00885212 0.77426756 -0.00058690 0.00000000
4.20412450 1.61755123 -0.00176611 0.00000000
2.88791825 0.09305194 0.00205827 0.00000000
4.35975158 1.74839081 -0.00225745 0.00000000
4.38916138 2.18426945 0.00256356 0.00000000
1.91160019 0.50745504 -0.00124881 0.00000000
4.47713816 1.80092429 -0.00098438 0.00000000
1.04626553 2.21247447 0.00153941 0.00000000
3.04614434 1.78663414 -0.00218114 0.00000000
4.13769128 0.40961152 -0.00096398 0.00000000
3.96643885 1.78201083 0.00273447 0.00000000
3.54338964 0.62158810 -0.00278370 0.00000000
2.71946532 1.67838202 0.00151470 0.00000000
2.13843221 0.97013878 -0.00403268 0.00000000
3.86160985 0.51977522 -0.00136564 0.00000000
0.13548005 1.96379051 0.00183865 0.00000000
2.95330926 1.63185099 0.00041606 0.00000000
3.83602710 2.10059026 -0.00100125 0.00000000
2.15710494 0.70011844 0.00196132 0.00000000
0.12348528 0.13283227 0.00033308 0.00000000
4.46276558 0.66114278 0.00428920 0.00000000
1.70756813 1.80576055 0.00017172 0.00000000
1.68407030 0.88293315 -0.00157248 0.00000000
1.67518775 2.06596517 0.00328929 0.00000000
2.66862771 1.92921368 -0.00302836 0.00000000
1.55864793 0.19382825 0.00087439 0.00000000
0.99667714 0.60528717 -0.00012811 0.00000000
0.56697369 2.16521066 0.00139648 0.00000000
3.33639620 1.42448394 0.00039658 0.00000000
1.27126875 1.13979398 0.00503919 0.00000000
0.54262572 0.16990032 0.00140069 0.00000000
3.49191423 1.53394325 -0.00018791 0.00000000
4.08338640 0.57918162 -0.00288254 0.00000000
4.49041062 0.67171812 0.00116169 0.00000000
3.62797226 2.36306132 -0.00251905 0.00000000
3.52612968 0.63665835 -0.00145925 0.00000000
2.10130791 2.37484636 0.00040067 0.00000000
3.25695741 0.54898649 -0.00384119 0.00000000
1.37061878 1.55699288 0.00003939 0.00000000
2.82487446 0.77273130 -0.00195536 0.00000000
3.37244774 0.87363216 0.00293294 0.00000000
2.07310720 0.78221573 -0.00058829 0.00000000
1.49174118 0.30341329 0.00024866 0.00000000
1.56364686 1.81991864 -0.00076735 0.00000000
2.26708060 0.88388618 -0.00033744 0.00000000
2.97436463 2.02000986 -0.00419053 0.00000000
3.57029392 1.97338455 -0.00178398 0.00000000
0.82992189 0.12053496 0.00244716 0.00000000
3.09801075 1.05234957 0.00280074 0.00000000
1.20151472 0.82894983 -0.00172196 0.00000000
0.53961447 2.00189438 -0.00269488 0.00000000
3.69097104 1.07125562 -0.00337206 0.00000000
3.07784427 1.38962838 0.00186021 0.00000000
3.36141635 0.44341334 0.00208289 0.00000000
4.20227576 2.41915138 -0.00301614 0.00000000
3.92813792 2.40950044 0.00044617 0.00000000
3.34733727 0.45470092 -0.00211904 0.00000000
0.36638027 2.01355117 -0.00035870 0.00000000
4.35933752 0.35711982 -0.00186316 0.00000000
4.23123730 1.10986763 -0.00356302 0.00000000
2.62170114 0.58999009 0.00417061 0.00000000
1.84115422 2.23040949 -0.00533087 0.00000000
3.25801400 0.99295966 -0.00185608 0.00000000
0.53086695 1.89763243 0.00531439 0.00000000
1.52283586 2.33349463 -0.00234316 0.00000000
0.99676888 0.61435732 0.00028626 0.00000000
3.81721238 0.10295266 0.00376665 0.00000000
4.25948461 0.45508241 -0.00179602 0.00000000
0.12474335 0.76541664 -0.00195190 0.00000000
1.96073054 2.27217353 -0.00242438 0.00000000
0.91829532 0.48017543 -0.00147215 0.00000000
4.08242904 0.61293584 0.00092615 0.00000000
0.31630189 0.90480280 0.00222293 0.00000000
3.60773929 1.88095315 0.00220521 0.00000000
1.22625820 2.42203852 -0.00074615 0.00000000
4.35503821 1.68842064 -0.00388696 0.00000000
2.32088806 1.03499596 -0.00217026 0.00000000
0.92431391 1.64204174 -0.00130367 0.00000000
2.08235445 2.03944085 -0.00138925 0.00000000
4.14540687 1.78987762 0.00110162 0.00000000
3.57080659 1.24236656 -0.00011374 0.00000000
3.03208925 1.26169514 0.00475966 0.00000000
2.79312587 2.16804191 0.00129405 0.00000000
4.00574810 0.32782292 0.00056393 0.00000000
0.39411366 0.28714933 -0.00026956 0.00000000
4.09599180 1.99500254 -0.00384585 0.00000000
2.96399395 0.21307840 -0.00210752 0.00000000
4.10364001 0.13145695 -0.00063682 0.00000000
0.01448534 1.94999520 -0.00623666 0.00000000
1.93924795 0.96092133 0.00086809 0.00000000
4.19778869 2.14209304 -0.00219343 0.00000000
2.14041109 1.76117192 -0.00118728 0.00000000
1.35468940 2.03454480 -0.00361846 0.00000000
0.59169739 0.42550324 0.00441032 0.00000000
0.26280701 1.12848318 -0.00348692 0.00000000
1.00217124 1.77041561 -0.00143784 0.00000000
4.14296355 0.45885569 -0.00105626 0.00000000
3.82174641 0.70374169 -0.00346302 0.00000000
3.62357284 1.65222202 0.00385234 0.00000000
3.31572952 0.16695950 0.00018664 0.00000000
4.13800699 1.35396415 0.00084317 0.00000000
3.69500685 0.03822146 -0.00084436 0.00000000
4.51130415 1.07034580 0.00165827 0.00000000
2.29428871 2.07774130 0.00058614 0.00000000
1.43209295 1.09775554 -0.00193483 0.00000000
2.36684154 1.75063941 0.00131963 0.00000000
0.37050997 2.31557065 -0.00347911 0.00000000
0.79029148 1.76171693 0.00016623 0.00000000
1.14388196 1.74150316 -0.00210838 0.00000000
1.94405755 0.75808427 0.00261768 0.00000000
2.36485140 2.29907951 -0.00273641 0.00000000
2.16667842 1.62422148 0.00017519 0.00000000
2.49049839 0.53774993 0.00058331 0.00000000
4.39508477 1.64547459 0.00442064 0.00000000
3.33461217 1.13959531 0.00259268 0.00000000
4.10781005 1.47109471 -0.00184513 0.00000000
3.93741902 1.43639282 0.00303628 0.00000000
2.12724268 0.34821196 0.00053530 0.00000000
0.11080359 0.97220427 0.00335537 0.00000000
3.12519725 1.91495932 0.00286825 0.00000000
2.41777549 1.25568456 -0.00256831 0.00000000
2.57497587 1.78234130 -0.00520383 0.00000000
4.16859759 0.07285690 -0.00154699 0.00000000
1.86778315 0.97033252 0.00163085 0.00000000
3.71031898 2.23139431 0.00329777 0.00000000
1.40812541 1.83081989 0.00401375 0.00000000
2.51956256 1.61808449 0.00368810 0.00000000
3.19115063 1.19627584 -0.00184938 0.00000000
2.73980943 1.92283688 0.00453343 0.00000000
1.83845048 1.31192014 -0.00418158 0.00000000
4.51368002 1.64301828 0.00154188 0.00000000
1.04172397 1.97706996 0.00175261 0.00000000
2.03991648 0.13174844 -0.00490453 0.00000000
4.19621604 2.11859453 0.00108287 0.00000000
1.42784950 0.30878077 0.00246163 0.00000000
0.51404064 2.21423383 -0.00247518 0.00000000
1.43460370 2.35389570 0.00378148 0.00000000
1.23174435 0.58158298 -0.00130081 0.00000000
0.96956635 2.34876153 -0.00182416 0.00000000
3.20083948 1.42784845 0.00017542 0.00000000
3.92297949 0.91591914 0.00878818 0.00000000
0.62981156 1.91379031 -0.00118538 0.00000000
0.56986271 0.05258175 -0.00154794 0.00000000
2.40689891 0.65135070 0.00071288 0.00000000
2.94583840 1.15988871 0.00023082 0.00000000
3.01894158 2.19612106 -0.00175918 0.00000000
1.57440136 1.44212764 0.00204820 0.00000000
0.93661816 0.86908038 0.00151279 0.00000000
1.92352615 0.07836001 0.00002306 0.00000000
2.58709347 1.97991225 0.00114785 0.00000000
3.59707233 0.22716189 0.00248811 0.00000000
3.66839583 1.24579244 -0.00408871 0.00000000
2.77131763 1.89582043 0.00309527 0.00000000
3.93268913 2.19268349 0.00252522 0.00000000
3.46383380 0.46896492 0.00399512 0.00000000
