3.07492847 0.39833585 -0.00562309 0.00000000
3.42098185 0.99519074 -0.00141915 0.00000000
2.61006163 1.01360709 0.00244611 0.00000000
3.56430940 0.48420564 0.00216694 0.00000000
0.18324867 1.43224670 0.00190943 0.00000000
2.98353437 0.62123365 -0.00297107 0.00000000
3.05841184 1.70154619 -0.00020924 0.00000000
1.93517122 2.08384510 -0.00149841 0.00000000
2.00885028 1.96177095 0.00295656 0.00000000
1.41492954 0.14242018 -0.00128122 0.00000000
3.32349413 1.60591409 0.00058036 0.00000000
1.32347820 1.92824653 -0.00145896 0.00000000
0.21761871 0.91008430 0.00028781 0.00000000
3.86778352 0.53654092 -0.00204894 0.00000000
3.94473947 1.19577164 0.00091467 0.00000000
3.61807780 0.23673328 0.00154864 0.00000000
3.61946293 0.86587791 0.00070588 0.00000000
2.46221532 1.47196097 0.00098491 0.00000000
1.20793003 0.39326730 -0.00684337 0.00000000
3.99872624 2.06761395 -0.00275432 0.00000000
3.38475368 1.89778853 -0.00169747 0.00000000
3.77733935 0.83184205 -0.00014968 0.00000000
2.50838752 1.87652188 -0.00166093 0.00000000
3.84870001 1.35120822 0.00051454 0.00000000
3.93008498 0.75323244 0.00161019 0.00000000
3.05254760 1.56182760 -0.00107836 0.00000000
0.03025172 0.35094173 0.00012663 0.00000000
0.49809595 1.08157674 0.00288091 0.00000000
0.27118180 0.00950923 0.00308983 0.00000000
3.45160188 1.20670896 0.00205771 0.00000000
1.63826284 0.81335589 -0.00339444 0.00000000
1.97530306 2.03529108 -0.00073358 0.00000000
0.91544273 1.77850462 0.00232594 0.00000000
3.96488502 0.77702979 -0.00269431 0.00000000
3.01360425 0.83790062 0.00015135 0.00000000
0.21571066 1.90866276 0.00162520 0.00000000
2.39551885 0.19313252 0.00337202 0.00000000
0.65243330 1.84936293 -0.00104560 0.00000000
0.62701505 0.27759667 0.00073646 0.00000000
0.12557641 1.92125693 0.00022240 0.00000000
3.88122036 0.76295662 -0.00308612 0.00000000
0.47737560 0.52978155 -0.00475494 0.00000000
2.60980748 0.64069412 -0.00127016 0.00000000
1.02913816 1.07497466 0.00118460 0.00000000
0.93797113 1.85506723 0.00056727 0.00000000
2.38410764 0.74633680 0.00395593 0.00000000
0.20729428 2.05440728 -0.00007516 0.00000000
1.65153073 0.38946741 0.00309673 0.00000000
3.98489056 0.61340935 -0.00236135 0.00000000
1.84199382 0.98775717 0.00122516 0.00000000
4.05081355 0.57329906 -0.00288561 0.00000000
4.03557630 1.31545393 -0.00575308 0.00000000
1.28823728 1.89776196 0.00056114 0.00000000
1.80596794 1.62389140 0.00014363 0.00000000
0.10951107 1.53893114 -0.00380005 0.00000000
0.59309826 0.55982539 -0.00091218 0.00000000
0.01589471 0.86496473 -0.00015876 0.00000000
1.77053577 0.76802873 0.00114740 0.00000000
1.12518460 1.42852066 0.00128516 0.00000000
2.72539874 1.80829035 -0.00309180 0.00000000
1.29687339 0.02108759 -0.00003522 0.00000000
0.07483058 1.01445727 -0.00410771 0.00000000
0.53163832 1.14152655 0.00129353 0.00000000
3.38958386 1.09066505 0.00086134 0.00000000
2.31826694 0.18790257 -0.00074656 0.00000000
3.19359014 0.76275482 0.00431811 0.00000000
2.18054427 1.63391226 0.00293034 0.00000000
1.40224598 1.04112326 0.00182920 0.00000000
1.55442406 0.93153930 -0.00172050 0.00000000
2.11860741 1.75103910 -0.00204167 0.00000000
0.76400929 1.51863581 -0.00069031 0.00000000
4.02099522 1.50500713 0.00035086 0.00000000
2.79070472 0.00362622 -0.00041123 0.00000000
3.90746903 1.99223208 -0.00024327 0.00000000
1.34809807 0.53684681 0.00036861 0.00000000
3.81523024 0.79079635 0.00133434 0.00000000
1.31758421 0.04971555 -0.00082430 0.00000000
0.65015815 0.86521438 -0.00587184 0.00000000
0.74380266 0.99751517 0.00389595 0.00000000
2.63052740 1.55919097 -0.00033783 0.00000000
1.28603907 0.82078204 -0.00185917 0.00000000
4.04454891 1.93212639 0.00279173 0.00000000
0.88370156 0.88594342 -0.00206176 0.00000000
0.41240614 1.99536810 -0.00065642 0.00000000
3.33519125 1.34691778 -0.00340475 0.00000000
2.43965826 1.97587491 -0.00056141 0.00000000
1.07492829 1.81485314 -0.00079406 0.00000000
3.44919164 1.12513257 0.00019800 0.00000000
0.29648965 0.56109593 -0.00225036 0.00000000
0.05413358 1.61336370 0.00074002 0.00000000
2.13464551 0.16236429 0.00105512 0.00000000
1.54166497 1.63970227 -0.00049368 0.00000000
2.54019970 0.76875358 0.00395266 0.00000000
1.20074129 1.13129143 -0.00014678 0.00000000
0.37443981 0.56989394 -0.00120085 0.00000000
1.30433905 0.52401878 -0.00049923 0.00000000
2.73676209 0.15715375 -0.00002092 0.00000000
3.90132676 1.55053284 0.00294053 0.00000000
3.88288134 0.64470763 0.00008973 0.00000000
3.27155066 0.74590786 0.00054521 0.00000000
3.90799154 1.51576721 0.00088492 0.00000000
1.67842288 0.75647203 -0.00193924 0.00000000
3.48333595 1.17939209 0.00321934 0.00000000
2.00387929 0.11353343 -0.00079731 0.00000000
1.44280083 0.41715311 0.00081150 0.00000000
1.71718895 0.36003452 0.00041439 0.00000000
2.90515180 0.12989050 0.00222889 0.00000000
0.02641170 0.05221355 0.00136796 0.00000000
2.73630644 0.09293875 -0.00194212 0.00000000
1.83081213 0.70374466 -0.00420850 0.00000000
1.27146376 0.78147164 -0.00151621 0.00000000
2.30565494 0.91069183 0.00124144 0.00000000
3.96817675 1.67687715 -0.00212737 0.00000000
1.51632649 1.47811353 -0.00143196 0.00000000
1.54455252 2.08210495 0.00184222 0.00000000
3.01844767 1.18739567 0.00113582 0.00000000
3.84160885 1.31658488 0.00137719 0.00000000
0.40526267 0.51084503 0.00047010 0.00000000
3.25292885 0.94144286 0.00024659 0.00000000
0.70297024 1.36081508 0.00264200 0.00000000
3.45619256 1.50207894 0.00038965 0.00000000
1.40070378 0.43489251 -0.00156185 0.00000000
1.30473192 1.02520430 -0.00043644 0.00000000
3.39795611 2.06835331 0.00251579 0.00000000
3.33799449 1.85369148 0.00330600 0.00000000
3.67868896 1.36084119 0.00011253 0.00000000
2.72415219 0.25141091 -0.00232110 0.00000000
2.69416241 1.33610132 -0.00274886 0.00000000
1.98546558 1.66600003 -0.00355973 0.00000000
0.20876261 1.09483434 0.00282699 0.00000000
1.74616446 0.21537079 0.00553648 0.00000000
2.50441248 1.68831315 -0.00015411 0.00000000
2.38525381 1.84544357 0.00184400 0.00000000
1.80071979 1.15115065 0.00007532 0.00000000
3.06035824 1.24352635 0.00122997 0.00000000
1.62166531 0.39355743 -0.00291104 0.00000000
2.37131865 0.33054564 -0.00068613 0.00000000
2.01136665 2.05248708 -0.00028536 0.00000000
2.57761547 0.40535216 -0.00019122 0.00000000
3.08806469 0.67899552 -0.00091998 0.00000000
2.28581498 0.21575308 0.00263625 0.00000000
2.19047727 1.88128309 0.00407462 0.00000000
1.12994835 1.77908289 -0.00100423 0.00000000
1.06879538 1.82424041 -0.00076451 0.00000000
4.06496333 0.02841781 -0.00138784 0.00000000
2.06762959 0.89722793 0.00400601 0.00000000
0.88471423 0.34650640 0.00110199 0.00000000
3.59141615 1.48978248 0.00267726 0.00000000
0.39866975 0.32669299 0.00254174 0.00000000
1.47268018 1.37954585 0.00124428 0.00000000
1.14967599 0.30813174 -0.00086605 0.00000000
0.02320813 0.38604382 -0.00204214 0.00000000
3.04388500 1.73776110 0.00266121 0.00000000
1.13075969 0.71200658 -0.00079104 0.00000000
1.93632734 0.96830440 0.00172562 0.00000000
3.05856305 0.41993825 0.00261120 0.00000000
1.47034450 1.89810521 0.00287794 0.00000000
0.64398053 0.06924009 0.00443343 0.00000000
2.22306542 1.06117675 0.00139852 0.00000000
3.10004797 0.98174424 -0.00326609 0.00000000
0.30356406 1.33189230 0.00210843 0.00000000
2.22309279 1.34017676 0.00209133 0.00000000
3.53377848 0.79357672 0.00032621 0.00000000
1.77140524 1.97105875 0.00444922 0.00000000
1.45761227 0.89597655 -0.00019507 0.00000000
2.83728236 1.84928293 -0.00229080 0.00000000
0.41593277 1.71282183 -0.00017256 0.00000000
3.60191972 1.90324571 -0.00271126 0.00000000
1.34775030 0.86824725 0.00387131 0.00000000
3.23986772 0.32349753 -0.00054738 0.00000000
0.76936746 0.01305765 0.00003462 0.00000000
0.67262159 1.08263367 -0.00060346 0.00000000
3.06995400 1.29839408 -0.00294310 0.00000000
3.05466007 1.37234467 0.00003430 0.00000000
0.09409231 0.24883235 0.00186457 0.00000000
2.68125201 0.16181491 -0.00116394 0.00000000
1.00471078 0.95028181 0.00239358 0.00000000
2.83208985 1.11017648 0.00209322 0.00000000
1.64551935 0.51290072 0.00245170 0.00000000
3.86341330 0.58557190 -0.00630353 0.00000000
1.19737134 1.19064786 0.00024063 0.00000000
0.73014703 1.62882983 0.00006660 0.00000000
2.30603556 1.34513800 0.00066610 0.00000000
2.66601759 0.64281632 0.00125905 0.00000000
3.33379476 0.58889937 -0.00061303 0.00000000
0.31284019 1.36899860 0.00071405 0.00000000
1.29527123 1.14230294 0.00230301 0.00000000
1.54584379 1.34908000 -0.00245292 0.00000000
1.58490135 0.65520635 -0.00274832 0.00000000
4.01850794 0.33841045 0.00353207 0.00000000
3.32819794 2.07965184 0.00022544 0.00000000
3.35016749 1.87201949 0.00018546 0.00000000
2.33001253 0.96618634 -0.00159312 0.00000000
2.29692460 0.73224308 0.00011548 0.00000000
3.85366306 0.95931444 0.00198969 0.00000000
3.66699461 0.42290161 0.00024228 0.00000000
1.35626330 0.47928804 -0.00062672 0.00000000
0.76344307 0.05127335 -0.00032153 0.00000000
1.15714993 1.19525962 0.00035787 0.00000000
1.74876314 0.71663820 0.00311240 0.00000000
0.83720626 1.71782390 0.00124346 0.00000000
0.58835140 0.64350484 0.00189655 0.00000000
1.46013100 0.35307589 -0.00054207 0.00000000
3.38155818 1.00381284 -0.00119208 0.00000000
0.52565015 0.91546973 -0.00173993 0.00000000
1.56959846 1.40981005 0.00420290 0.00000000
1.72679830 0.47576352 -0.00070723 0.00000000
1.04849920 1.37492385 -0.00342578 0.00000000
2.16120246 0.33479033 -0.00450019 0.00000000
3.92558147 1.91677889 0.00091799 0.00000000
1.20532715 1.68524128 -0.00252519 0.00000000
3.14686730 1.59131090 0.00117330 0.00000000
2.76554560 0.78293428 0.00055595 0.00000000
0.08408805 1.24640606 0.00048308 0.00000000
2.50628109 1.21483742 -0.00156844 0.00000000
1.52004941 0.86944100 0.00012735 0.00000000
2.23136903 0.83900266 -0.00125093 0.00000000
0.97479691 1.54600212 0.00458728 0.00000000
1.01659136 2.06014765 0.00084941 0.00000000
0.36461264 0.33296767 0.00417655 0.00000000
3.40016035 0.57548939 -0.00326287 0.00000000
2.93876546 2.06355544 -0.00019936 0.00000000
1.15942657 0.79909849 0.00284869 0.00000000
1.16455637 1.97526615 -0.00066960 0.00000000
1.27005200 0.14917447 -0.00131857 0.00000000
3.63784985 0.74490904 -0.00195455 0.00000000
0.66704031 1.94936395 -0.00375896 0.00000000
3.39948761 1.06677694 -0.00008745 0.00000000
4.06278002 2.00301018 0.00034936 0.00000000
2.82887541 0.32705270 0.00431799 0.00000000
3.33757279 0.18878478 -0.00122196 0.00000000
2.44766752 0.24111883 0.00213425 0.00000000
1.29527874 1.85976035 0.00039016 0.00000000
2.77354471 1.77958926 0.00572484 0.00000000
1.56847059 1.54691165 -0.00400262 0.00000000
1.87370633 0.25005522 -0.00025639 0.00000000
0.87317719 1.97887242 -0.00052269 0.00000000
2.83338956 0.10457592 -0.00429219 0.00000000
2.97148635 1.02605467 0.00190747 0.00000000
2.29594921 1.59158893 0.00432471 0.00000000
3.35305671 2.01473493 -0.00167130 0.00000000
1.46738847 1.83181968 0.00154754 0.00000000
0.54715733 0.27518904 -0.00008193 0.00000000
0.52365303 1.83641225 0.00059502 0.00000000
1.99081363 1.14646905 0.00033166 0.00000000
1.35548951 1.19379812 0.00095681 0.00000000
2.47116811 0.67870058 0.00057532 0.00000000
1.64697890 1.40350416 -0.00097432 0.00000000
1.88377596 0.56746384 -0.00190664 0.00000000
1.29807718 0.31108394 -0.00007119 0.00000000
0.12421227 0.36040621 -0.00150846 0.00000000
3.02797764 1.80422583 0.00417685 0.00000000
2.96070284 1.77378815 0.00148757 0.00000000
1.63085533 1.48963177 0.00004929 0.00000000
0.04704271 1.52056135 0.00056170 0.00000000
3.30179298 0.67373263 0.00211702 0.00000000
2.64345298 0.83419057 -0.00289854 0.00000000
0.93461323 0.95114917 0.00137104 0.00000000
0.36317646 0.28579232 -0.00020594 0.00000000
0.43189449 0.93118008 -0.00318736 0.00000000
0.71230468 0.89400020 0.00326685 0.00000000
1.39838676 0.98053667 -0.00193595 0.00000000
3.57705906 0.86404655 -0.00046306 0.00000000
0.76207304 0.46008251 -0.00159350 0.00000000
0.86733080 1.89147425 -0.00056521 0.00000000
1.97002913 1.69606884 -0.00185840 0.00000000
2.81414449 1.04604843 0.00328564 0.00000000
2.29555582 0.79585346 0.00322406 0.00000000
3.50984875 1.08357011 0.00058258 0.00000000
2.38838525 1.92341993 0.00387063 0.00000000
3.19878804 1.56954005 -0.00286326 0.00000000
1.03913589 0.10992531 0.00099592 0.00000000
1.95821758 0.22453703 -0.00269151 0.00000000
1.08943258 0.85570825 -0.00271232 0.00000000
2.16601185 1.98285235 0.00151403 0.00000000
1.60253982 1.08626367 0.00188392 0.00000000
2.25243505 0.32885232 0.00472811 0.00000000
1.88997565 0.95901607 -0.00314464 0.00000000
3.47205308 0.96741354 0.00381986 0.00000000
0.71080284 0.46428594 0.00015928 0.00000000
0.85768895 0.66504014 0.00571474 0.00000000
0.37086318 1.25359974 -0.00296609 0.00000000
1.39821056 0.70276687 -0.00179928 0.00000000
3.92601990 0.60845451 0.00228441 0.00000000
2.29453124 1.62594354 -0.00146345 0.00000000
1.83990237 0.20420498 -0.00203528 0.00000000
3.45585916 2.05680366 0.00264789 0.00000000
0.51508104 0.03420987 -0.00172695 0.00000000
1.68422476 2.03334084 0.00123553 0.00000000
1.24159056 1.38980597 -0.00109199 0.00000000
1.81906352 1.64940404 -0.00090480 0.00000000
0.95649158 1.18193425 0.00004362 0.00000000
3.51980259 1.45368370 -0.00106982 0.00000000
1.27260913 1.26876933 -0.00066739 0.00000000
3.08456623 0.15590596 0.00028065 0.00000000
1.01681020 1.25600076 -0.00265492 0.00000000
1.94975057 1.64672447 0.00523236 0.00000000
0.15105823 2.01454582 0.00252031 0.00000000
1.26424116 1.41738236 -0.00086366 0.00000000
0.56823012 1.94109201 -0.00058451 0.00000000
2.99728200 0.50276013 -0.00066828 0.00000000
1.96328407 1.00479374 -0.00193150 0.00000000
2.28593980 0.09474056 0.00197737 0.00000000
3.21069099 0.92658148 0.00281265 0.00000000
2.99479928 2.07040178 0.00028553 0.00000000
0.50971440 0.12795197 -0.00042983 0.00000000
1.48071344 1.32166549 0.00023719 0.00000000
3.10771271 2.08542039 -0.00050645 0.00000000
0.15294214 1.85546244 0.00188138 0.00000000
2.18894697 0.28661838 -0.00246559 0.00000000
0.41394059 0.48998575 0.00047177 0.00000000
3.54836993 0.83311183 -0.00031880 0.00000000
2.23710886 0.12260734 -0.00202093 0.00000000
3.56498720 0.88462606 0.00027430 0.00000000
1.20918227 1.30327162 0.00043085 0.00000000
1.10167030 1.03057160 0.00049239 0.00000000
0.16051051 0.94725779 -0.00065370 0.00000000
0.24176348 1.25195137 -0.00068221 0.00000000
3.70516382 1.82890898 0.00056291 0.00000000
2.19155192 0.77831816 0.00314786 0.00000000
3.16710063 0.67921947 -0.00033470 0.00000000
1.12570865 1.68998013 -0.00137952 0.00000000
2.53622409 0.68629395 0.00675138 0.00000000
0.14558664 1.58740423 0.00570765 0.00000000
2.80400480 1.96133050 0.00180221 0.00000000
1.00269212 0.10126002 -0.00008036 0.00000000
1.35104791 0.57838716 -0.00017578 0.00000000
3.34440506 0.31120380 0.00440516 0.00000000
1.88941214 0.60954425 0.00110793 0.00000000
2.18470183 0.51705042 -0.00297048 0.00000000
3.41730672 1.00644803 -0.00241205 0.00000000
1.83882323 1.05294173 -0.00226672 0.00000000
3.10928608 0.25464961 0.00386781 0.00000000
2.39186000 1.83869994 0.00212644 0.00000000
3.03982378 0.11335381 0.00302222 0.00000000
3.44045489 0.32507483 -0.00078008 0.00000000
2.89679401 1.46027327 -0.00233332 0.00000000
2.18541972 1.62328376 0.00095675 0.00000000
0.86949033 1.69486755 -0.00344052 0.00000000
3.36786180 1.92681243 -0.00341830 0.00000000
2.21086991 0.70267001 0.00372217 0.00000000
2.09984230 1.94799143 0.00046985 0.00000000
3.82914698 0.02652163 0.00113285 0.00000000
1.50064775 1.57962061 -0.00141923 0.00000000
0.28264671 1.00291002 0.00078556 0.00000000
0.22377939 1.04725800 0.00567291 0.00000000
0.04336790 1.96815992 0.00038530 0.00000000
0.86087618 1.80023996 -0.00207570 0.00000000
1.70377851 0.76711752 -0.00281184 0.00000000
1.92563545 0.26767365 -0.00143557 0.00000000
2.63943638 0.07035311 -0.00058721 0.00000000
0.82054924 1.95344422 -0.00269831 0.00000000
2.68793529 0.01882313 -0.00250998 0.00000000
3.67406939 0.81446364 0.00081507 0.00000000
0.76091071 1.94682583 0.00534207 0.00000000
3.74673348 1.76709228 -0.00080927 0.00000000
2.71807348 1.45254814 -0.00053455 0.00000000
0.74907507 0.46715306 0.00238219 0.00000000
1.78741200 1.32251882 0.00138293 0.00000000
3.75775939 1.28977625 -0.00685733 0.00000000
2.53823060 0.94348534 -0.00174108 0.00000000
2.09638680 0.71567390 0.00244161 0.00000000
1.11000714 1.98729463 -0.00156775 0.00000000
3.25316328 1.74509283 -0.00416066 0.00000000
2.59974687 1.23578555 0.00361030 0.00000000
3.96023597 0.87171180 0.00115910 0.00000000
2.50753384 0.94876510 -0.00107271 0.00000000
0.27908858 1.65732013 0.00001556 0.00000000
2.05702509 1.39994268 -0.00440381 0.00000000
0.25845245 1.95510042 0.00144270 0.00000000
1.77148499 0.10775976 0.00017644 0.00000000
1.54305018 0.48824363 -0.00147529 0.00000000
3.08879032 1.21808469 -0.00169777 0.00000000
2.39154616 1.54731660 0.00259835 0.00000000
1.91254088 0.44738132 0.00111262 0.00000000
1.49126215 0.32897821 0.00223353 0.00000000
0.27188281 0.56460451 0.00266246 0.00000000
3.91518587 1.28926615 0.00302451 0.00000000
2.99911280 0.28036513 -0.00105301 0.00000000
3.66108149 1.53959302 -0.00140763 0.00000000
3.71076768 0.55445552 0.00575175 0.00000000
0.79755914 0.64629064 0.00246484 0.00000000
2.49625314 0.77956168 0.00032361 0.00000000
3.82395520 0.56337092 0.00456423 0.00000000
1.85451991 0.65198892 0.00079821 0.00000000
2.11661266 1.79609954 -0.00208641 0.00000000
2.08242504 0.75133406 0.00048252 0.00000000
1.43199833 1.41918752 0.00429313 0.00000000
0.73434074 1.41958559 0.00106197 0.00000000
1.23457281 0.51955330 0.00083535 0.00000000
1.80908823 1.55006271 -0.00143187 0.00000000
1.73103773 0.14117118 0.00010454 0.00000000
1.40433033 0.63417567 0.00471700 0.00000000
0.48062637 0.60333442 -0.00424926 0.00000000
0.09364606 0.14185287 -0.00189212 0.00000000
3.49140430 0.38089443 0.00024325 0.00000000
2.98886382 0.75178257 0.00126587 0.00000000
2.37918310 1.95424407 0.00474082 0.00000000
1.31571431 0.10446695 0.00044177 0.00000000
3.55681371 0.25472223 0.00089020 0.00000000
2.91946008 0.49021911 0.00236192 0.00000000
2.61502251 1.72945350 -0.00045897 0.00000000
2.34895226 0.83806010 -0.00084526 0.00000000
1.81609263 1.33481434 0.00285153 0.00000000
1.73619644 1.15374869 -0.00003155 0.00000000
3.47793760 0.90203582 0.00323970 0.00000000
3.85244652 1.03829444 -0.00299333 0.00000000
0.30715128 0.88185896 -0.00303128 0.00000000
3.17421375 0.38530017 -0.00043700 0.00000000
2.67608295 0.63285383 0.00411355 0.00000000
2.99726890 0.72993193 0.00310898 0.00000000
1.62129223 0.98286850 -0.00081189 0.00000000
1.58342035 0.95311167 0.00533604 0.00000000
0.98020407 0.63175433 0.00228620 0.00000000
1.75828887 1.50929533 -0.00123476 0.00000000
2.07583550 0.44560352 -0.00110697 0.00000000
1.62256641 1.34956510 -0.00022411 0.00000000
3.42802978 0.94252022 -0.00157191 0.00000000
0.03197028 1.61631729 -0.00290725 0.00000000
3.31247529 0.79953570 0.00113024 0.00000000
0.44227655 1.14855307 -0.00128080 0.00000000
1.40471478 1.15056004 0.00312106 0.00000000
1.40165495 1.90825083 0.00300733 0.00000000
2.45844156 1.35720646 0.00061693 0.00000000
3.41956380 1.62936724 -0.00018945 0.00000000
2.82775650 0.90195312 -0.00022547 0.00000000
2.51026374 1.01194735 0.00000324 0.00000000
1.37020852 1.59612992 -0.00268506 0.00000000
1.11416750 0.87340554 0.00306519 0.00000000
2.85137587 0.32857086 -0.00084867 0.00000000
4.06752771 0.11540289 -0.00210537 0.00000000
3.40072181 1.94428958 0.00348904 0.00000000
0.89818216 1.22129152 0.00473038 0.00000000
2.48000386 1.87791026 -0.00181122 0.00000000
3.45955047 1.39361132 0.00042611 0.00000000
3.19760732 1.77937023 -0.00024098 0.00000000
1.15507560 0.09873918 -0.00152562 0.00000000
0.08283721 0.83981765 0.00286863 0.00000000
3.77254230 1.55989597 -0.00166253 0.00000000
1.80108699 0.40117639 0.00190604 0.00000000
0.68434581 0.69368221 0.00397394 0.00000000
3.06986462 1.19369406 -0.00009709 0.00000000
3.10845869 0.52235367 0.00207092 0.00000000
0.80594384 1.13123866 -0.00054116 0.00000000
0.49646829 0.50159767 -0.00073527 0.00000000
0.75347529 1.63272313 -0.00343851 0.00000000
2.40258182 0.97742780 -0.00151064 0.00000000
2.98344936 1.11149406 -0.00138520 0.00000000
0.37422091 1.36920084 0.00223461 0.00000000
2.30021073 0.89288119 0.00323115 0.00000000
1.81677782 2.10415742 0.00354061 0.00000000
1.42564317 0.96286971 0.00514845 0.00000000
3.18949724 1.01927725 0.00126649 0.00000000
2.61017863 1.49464563 0.00003151 0.00000000
0.55428698 1.63573000 -0.00109465 0.00000000
1.64881989 2.10528338 0.00307515 0.00000000
0.99616313 0.83092775 -0.00299640 0.00000000
4.03895615 0.24208709 0.00192475 0.00000000
3.11268941 0.82875384 0.00008430 0.00000000
3.34815236 1.58312935 -0.00138819 0.00000000
1.23035714 0.24903502 0.00410982 0.00000000
0.14861753 0.41794510 -0.00205292 0.00000000
3.68462168 0.35834688 -0.00117949 0.00000000
3.68540939 0.95397191 0.00229175 0.00000000
0.10779779 0.81702542 -0.00050264 0.00000000
0.76033153 0.61845504 0.00288353 0.00000000
0.33712908 0.42194228 0.00218458 0.00000000
1.18843233 1.07226962 -0.00465888 0.00000000
3.78145253 1.68696817 -0.00033741 0.00000000
2.44066347 0.94121344 0.00092338 0.00000000
1.70499216 2.09649946 0.00218498 0.00000000
2.15835958 1.45757919 -0.00294997 0.00000000
4.06407734 1.67626599 -0.00002877 0.00000000
0.26187090 1.71117093 0.00239426 0.00000000
0.57520712 0.80653064 -0.00492879 0.00000000
0.80605618 0.25476767 -0.00252349 0.00000000
3.16169342 1.25373188 -0.00236220 0.00000000
1.55722294 1.76782298 0.00052088 0.00000000
2.66248415 1.40984312 0.00361446 0.00000000
0.41024234 1.77525436 0.00168003 0.00000000
1.31384728 0.19848756 0.00061352 0.00000000
3.05667209 0.38487936 0.00240195 0.00000000
2.30779935 1.29709657 0.00305059 0.00000000
3.64753254 0.48631433 0.00128878 0.00000000
2.37038481 1.10482606 -0.00077364 0.00000000
1.77948760 0.55641149 0.00389254 0.00000000
1.81463820 0.54254727 0.00021857 0.00000000
0.05928019 0.10948553 -0.00218575 0.00000000
2.18197562 1.21580644 0.00316834 0.00000000
2.57996335 1.40834318 0.00073130 0.00000000
1.96308419 0.16067633 0.00427193 0.00000000
1.63904092 1.90382834 0.00235811 0.00000000
3.02848975 1.49628948 0.00119470 0.00000000
1.20813043 0.97928779 -0.00029541 0.00000000
2.30690532 1.76716112 -0.00392967 0.00000000
0.73214633 1.32305929 -0.00137596 0.00000000
1.10766736 1.31282045 -0.00070695 0.00000000
0.50040816 1.47608181 0.00562975 0.00000000
2.52264847 1.81135844 -0.00528774 0.00000000
0.43975150 1.72567624 0.00429696 0.00000000
0.26214358 1.51911620 0.00054186 0.00000000
1.44325549 1.16262348 0.00107701 0.00000000
1.73603044 0.91171599 -0.00369667 0.00000000
2.89963584 0.36654461 0.00346738 0.00000000
1.51140999 0.55841383 -0.00001614 0.00000000
3.11276919 1.99567903 -0.00045163 0.00000000
0.90768308 0.92452804 -0.00025007 0.00000000
1.97321370 0.41858735 0.00014156 0.00000000
3.05407116 0.30224438 0.00202100 0.00000000
2.79127211 1.64612108 0.00288394 0.00000000
3.50075367 0.39066516 -0.00143734 0.00000000
0.37792330 1.14019235 -0.00053227 0.00000000
3.65486407 1.22731905 0.00710911 0.00000000
3.68397134 0.76609832 0.00150352 0.00000000
3.40896535 0.68871276 0.00362274 0.00000000
0.07960768 1.26109432 0.00109415 0.00000000
0.30001536 1.87129075 -0.00044961 0.00000000
2.88246984 0.00844222 -0.00023395 0.00000000
0.89059367 1.04844446 -0.00365307 0.00000000
3.23312806 0.87833910 0.00111713 0.00000000
0.21516394 1.99434221 0.00097085 0.00000000
3.75205792 0.74869951 -0.00463811 0.00000000
3.49971579 0.40774237 0.00189641 0.00000000
3.84218353 0.44630378 -0.00115674 0.00000000
2.82032823 0.30022082 -0.00016767 0.00000000
0.22273180 0.89491052 0.00009751 0.00000000
0.55275683 1.45193645 0.00573329 0.00000000
2.05598282 1.11628168 0.00092113 0.00000000
0.30194653 1.78927041 0.00368947 0.00000000
0.44691997 1.92358668 -0.00090093 0.00000000
3.80298772 1.75732321 0.00045015 0.00000000
1.76312363 0.17643041 -0.00343710 0.00000000
1.92246168 1.82454596 0.00076246 0.00000000
3.61097457 1.42304064 -0.00163471 0.00000000
1.17577870 0.87178259 -0.00172078 0.00000000
4.04866407 0.68088105 -0.00091042 0.00000000
0.11362335 0.51680355 -0.00032187 0.00000000
1.17027432 0.67745892 -0.00073101 0.00000000
3.40224111 1.98998190 0.00553174 0.00000000
1.33802929 2.08727399 -0.00413706 0.00000000
2.75372950 1.84057029 -0.00047778 0.00000000
0.98727579 1.98023512 -0.00024258 0.00000000
1.80522008 0.20248369 -0.00150201 0.00000000
1.33084600 0.54921566 -0.00033430 0.00000000
1.11649032 1.86762693 0.00252334 0.00000000
3.92677765 0.74681739 -0.00045937 0.00000000
0.61868752 1.39633306 0.00184170 0.00000000
2.77674731 0.28294141 -0.00398863 0.00000000
3.38815342 0.37914362 -0.00249631 0.00000000
3.01911232 0.54450577 0.00237541 0.00000000
2.91224581 0.17813467 0.00121567 0.00000000
2.38433016 1.17813777 0.00000972 0.00000000
2.82537706 1.78004907 -0.00069463 0.00000000
3.33972966 0.00307444 0.00092527 0.00000000
0.48355370 0.13934752 -0.00069331 0.00000000
3.70108830 1.38570407 -0.00038676 0.00000000
0.68162359 0.27364406 -0.00040234 0.00000000
2.82255622 1.50348286 -0.00154497 0.00000000
1.44365077 2.02818944 -0.00170182 0.00000000
2.90465658 0.22733784 -0.00440253 0.00000000
3.27820598 1.39355851 -0.00093215 0.00000000
2.88891171 0.17831870 -0.00032636 0.00000000
4.04605059 1.54408867 0.00489379 0.00000000
2.85663634 1.74831495 0.00013226 0.00000000
2.87892521 0.27639915 0.00135040 0.00000000
0.76047555 1.69917074 0.00090805 0.00000000
1.77077118 1.53638414 0.00427223 0.00000000
0.26548579 2.05445608 0.00044036 0.00000000
2.58758185 1.15609435 0.00021374 0.00000000
1.24377940 0.66650493 -0.00174420 0.00000000
3.13247064 0.54194891 0.00169281 0.00000000
1.75808352 1.41505220 0.00365665 0.00000000
2.80238208 1.92964688 0.00232544 0.00000000
0.88660747 1.61509205 -0.00259816 0.00000000
3.89538508 1.57502672 -0.00177615 0.00000000
0.46533488 2.07432678 -0.00095306 0.00000000
1.13559362 1.21172045 0.00168131 0.00000000
0.66857240 1.44176222 0.00238560 0.00000000
1.20802044 0.89135921 -0.00922465 0.00000000
2.65495216 0.34966413 0.00155595 0.00000000
0.25021383 0.99277096 -0.00107380 0.00000000
0.86163762 0.36404811 -0.00025410 0.00000000
1.99846471 1.03759607 0.00184828 0.00000000
3.23865624 0.63358755 0.00126106 0.00000000
3.37194063 1.14288038 0.00624734 0.00000000
1.22495394 0.14499635 0.00429876 0.00000000
1.75942023 0.48016857 -0.00133648 0.00000000
1.43630076 1.53001025 -0.00177143 0.00000000
0.97345784 1.80437901 -0.00014838 0.00000000
3.30045490 0.60451392 -0.00076414 0.00000000
3.76664528 0.05405305 -0.00162862 0.00000000
0.94091915 1.67130230 -0.00033090 0.00000000
3.89632118 1.89183441 -0.00292808 0.00000000
0.79469444 1.64311226 -0.00392055 0.00000000
1.17494548 1.10449258 0.00381836 0.00000000
1.70718127 1.16410567 0.00181052 0.00000000
3.46699152 0.71151747 0.00005034 0.00000000
3.68979885 1.90519755 -0.00268704 0.00000000
4.03456212 0.49468600 0.00036653 0.00000000
2.30988669 0.43607403 -0.00145021 0.00000000
3.90365247 1.18690065 -0.00178231 0.00000000
3.31543958 0.41684137 -0.00133567 0.00000000
0.62477687 0.04665303 0.00290628 0.00000000
0.71353525 1.07189465 -0.00161681 0.00000000
0.75018591 0.37945241 -0.00340538 0.00000000
3.54991711 1.93443474 0.00142255 0.00000000
0.11907740 0.39373983 0.00037170 0.00000000
1.15967895 1.87338348 -0.00391613 0.00000000
3.38968542 0.12449310 -0.00335346 0.00000000
3.72404405 1.05165574 -0.00212056 0.00000000
2.89905518 1.51096052 0.00187683 0.00000000
3.21625964 0.16568258 0.00407916 0.00000000
3.86003856 1.24540040 0.00598871 0.00000000
2.60342895 1.45703858 0.00148100 0.00000000
0.56655627 0.28448515 0.00145705 0.00000000
1.29196721 1.40198714 -0.00168591 0.00000000
0.90777268 0.48698972 -0.00030793 0.00000000
0.75662546 2.09007337 0.00135528 0.00000000
1.62934393 0.88630496 0.00179608 0.00000000
0.13502034 1.24907787 0.00262230 0.00000000
0.03481284 0.15146384 0.00008485 0.00000000
1.46653547 1.22287747 -0.00032319 0.00000000
2.40228645 1.28286214 0.00233322 0.00000000
3.08170792 1.67542591 -0.00160009 0.00000000
0.78624920 0.41535629 0.00446013 0.00000000
3.25841245 2.09622458 0.00223793 0.00000000
1.07442295 1.29870236 -0.00077533 0.00000000
3.98902352 2.06466252 0.00020079 0.00000000
2.92021737 0.96659909 0.00038209 0.00000000
3.72651988 1.34534103 -0.00338225 0.00000000
1.69113320 0.29792355 0.00077408 0.00000000
1.69199153 0.79421851 -0.00161943 0.00000000
3.10077581 0.38713587 0.00449396 0.00000000
3.90942382 2.07580154 0.00129236 0.00000000
0.21262463 1.36661232 0.00401944 0.00000000
0.76046557 1.64282049 -0.00262708 0.00000000
0.60636914 2.10572131 -0.00193069 0.00000000
0.61357910 0.81518789 -0.00018096 0.00000000
2.32724691 1.07514157 0.00014801 0.00000000
3.44045553 1.66127249 -0.00237865 0.00000000
0.33705760 1.26508960 -0.00434907 0.00000000
2.43527560 0.76406565 -0.00400465 0.00000000
3.69069556 0.81664764 -0.00055542 0.00000000
3.64621888 0.75980575 -0.00261394 0.00000000
1.09322588 0.22502100 -0.00090345 0.00000000
3.40895461 1.22771888 -0.00363551 0.00000000
3.78519585 1.22827847 -0.00293401 0.00000000
3.34023476 1.26595059 -0.00253949 0.00000000
0.63618469 0.87506760 0.00341290 0.00000000
0.55632933 1.93288830 -0.00146887 0.00000000
2.84261374 0.17257885 -0.00279958 0.00000000
0.54399750 1.98200229 0.00000660 0.00000000
3.03538326 2.02731212 -0.00071268 0.00000000
2.23506043 1.11520599 0.00064188 0.00000000
2.09221584 0.65354626 -0.00176958 0.00000000
3.72769813 1.30506807 0.00179520 0.00000000
3.79113288 1.45049711 -0.00022917 0.00000000
2.23870282 0.90428286 -0.00169458 0.00000000
3.70815520 1.39706439 0.00162326 0.00000000
0.72191369 2.02734928 -0.00100134 0.00000000
1.19865288 0.52629268 -0.00335320 0.00000000
1.27624391 0.99266305 0.00150046 0.00000000
4.02380851 1.26234388 -0.00388436 0.00000000
2.00478298 1.36319021 -0.00173546 0.00000000
2.43209197 1.29616901 -0.00318414 0.00000000
3.16289708 0.18377691 -0.00220767 0.00000000
3.42753332 1.40641662 -0.00268739 0.00000000
2.56810005 0.20669224 -0.00005236 0.00000000
3.86944160 1.65762295 -0.00151378 0.00000000
2.58325800 1.50301725 -0.00071960 0.00000000
1.03516295 1.08625466 -0.00140482 0.00000000
1.13544259 0.23929804 0.00074568 0.00000000
0.90149466 1.27167988 -0.00124336 0.00000000
3.78934895 0.26262007 -0.00416016 0.00000000
2.62744429 1.78508074 -0.00437244 0.00000000
0.11720935 1.43307811 -0.00042416 0.00000000
1.61240360 1.31666466 0.00303215 0.00000000
0.57327493 1.98287682 -0.00080295 0.00000000
1.90695001 2.06165097 -0.00136968 0.00000000
2.95951849 1.83505499 0.00127216 0.00000000
0.30899036 2.02999427 -0.00045299 0.00000000
3.50310506 1.93844354 -0.00396734 0.00000000
2.99592130 0.58338247 0.00126834 0.00000000
3.38925175 2.10656309 -0.00062841 0.00000000
2.78553855 0.98974110 0.00163796 0.00000000
1.41518893 1.67420552 -0.00386437 0.00000000
1.43102243 1.08001525 0.00009697 0.00000000
2.99352053 1.09964326 0.00302297 0.00000000
1.34127970 1.76975986 -0.00092151 0.00000000
4.04888233 1.34734619 -0.00171113 0.00000000
0.02671211 0.64005541 -0.00339594 0.00000000
3.21633987 0.93904302 0.00238685 0.00000000
2.00617660 0.22835421 -0.00145317 0.00000000
3.43796277 0.34571738 -0.00183005 0.00000000
2.52372511 0.86512773 0.00252563 0.00000000
2.99624010 1.43251765 0.00258979 0.00000000
1.66116808 1.47391531 -0.00585811 0.00000000
1.69303198 1.55195966 -0.00092454 0.00000000
3.07355458 1.83448600 0.00053296 0.00000000
3.89241838 2.05919075 -0.00095640 0.00000000
2.00539010 1.73552340 -0.00126557 0.00000000
2.94683813 1.34982491 0.00134771 0.00000000
1.63307165 0.57846453 -0.00035762 0.00000000
1.48640516 0.29794779 0.00452300 0.00000000
2.43083073 0.98525672 0.00664266 0.00000000
1.74418145 0.43303257 0.00221823 0.00000000
2.78876305 1.96067940 0.00007709 0.00000000
2.50983451 1.75874208 -0.00109355 0.00000000
1.95881646 0.83550864 -0.00424934 0.00000000
2.75354486 0.93561067 -0.00065766 0.00000000
3.40070783 1.66253715 -0.00313315 0.00000000
3.43116090 0.80307144 -0.00323700 0.00000000
1.52989702 1.92069533 0.00053351 0.00000000
0.74932785 0.95428662 -0.00172586 0.00000000
1.33526946 2.01433340 0.00105291 0.00000000
1.30664354 1.13510560 -0.00101454 0.00000000
3.79207777 1.35638192 -0.00209605 0.00000000
0.66361007 1.02888553 -0.00262681 0.00000000
1.00431646 0.10145265 -0.00023521 0.00000000
3.25857073 1.46142726 0.00223619 0.00000000
3.71961575 0.21216798 -0.00173893 0.00000000
1.34198528 1.85455299 0.00442922 0.00000000
0.50407415 1.19529363 0.00161262 0.00000000
2.88232273 1.73794277 -0.00071606 0.00000000
1.39005923 1.63769685 0.00028060 0.00000000
0.93819322 0.85241345 -0.00175670 0.00000000
0.82865635 1.35548726 0.00202356 0.00000000
1.35843218 0.07636451 0.00290275 0.00000000
2.18922479 1.08760637 0.00270713 0.00000000
1.53939826 1.57978446 0.00415029 0.00000000
0.77438339 0.62936943 0.00309367 0.00000000
3.26818802 1.37097717 0.00038630 0.00000000
1.54851837 1.62794456 -0.00311434 0.00000000
1.84559033 1.17427182 0.00185320 0.00000000
3.87884093 0.37770230 -0.00130460 0.00000000
2.11173282 2.07409072 -0.00006415 0.00000000
4.03824038 1.23479556 -0.00210832 0.00000000
0.31627762 2.03386389 -0.00158095 0.00000000
1.00913315 0.88494741 -0.00343739 0.00000000
3.61081614 0.35499566 0.00067017 0.00000000
0.78390123 1.13929515 0.00159553 0.00000000
3.93927789 0.40609568 -0.00109455 0.00000000
1.09943687 0.94317176 -0.00030406 0.00000000
3.65287969 1.49959658 0.00341522 0.00000000
0.66669098 0.06460984 -0.00159188 0.00000000
1.10806833 1.39176430 -0.00180636 0.00000000
3.59214682 0.35772319 0.00260104 0.00000000
1.39565340 1.68239591 0.00043676 0.00000000
3.60302322 0.78602840 0.00301181 0.00000000
1.43308349 0.14844839 -0.00192887 0.00000000
4.02055282 1.16472491 -0.00146764 0.00000000
1.16584986 2.04171763 0.00489991 0.00000000
1.17079317 0.92317981 -0.00150348 0.00000000
3.71300150 0.68446076 0.00053631 0.00000000
3.09871544 1.22469560 -0.00012653 0.00000000
3.51685069 0.27929694 -0.00421236 0.00000000
3.32218975 1.26785062 -0.00166847 0.00000000
1.23327972 1.15866543 -0.00032983 0.00000000
3.73846067 0.40507947 0.00311061 0.00000000
0.52649332 1.62196974 -0.00367715 0.00000000
3.80172804 0.51821370 0.00128919 0.00000000
3.35997711 1.91668484 0.00067530 0.00000000
0.76148126 0.16330663 -0.00090858 0.00000000
1.26088873 1.00151021 -0.00118608 0.00000000
1.10964184 1.33261644 0.00223912 0.00000000
3.55795753 0.81328381 0.00139247 0.00000000
3.08221734 0.80388188 -0.00007687 0.00000000
0.64920563 1.75049062 -0.00099232 0.00000000
2.39889410 1.02206044 -0.00304573 0.00000000
1.06488277 0.43526324 -0.00147599 0.00000000
3.59652303 0.15469006 -0.00216511 0.00000000
2.04888734 0.86612793 -0.00297795 0.00000000
0.20917708 1.72389252 -0.00220455 0.00000000
1.26830077 1.74214784 0.00198439 0.00000000
2.43869462 1.05350956 0.00187178 0.00000000
2.39823115 0.45592732 0.00298180 0.00000000
3.93533379 0.41100431 -0.00136449 0.00000000
1.06633295 0.40634685 -0.00119749 0.00000000
2.68884839 0.54607557 0.00227471 0.00000000
2.59671713 1.96967839 0.00165580 0.00000000
1.43019966 1.54313400 -0.00068440 0.00000000
1.06432291 1.78151214 0.00033075 0.00000000
4.00897436 1.77499333 0.00272213 0.00000000
1.90206995 1.26390960 0.00083329 0.00000000
0.80609923 1.63593885 0.00419434 0.00000000
2.15950676 1.01598063 0.00036683 0.00000000
2.99003206 1.54411372 -0.00463604 0.00000000
0.99406330 1.84283683 0.00300190 0.00000000
0.93396168 1.08154354 -0.00299145 0.00000000
0.87294218 1.64709682 0.00180514 0.00000000
1.92485835 0.77811174 0.00027707 0.00000000
0.86665337 1.89311594 0.00435375 0.00000000
2.36008580 0.16213556 0.00093395 0.00000000
3.94668267 1.54457643 0.00317323 0.00000000
2.33652512 0.44504843 0.00302809 0.00000000
0.72372116 0.75052261 0.00295485 0.00000000
0.58390337 1.01795260 -0.00275880 0.00000000
1.69592515 2.07317986 -0.00137848 0.00000000
0.80126511 0.82348092 -0.00229677 0.00000000
3.26492780 0.94068419 -0.00183408 0.00000000
1.27672792 0.07978012 -0.00697764 0.00000000
0.95386871 1.14623080 0.00083337 0.00000000
3.00635267 1.26401203 0.00510267 0.00000000
1.42039215 1.40993223 0.00079662 0.00000000
1.79687436 1.53363630 0.00055582 0.00000000
1.85105208 2.05479318 -0.00124466 0.00000000
2.01146834 1.06337822 -0.00128647 0.00000000
2.24754336 0.68770528 0.00141947 0.00000000
3.83508978 0.76314751 0.00131640 0.00000000
1.23168890 1.81910523 0.00174567 0.00000000
3.36711249 1.84548102 0.00342747 0.00000000
3.37137741 1.99131407 -0.00418773 0.00000000
3.02922492 0.64401552 -0.00307308 0.00000000
0.89108931 0.89461964 0.00041197 0.00000000
1.81274907 1.32415429 -0.00298335 0.00000000
4.02295375 1.98267848 -0.00204056 0.00000000
3.76557421 1.80883903 0.00279006 0.00000000
2.43247065 0.76758617 0.00249238 0.00000000
2.38485266 0.99749953 0.00264637 0.00000000
3.04984066 0.84138695 0.00162557 0.00000000
3.04169147 1.03833494 -0.00169009 0.00000000
1.58989953 0.82077175 0.00252024 0.00000000
0.62422520 0.65734569 -0.00120194 0.00000000
1.20308364 1.30510769 -0.00131521 0.00000000
1.40693095 1.49949547 -0.00347082 0.00000000
3.92054293 0.28362887 -0.00289215 0.00000000
3.28613438 0.66027915 -0.00274452 0.00000000
2.74922486 0.74330192 -0.00123664 0.00000000
1.35188858 0.29366244 0.00247385 0.00000000
0.53086863 0.16565867 -0.00221582 0.00000000
0.77179499 1.06624982 0.00500952 0.00000000
0.89572880 0.97444807 -0.00059387 0.00000000
0.40038875 0.20545950 0.00211645 0.00000000
3.62292286 1.62961226 0.00175671 0.00000000
1.84573574 1.29789750 0.00045445 0.00000000
3.75939561 0.96279556 -0.00431715 0.00000000
3.41710285 0.36628366 0.00459217 0.00000000
3.59229038 0.18298046 0.00385576 0.00000000
2.44596321 0.99836945 -0.00183859 0.00000000
0.49168660 1.73857261 -0.00553432 0.00000000
1.31159397 1.77246073 0.00227975 0.00000000
2.66482443 0.20716784 0.00122033 0.00000000
1.29362211 0.68279356 -0.00081213 0.00000000
0.67225516 0.87615814 0.00364469 0.00000000
1.41238640 1.24940219 0.00239045 0.00000000
1.88524664 1.71617823 0.00237626 0.00000000
3.56246673 1.45047462 -0.00009693 0.00000000
0.66833045 1.76422035 -0.00037966 0.00000000
0.69662790 1.31880027 -0.00322153 0.00000000
2.38140315 1.67333664 -0.00149413 0.00000000
3.45417402 1.34442300 0.00068920 0.00000000
1.18768357 1.95542504 -0.00000646 0.00000000
0.66245445 0.72884508 -0.00203783 0.00000000
0.93757497 1.86554751 0.00245133 0.00000000
3.44504597 1.26969286 -0.00548811 0.00000000
0.38298639 2.09992467 0.00087553 0.00000000
1.09343446 1.25730991 0.00049676 0.00000000
4.03728801 0.97034965 -0.00244462 0.00000000
2.82843221 1.06116389 0.00020143 0.00000000
3.84689701 1.26806644 0.00307653 0.00000000
3.76070893 1.33620960 -0.00061756 0.00000000
0.33030448 0.04844098 0.00086602 0.00000000
3.21691075 1.03744496 -0.00238642 0.00000000
3.98254327 1.68622580 -0.00147924 0.00000000
2.91519141 0.80970190 0.00004606 0.00000000
3.28652043 1.73150362 -0.00006962 0.00000000
3.73804645 1.84762643 0.00329251 0.00000000
2.93168901 1.03061574 0.00139019 0.00000000
2.32714173 0.21842710 0.00448877 0.00000000
0.06469565 2.05117378 0.00068352 0.00000000
2.27776076 0.89410740 0.00340114 0.00000000
1.20619725 0.54177546 -0.00023683 0.00000000
1.75524767 1.28757108 -0.00009542 0.00000000
3.10071434 1.57706123 -0.00078745 0.00000000
2.05616075 2.08844152 -0.00008838 0.00000000
3.81852467 0.29914782 0.00248167 0.00000000
1.28458541 0.89070540 0.00003882 0.00000000
0.44204061 1.01141349 -0.00404490 0.00000000
2.50165203 0.11955992 0.00540210 0.00000000
0.12515930 0.38346171 0.00182918 0.00000000
0.83463068 0.52027500 0.00228381 0.00000000
3.20312334 0.39252158 0.00125512 0.00000000
2.71871463 1.35145781 0.00003232 0.00000000
1.90231547 0.44111153 -0.00099739 0.00000000
0.86508853 1.65651838 -0.00320052 0.00000000
0.17934857 2.03942301 -0.00155396 0.00000000
4.05770952 0.28456021 0.00135726 0.00000000
1.83830068 0.83500910 -0.00360523 0.00000000
0.58828899 1.48923793 0.00054268 0.00000000
3.42788245 0.49894115 0.00171757 0.00000000
0.36076596 0.99966571 0.00014363 0.00000000
3.38020412 1.80153869 0.00002769 0.00000000
0.95494918 2.02281390 -0.00503744 0.00000000
3.66260694 1.84237330 -0.00116309 0.00000000
2.53654358 0.89028225 -0.00252785 0.00000000
1.76426364 2.05889132 -0.00015663 0.00000000
0.57554395 0.27369384 -0.00073917 0.00000000
2.09782721 1.98517729 0.00033888 0.00000000
2.01785978 0.77334168 0.00180192 0.00000000
0.56414313 2.08097606 -0.00477383 0.00000000
0.53186540 0.12129446 -0.00080571 0.00000000
0.67434330 0.13699406 -0.00050233 0.00000000
3.40214011 1.34773515 -0.00344705 0.00000000
3.28485350 0.50768033 -0.00040026 0.00000000
2.74587083 0.50698471 -0.00169015 0.00000000
2.18364737 1.54971118 0.00348793 0.00000000
2.46362139 1.82151135 0.00150742 0.00000000
2.30014785 0.84447215 -0.00332822 0.00000000
0.29176385 1.95800483 0.00078698 0.00000000
3.23797246 0.33818760 0.00315283 0.00000000
0.54010862 0.15851275 0.00425671 0.00000000
2.74303717 0.35034094 0.00059848 0.00000000
2.11922032 1.28703340 -0.00042353 0.00000000
3.87579785 2.03419605 0.00037165 0.00000000
3.49967432 0.56752467 0.00249037 0.00000000
1.49137233 0.14808650 0.00001484 0.00000000
3.43162881 1.30045120 -0.00399553 0.00000000
3.91591002 1.79079458 -0.00140814 0.00000000
0.46233203 1.54964532 -0.00176013 0.00000000
2.04512663 1.70240485 -0.00107508 0.00000000
3.90004587 0.31863854 -0.00272432 0.00000000
1.00486232 1.58407104 0.00189870 0.00000000
1.87513303 1.21024881 -0.00288281 0.00000000
1.13280112 1.81107583 0.00401738 0.00000000
2.47876365 1.21513865 -0.00392234 0.00000000
3.29256909 1.83461359 0.00125122 0.00000000
0.07542404 0.90374886 0.00480945 0.00000000
1.69067509 1.13164311 -0.00103938 0.00000000
3.66072605 1.63252147 0.00476008 0.00000000
2.44261017 2.02398236 0.00312348 0.00000000
0.55338347 1.71580795 0.00094061 0.00000000
3.72010269 1.40118791 -0.00157267 0.00000000
0.46579018 1.20782069 0.00281369 0.00000000
0.89110150 0.75666249 0.00271597 0.00000000
3.11694520 1.77763523 0.00037891 0.00000000
0.17922274 1.59800866 0.00202822 0.00000000
1.01649524 1.59694455 -0.00082853 0.00000000
3.12500729 1.82221013 -0.00203499 0.00000000
3.73418566 0.65074621 -0.00514300 0.00000000
1.06350716 1.45964128 0.00119115 0.00000000
3.40227550 0.33229944 -0.00196772 0.00000000
3.67638671 1.58377255 0.00340803 0.00000000
0.29586776 0.74900249 -0.00206407 0.00000000
2.46775132 0.57914579 -0.00366609 0.00000000
0.32722292 2.05132789 -0.00188562 0.00000000
3.32194356 0.74103020 0.00067815 0.00000000
0.99997703 0.06124814 0.00020585 0.00000000
2.92617227 1.25982773 -0.00253059 0.00000000
3.67924835 1.45194674 0.00018763 0.00000000
2.32462237 1.66313625 -0.00192337 0.00000000
1.04531130 1.31139545 0.00109215 0.00000000
2.94687697 1.05925649 -0.00311061 0.00000000
0.87121186 1.14153164 0.00293573 0.00000000
0.20056020 0.06202107 0.00305961 0.00000000
2.74894468 1.88483547 -0.00164054 0.00000000
2.01068624 0.75798120 0.00009911 0.00000000
2.25855222 0.15657959 -0.00019745 0.00000000
0.74470862 0.47868217 -0.00327033 0.00000000
0.08319621 1.35062298 0.00238277 0.00000000
3.55740926 0.60927622 0.00014555 0.00000000
0.89714646 0.92222368 0.00186060 0.00000000
3.56211894 0.74098893 -0.00422007 0.00000000
0.63181476 1.15644073 0.00256416 0.00000000
2.91894130 0.54545434 -0.00409380 0.00000000
1.81430210 2.09111197 -0.00120372 0.00000000
3.95801649 1.58209682 0.00162536 0.00000000
1.64386840 0.78434284 -0.00496874 0.00000000
0.04937159 0.68312501 0.00052370 0.00000000
1.10121538 1.22210780 -0.00051552 0.00000000
0.15713635 0.44427651 0.00107267 0.00000000
2.88131725 0.87198844 -0.00571540 0.00000000
3.33681550 0.07535451 0.00161363 0.00000000
2.49049461 0.18039398 -0.00296562 0.00000000
3.14553722 0.27997894 0.00091999 0.00000000
3.25265037 2.04944857 0.00072025 0.00000000
2.75696701 1.87762426 0.00021583 0.00000000
0.70682782 1.16748256 -0.00239757 0.00000000
0.81457961 1.98327959 -0.00134465 0.00000000
1.29264550 1.81705653 -0.00199289 0.00000000
0.70263391 0.67234121 0.00138920 0.00000000
0.29085682 0.08510575 -0.00102841 0.00000000
1.23580983 1.13287117 -0.00328077 0.00000000
2.82579127 0.37215874 -0.00266524 0.00000000
2.63926765 1.16246862 -0.00599198 0.00000000
0.19815624 2.02099233 0.00367900 0.00000000
0.48489469 1.55703580 0.00069418 0.00000000
1.45125957 0.01421530 0.00062186 0.00000000
1.21611249 0.12986766 -0.00582604 0.00000000
1.03976267 1.71275920 0.00087312 0.00000000
1.97078829 0.17420876 0.00251831 0.00000000
0.87237341 1.54007450 -0.00117291 0.00000000
0.97555102 0.68994338 0.00342159 0.00000000
0.98749607 0.74130342 0.00099176 0.00000000
3.57829660 0.85842578 0.00165251 0.00000000
0.44736651 2.00311685 -0.00103305 0.00000000
3.47287984 1.20842470 -0.00270684 0.00000000
1.95561743 1.81866878 -0.00490405 0.00000000
0.44872934 0.46772863 0.00198322 0.00000000
2.41697824 0.16597712 0.00061051 0.00000000
2.60983294 1.30744753 -0.00328449 0.00000000
3.35256624 0.12975970 0.00174656 0.00000000
2.97795001 2.03355983 0.00055023 0.00000000
2.15823931 0.09946578 0.00021531 0.00000000
3.96522748 1.43645773 0.00051211 0.00000000
0.22193430 1.06423663 0.00004090 0.00000000
1.57952674 1.44038861 -0.00078874 0.00000000
0.25048268 1.21399519 0.00120014 0.00000000
1.72013507 0.29296377 0.00055111 0.00000000
2.23512962 1.20648896 0.00216174 0.00000000
2.71813993 1.07576062 0.00039742 0.00000000
3.32640852 0.91328498 0.00080588 0.00000000
1.33498444 0.77334038 -0.00031984 0.00000000
2.34448158 0.82041437 -0.00404023 0.00000000
3.50721700 0.94393256 0.00146355 0.00000000
0.62609683 0.97638494 -0.00070726 0.00000000
0.98614153 2.01388644 -0.00101341 0.00000000
1.41953374 1.79651487 0.00062831 0.00000000
1.00314829 0.67651563 -0.00193529 0.00000000
0.28282320 0.70153745 0.00058499 0.00000000
0.38380305 1.38473643 0.00038278 0.00000000
0.65269579 0.69266957 0.00344374 0.00000000
2.95544704 1.50425158 0.00068200 0.00000000
2.42792427 0.10529907 -0.00098780 0.00000000
1.73147006 0.94889061 -0.00518299 0.00000000
0.35486213 0.32919209 -0.00249286 0.00000000
0.21006133 0.45080431 0.00270118 0.00000000
1.69260009 0.19573702 -0.00292480 0.00000000
1.03319157 1.22390304 -0.00035366 0.00000000
1.26199858 0.15214092 -0.00248838 0.00000000
0.04874556 1.20372203 -0.00172820 0.00000000
2.87938718 0.63762925 0.00542022 0.00000000
2.05910571 1.39081109 -0.00041148 0.00000000
0.28079789 1.00272956 0.00214876 0.00000000
2.55020703 1.81047323 -0.00364595 0.00000000
1.20267605 0.44665420 0.00084163 0.00000000
1.91636672 0.86225738 -0.00182477 0.00000000
2.88641707 2.05248287 0.00134825 0.00000000
1.53138130 1.88282613 0.00071008 0.00000000
3.97769833 1.77495317 0.00222961 0.00000000
1.52614626 1.20110013 -0.00062773 0.00000000
0.98460925 1.11924204 0.00176832 0.00000000
0.12269329 2.08186628 0.00206712 0.00000000
2.44369898 1.82440907 -0.00041568 0.00000000
3.49345140 0.19098423 0.00445542 0.00000000
2.58279526 0.74308312 -0.00108425 0.00000000
0.63466888 0.49180423 -0.00102572 0.00000000
2.44975649 0.35860047 0.00044450 0.00000000
3.53244973 0.24388264 -0.00579981 0.00000000
3.39033139 0.00374728 0.00465142 0.00000000
3.90354452 1.41232435 -0.00298794 0.00000000
2.99047194 0.65021297 0.00127657 0.00000000
0.12708540 1.65769127 0.00130539 0.00000000
1.53596047 0.49584755 -0.00230889 0.00000000
0.30800188 0.51525064 -0.00060689 0.00000000
2.55594234 0.45217201 0.00204005 0.00000000
1.09486381 1.57042249 0.00103517 0.00000000
1.36864565 1.36430874 -0.00092529 0.00000000
3.94070229 1.10973547 0.00041368 0.00000000
0.74083752 1.92112599 0.00171006 0.00000000
4.03390419 1.86125985 0.00134366 0.00000000
2.68157100 0.03492848 0.00093249 0.00000000
1.57420091 1.16110962 -0.00213965 0.00000000
3.24632285 0.52410853 0.00150265 0.00000000
0.55973531 0.36289949 -0.00171391 0.00000000
3.91838612 1.51369855 0.00248117 0.00000000
0.73533499 1.01012192 -0.00250982 0.00000000
0.08248175 0.71128033 0.00301685 0.00000000
3.50517572 0.04902819 -0.00156526 0.00000000
2.60076119 0.83046250 -0.00201860 0.00000000
2.02930273 1.41982734 0.00029671 0.00000000
1.78653058 0.70460305 -0.00149220 0.00000000
1.68521658 0.88105457 -0.00238281 0.00000000
1.61910523 0.35654886 -0.00262622 0.00000000
2.23907183 1.17374254 -0.00081211 0.00000000
0.06942522 1.29941589 -0.00102424 0.00000000
2.03138099 0.10837482 -0.00007822 0.00000000
1.48513836 1.28788114 0.00260967 0.00000000
3.30919873 0.75933233 0.00264864 0.00000000
