1.176842 0.613918 0.000678 0.0
3.339532 0.036649 0.000339 0.0
4.348350 1.366016 -0.002020 0.0
2.836291 1.229574 -0.004563 0.0
2.321687 1.871515 0.003991 0.0
1.710766 0.607003 -0.001490 0.0
0.404370 1.667043 -0.000115 0.0
2.108474 1.256921 0.002099 0.0
3.459363 0.923530 0.002231 0.0
1.488464 0.082035 0.000461 0.0
3.893012 1.922215 0.002565 0.0
0.843164 1.323533 -0.003965 0.0
0.789145 1.400459 0.000704 0.0
0.046949 1.038376 0.003977 0.0
0.918551 1.634334 -0.000116 0.0
1.254103 2.068748 0.000330 0.0
2.171043 0.499029 -0.004005 0.0
3.100996 1.154247 0.002491 0.0
3.115916 1.610336 0.002148 0.0
4.328678 1.206596 0.002845 0.0
3.695743 0.701359 -0.001317 0.0
3.965726 1.089968 -0.001330 0.0
2.090719 0.956194 0.000981 0.0
3.050935 0.409385 0.000042 0.0
1.769056 1.038422 -0.001267 0.0
0.904006 0.725161 -0.005442 0.0
4.463353 2.163039 0.000987 0.0
1.856070 1.652891 0.003940 0.0
2.971527 1.294139 0.001625 0.0
3.652828 0.544422 0.002396 0.0
0.349753 0.879912 0.002268 0.0
2.851311 0.601558 -0.000845 0.0
1.883960 2.110610 0.001080 0.0
3.453009 1.556696 0.002159 0.0
1.701743 0.045029 0.000090 0.0
2.310706 1.495046 0.001568 0.0
3.049250 0.546857 -0.000705 0.0
1.826847 1.185515 0.001617 0.0
4.511178 0.826917 -0.003207 0.0
1.058742 0.707597 -0.000577 0.0
1.522978 1.930381 -0.000992 0.0
0.588929 1.879460 0.001657 0.0
3.544905 1.639294 0.000281 0.0
1.380739 0.734198 0.002476 0.0
0.900892 0.252831 -0.000798 0.0
2.036942 0.532718 0.000160 0.0
1.971406 1.409036 -0.004511 0.0
1.551741 0.693063 0.003356 0.0
4.032323 1.234635 -0.001878 0.0
2.184782 2.016156 0.002837 0.0
2.099576 0.894417 0.002721 0.0
1.212737 0.827594 -0.002068 0.0
4.018157 0.435652 0.001525 0.0
2.663182 1.000552 0.001793 0.0
0.140795 0.271764 -0.002513 0.0
2.182245 1.135476 -0.003612 0.0
1.570159 0.036141 0.003383 0.0
4.243002 1.860219 0.001699 0.0
2.313627 2.031112 0.002215 0.0
0.843268 2.118082 0.000689 0.0
3.601387 1.576278 -0.005212 0.0
2.145682 2.014209 0.004736 0.0
1.146097 1.260318 0.005118 0.0
1.489060 2.130411 0.003523 0.0
3.029895 1.663239 0.003943 0.0
3.527345 1.437606 -0.000235 0.0
1.832304 1.875700 0.000693 0.0
3.182216 1.832913 0.003596 0.0
2.213920 0.539430 -0.000466 0.0
3.514587 1.004116 -0.000801 0.0
3.149578 1.466143 0.001177 0.0
3.691345 0.011661 0.000670 0.0
4.379593 0.304170 -0.003065 0.0
1.134369 2.084106 -0.004721 0.0
1.852591 2.062027 -0.000832 0.0
2.154667 2.077351 0.003163 0.0
3.289097 1.699554 0.001079 0.0
1.056171 1.643003 0.000731 0.0
0.328542 2.199762 -0.002503 0.0
1.529509 1.371275 0.003026 0.0
1.655099 0.061538 0.001047 0.0
1.970030 1.862834 0.000005 0.0
1.090890 0.030862 0.004656 0.0
2.501066 0.445820 0.000306 0.0
3.502745 1.494557 -0.002331 0.0
3.252676 1.999688 -0.002061 0.0
2.238723 0.058573 -0.000905 0.0
0.747475 0.218137 -0.003859 0.0
2.989828 1.228931 0.001294 0.0
0.667507 1.842606 0.001881 0.0
1.828424 1.446636 0.000637 0.0
2.736759 1.770453 0.000764 0.0
2.798975 0.723073 0.000737 0.0
0.995221 0.446922 0.001720 0.0
3.646057 0.657251 -0.001690 0.0
1.387192 1.000123 -0.002897 0.0
3.758591 0.939141 0.001527 0.0
1.452128 0.413727 -0.000513 0.0
2.835537 0.021558 -0.001324 0.0
1.091957 1.153110 0.001309 0.0
1.216300 0.908851 -0.000813 0.0
0.564280 0.032215 -0.001783 0.0
1.848663 1.288680 -0.001245 0.0
1.283251 0.779003 -0.000021 0.0
0.848460 0.136347 0.000785 0.0
3.173518 0.698009 -0.001405 0.0
2.213912 0.080743 0.002995 0.0
3.531128 2.010808 0.000388 0.0
2.575337 1.165661 -0.001193 0.0
1.501182 0.987515 0.002879 0.0
1.474907 0.739819 -0.000201 0.0
0.724358 0.974622 0.001076 0.0
2.763473 0.479529 -0.000200 0.0
0.025984 0.047458 0.002667 0.0
2.325146 1.488382 0.001961 0.0
0.977520 2.103051 0.000057 0.0
1.342451 0.581252 0.004355 0.0
2.860752 1.241429 0.001792 0.0
2.920853 0.255384 0.001439 0.0
2.101928 1.052650 -0.003242 0.0
2.382385 1.234120 0.001770 0.0
0.067793 0.701684 0.001092 0.0
2.284509 0.896660 0.003112 0.0
1.775665 1.376583 0.000200 0.0
2.607885 0.562232 0.000534 0.0
0.813770 1.497908 0.001654 0.0
1.507651 2.046155 0.000711 0.0
0.278650 1.757020 -0.000726 0.0
2.857909 1.037757 -0.000711 0.0
1.961980 1.533755 -0.000532 0.0
3.422351 1.109709 -0.002584 0.0
2.873888 1.915849 -0.000058 0.0
1.858747 1.929260 0.002859 0.0
3.807831 0.943838 0.001172 0.0
0.371225 1.187601 0.001753 0.0
1.168770 0.896989 -0.000669 0.0
4.186755 1.046689 -0.002865 0.0
0.517317 0.483209 0.001485 0.0
1.564805 1.140144 0.000801 0.0
3.699049 0.706142 0.001720 0.0
1.432119 1.043211 -0.000796 0.0
1.731011 0.136641 -0.000315 0.0
1.344288 2.111670 0.002828 0.0
2.611872 1.011856 -0.000061 0.0
0.838471 2.074525 0.001777 0.0
2.137670 2.017604 -0.001022 0.0
1.548978 0.728368 0.006293 0.0
1.003769 0.016406 -0.003502 0.0
4.227204 2.057623 0.000770 0.0
3.757622 0.057855 -0.002077 0.0
2.003364 1.055029 -0.002433 0.0
2.395095 0.404724 0.000563 0.0
2.986067 1.842007 0.000824 0.0
1.201062 1.386116 -0.000735 0.0
1.527724 2.118040 0.001302 0.0
3.102100 1.615740 -0.004181 0.0
3.660635 1.928254 0.002200 0.0
1.276885 2.036644 0.000261 0.0
2.767089 0.878018 -0.001351 0.0
1.923255 1.726854 -0.000874 0.0
1.265059 1.904727 -0.003919 0.0
3.265691 1.862755 -0.003664 0.0
1.707751 1.316631 -0.000481 0.0
3.635847 1.788174 -0.002390 0.0
3.270365 1.480692 0.001097 0.0
1.541455 1.390229 -0.006929 0.0
0.149479 0.385654 0.000358 0.0
1.589633 0.903909 0.000694 0.0
1.676852 0.724877 -0.001270 0.0
2.137774 1.149934 0.002817 0.0
1.168837 1.222595 0.001428 0.0
1.672039 1.436253 0.000363 0.0
0.373243 2.052625 0.004730 0.0
3.170921 1.579971 -0.005141 0.0
3.722484 0.520962 -0.001662 0.0
4.016729 1.808810 0.001643 0.0
0.986334 1.606167 -0.000690 0.0
1.474131 0.637740 0.000054 0.0
0.255107 1.315145 -0.001855 0.0
3.380334 1.536761 0.003707 0.0
1.038063 1.076960 0.003369 0.0
3.116254 0.289155 -0.003248 0.0
0.306658 0.543363 0.000851 0.0
1.534287 1.533618 -0.002648 0.0
2.743192 1.284929 0.001961 0.0
0.075704 0.252294 -0.001051 0.0
3.572194 1.637357 0.003631 0.0
2.164854 1.324753 0.004599 0.0
4.135990 1.627249 -0.004337 0.0
0.924133 0.355418 0.000267 0.0
0.774458 1.996200 -0.000978 0.0
3.014261 0.300507 0.000443 0.0
0.593080 0.787869 -0.000273 0.0
1.020142 0.855638 -0.003895 0.0
1.107361 0.827318 -0.001164 0.0
1.709946 1.171727 -0.001726 0.0
2.884390 1.129116 0.001174 0.0
4.013993 1.348938 0.000179 0.0
2.979835 0.371835 0.000438 0.0
3.634574 1.937466 -0.001754 0.0
2.643517 1.588895 0.003618 0.0
1.741866 0.848853 0.004696 0.0
3.535495 1.729317 0.000532 0.0
2.773735 0.911103 -0.001117 0.0
1.666121 0.676614 -0.001157 0.0
2.559693 0.284488 -0.004740 0.0
3.051582 1.513422 -0.001122 0.0
2.933363 1.266976 0.003524 0.0
3.133712 1.013622 -0.003817 0.0
0.003404 0.536682 0.002462 0.0
2.263608 2.108165 -0.000641 0.0
2.849966 1.120556 0.001586 0.0
1.307234 1.718568 -0.000085 0.0
0.536350 1.589948 0.002406 0.0
3.626003 1.562823 -0.001966 0.0
3.456394 0.450013 -0.002525 0.0
4.295659 1.899676 0.000421 0.0
2.553603 0.891097 0.003348 0.0
4.006570 1.793754 0.003939 0.0
2.589539 1.309676 -0.001814 0.0
4.462869 1.815013 -0.000461 0.0
2.436723 1.551183 0.001645 0.0
3.658321 1.115450 -0.000945 0.0
3.191171 0.397857 0.002890 0.0
1.005805 1.630211 -0.000764 0.0
2.547179 0.014213 0.002003 0.0
1.389291 1.971643 0.001478 0.0
3.695146 0.324136 0.002346 0.0
2.476390 1.942715 0.002358 0.0
2.470064 0.568854 -0.001734 0.0
1.401210 0.540590 0.003104 0.0
2.091363 2.167468 0.000044 0.0
0.507778 0.524660 0.002887 0.0
4.438605 1.065330 0.002842 0.0
3.680585 2.145685 0.003483 0.0
3.931326 0.125413 -0.002320 0.0
1.722840 0.691968 -0.004891 0.0
2.561592 1.775122 0.000213 0.0
0.338521 1.354640 0.000897 0.0
3.869306 1.173020 -0.001857 0.0
2.682062 1.660067 0.004109 0.0
2.154461 1.355948 0.003324 0.0
3.878591 0.566447 0.002510 0.0
2.932053 1.585669 0.001570 0.0
2.316441 1.470349 -0.004811 0.0
1.179177 0.669589 0.004085 0.0
3.264062 0.092391 0.003411 0.0
2.356920 0.693293 0.000420 0.0
2.773186 1.697912 -0.002844 0.0
3.473482 1.710718 -0.000845 0.0
2.508091 1.952410 0.002337 0.0
1.248421 0.306530 0.007606 0.0
0.338702 1.743937 -0.000900 0.0
2.514525 1.194704 -0.002330 0.0
0.822898 1.464651 -0.000091 0.0
4.450159 0.601749 0.000130 0.0
4.012870 1.782691 -0.002498 0.0
3.377458 1.381785 -0.000954 0.0
4.236702 0.514225 0.000557 0.0
4.183190 1.722866 0.002996 0.0
0.482199 0.706092 -0.003766 0.0
1.171814 1.016586 -0.003095 0.0
3.421394 0.887048 -0.002147 0.0
3.372824 1.501651 0.002678 0.0
0.889108 2.105684 0.001122 0.0
3.927998 1.766919 -0.002796 0.0
4.490176 1.408936 0.000879 0.0
0.891225 0.481226 -0.001950 0.0
1.531520 1.275599 0.000356 0.0
2.546957 0.344687 0.002644 0.0
0.553706 1.643217 0.000839 0.0
2.325346 0.599474 0.002580 0.0
2.287432 0.197810 0.000811 0.0
3.874572 1.413105 -0.002853 0.0
2.408391 1.668278 -0.002027 0.0
4.158619 0.271262 0.001861 0.0
3.415858 0.761405 -0.000989 0.0
3.283839 1.625037 0.001123 0.0
2.201682 0.780151 -0.000575 0.0
3.667906 1.145635 -0.000129 0.0
3.333110 0.099027 -0.000076 0.0
1.261345 0.756510 -0.000373 0.0
4.324939 1.725342 0.002249 0.0
2.830889 0.338934 -0.000028 0.0
3.858985 1.090620 0.002478 0.0
3.539786 1.786528 -0.002585 0.0
4.316056 0.623413 -0.001270 0.0
0.172650 0.612943 0.001355 0.0
3.222677 0.962857 0.003130 0.0
0.170229 0.325892 -0.001143 0.0
0.502746 1.915398 -0.003880 0.0
3.406198 1.822751 0.001146 0.0
2.472185 0.886134 -0.006239 0.0
2.915344 1.430658 -0.001079 0.0
3.489701 1.407561 0.000879 0.0
2.550138 1.895499 0.002701 0.0
2.915710 1.908083 0.000748 0.0
0.532577 1.801254 -0.002075 0.0
2.960776 0.762061 0.000108 0.0
3.574824 2.107580 0.001226 0.0
2.338150 1.833394 0.004885 0.0
4.083193 1.458347 0.001554 0.0
0.178568 1.117778 -0.004652 0.0
1.442721 0.771763 0.003544 0.0
1.294418 2.154131 -0.000110 0.0
0.241443 1.658799 -0.001238 0.0
1.344888 0.015364 -0.001471 0.0
0.650960 0.995639 0.000265 0.0
1.751926 2.108148 -0.000602 0.0
3.286481 0.688479 0.000008 0.0
0.075313 0.561955 -0.002022 0.0
3.626167 1.610556 -0.003289 0.0
2.729466 2.005162 0.000185 0.0
0.725416 1.145579 0.000159 0.0
3.948428 0.293933 -0.000273 0.0
1.416607 0.173054 0.001542 0.0
3.250760 0.728980 -0.003633 0.0
4.341501 1.900056 -0.001241 0.0
1.370179 0.707369 -0.001705 0.0
3.125090 0.379893 -0.000491 0.0
2.101897 1.624910 -0.002820 0.0
4.399314 2.030098 0.002683 0.0
0.454176 1.939491 -0.005881 0.0
4.393826 1.349074 0.003675 0.0
0.874953 1.372460 -0.000610 0.0
1.013775 0.844478 0.004503 0.0
1.319569 2.196104 0.000413 0.0
2.263336 1.676741 0.000575 0.0
0.244399 0.724962 0.001505 0.0
0.109407 1.685486 0.001695 0.0
1.549360 0.148123 0.001606 0.0
2.097863 0.993338 -0.000282 0.0
2.969901 1.731093 -0.003115 0.0
4.427813 0.938105 0.002733 0.0
0.423057 1.297025 0.001331 0.0
4.123497 0.621143 -0.004632 0.0
3.714098 0.977434 0.004278 0.0
1.019689 0.532211 0.000537 0.0
1.462296 1.979003 0.000854 0.0
2.075707 0.731826 -0.002954 0.0
3.863054 2.068464 -0.001263 0.0
4.352545 1.408912 -0.004300 0.0
4.421727 0.394316 0.004353 0.0
2.276106 1.211709 0.004156 0.0
3.917066 0.459093 -0.005998 0.0
0.934713 1.927695 -0.000139 0.0
0.539511 0.300854 -0.003542 0.0
2.832986 2.057578 -0.001128 0.0
0.365305 1.228404 -0.001631 0.0
2.847307 0.145275 0.004935 0.0
2.824139 1.080542 0.003583 0.0
0.412946 1.503084 0.003688 0.0
2.469509 1.731538 -0.004248 0.0
0.737575 1.395634 0.002279 0.0
2.359745 0.336690 0.005450 0.0
2.820813 0.662419 0.001578 0.0
0.463956 0.423603 0.004134 0.0
2.742815 0.098046 0.001006 0.0
1.397090 1.759014 -0.002531 0.0
0.152132 2.033664 -0.001727 0.0
4.296151 1.380846 -0.000459 0.0
2.999184 0.258319 -0.004905 0.0
0.412471 0.862613 -0.004667 0.0
1.608907 0.884995 -0.002200 0.0
4.036719 0.795428 0.003466 0.0
1.160371 0.839562 0.000394 0.0
3.125853 0.824977 -0.001396 0.0
4.364731 1.843148 0.001700 0.0
0.006789 0.176051 0.003242 0.0
0.681882 0.480277 -0.001629 0.0
1.247727 0.361296 0.000207 0.0
1.806162 0.983377 0.004151 0.0
2.052402 1.112549 -0.001222 0.0
0.124135 1.427296 0.000344 0.0
3.612314 0.408120 -0.004408 0.0
1.438676 1.686880 0.000550 0.0
0.050142 0.218372 -0.004140 0.0
3.761639 1.264680 0.000118 0.0
0.082746 1.056032 -0.001522 0.0
0.829942 0.148537 -0.002195 0.0
2.616500 0.749467 0.001415 0.0
1.828397 1.456009 0.001800 0.0
3.434473 1.802539 -0.002153 0.0
1.823198 0.113653 -0.000368 0.0
0.834748 1.707848 0.000189 0.0
0.982789 2.020188 0.000220 0.0
0.654286 0.530878 -0.001266 0.0
1.888703 1.426422 -0.002285 0.0
4.098650 0.840082 0.001884 0.0
1.612172 1.070086 0.002501 0.0
0.330246 0.359089 -0.001134 0.0
2.318906 2.031548 -0.003602 0.0
3.324418 0.790117 0.001864 0.0
4.516380 0.922827 -0.002652 0.0
2.869946 0.433408 -0.000135 0.0
0.055451 1.166737 -0.000874 0.0
1.454076 2.106679 0.001111 0.0
0.104980 1.839638 -0.002794 0.0
2.371759 0.832325 0.000707 0.0
2.314761 0.396215 0.001137 0.0
1.310934 2.017688 0.004991 0.0
1.122498 1.252179 0.000046 0.0
1.551153 1.381296 0.001206 0.0
4.116393 0.762114 0.000306 0.0
2.934183 1.840612 -0.004886 0.0
3.010464 0.167001 -0.002956 0.0
0.348592 1.890099 -0.003097 0.0
2.504933 1.397067 -0.001054 0.0
0.451394 0.843902 -0.003263 0.0
0.551081 1.396332 0.005209 0.0
2.813654 2.114219 -0.001952 0.0
3.695130 0.482029 -0.000431 0.0
3.667043 1.610374 0.000234 0.0
2.026814 1.268140 0.004745 0.0
0.940400 2.104983 -0.000765 0.0
1.102055 0.913017 -0.000008 0.0
0.127151 0.437947 0.001006 0.0
2.638533 0.312576 -0.001976 0.0
2.394679 1.467619 0.000269 0.0
2.011811 1.645751 -0.001251 0.0
1.722732 0.942208 0.003445 0.0
4.252824 0.068377 -0.000977 0.0
2.253456 2.066539 -0.002288 0.0
0.824617 1.887773 0.001390 0.0
3.929046 0.950088 -0.002824 0.0
2.822801 1.590454 -0.002908 0.0
2.148640 0.185805 -0.001975 0.0
1.649987 1.077174 -0.002754 0.0
0.743005 2.117277 0.000717 0.0
0.531481 2.102127 0.003494 0.0
1.958397 0.629108 -0.003563 0.0
2.418962 1.309395 -0.000538 0.0
2.599572 1.887052 0.000915 0.0
2.576203 0.498307 0.001752 0.0
2.139787 0.397345 -0.002162 0.0
2.019116 2.133905 0.002790 0.0
3.799750 0.105003 -0.004312 0.0
0.681525 0.836451 -0.004778 0.0
2.546404 1.456485 0.003219 0.0
1.883774 1.972950 -0.001456 0.0
3.256896 0.716763 -0.000823 0.0
0.673429 1.257589 -0.000103 0.0
0.460398 1.486346 -0.001602 0.0
3.031787 0.494924 0.000074 0.0
2.784852 0.415814 -0.000881 0.0
3.772335 0.922728 0.001967 0.0
1.892051 1.819825 -0.002214 0.0
4.022777 1.490764 -0.000490 0.0
0.991911 0.675954 -0.000965 0.0
4.017320 0.549490 0.001524 0.0
4.478430 0.133893 0.001585 0.0
2.904190 1.691147 -0.003311 0.0
1.855395 1.457748 -0.001523 0.0
3.795243 0.590380 0.004572 0.0
0.906765 0.140674 -0.003287 0.0
4.384622 1.361183 -0.000608 0.0
3.963529 1.885471 -0.000102 0.0
2.383523 1.860195 -0.002565 0.0
1.635775 0.582367 -0.000265 0.0
4.094689 0.383720 0.000384 0.0
0.652439 2.008651 -0.001779 0.0
0.108281 0.567769 -0.000480 0.0
0.101507 0.074730 -0.001039 0.0
3.847804 0.404244 0.000374 0.0
1.698567 1.295418 -0.001473 0.0
3.867902 0.342559 -0.002918 0.0
4.137253 0.421341 -0.002310 0.0
4.354647 1.306437 -0.002879 0.0
2.908110 1.378908 0.003449 0.0
1.850242 0.089345 -0.000713 0.0
4.330107 1.281309 -0.001879 0.0
2.281516 0.912311 -0.000615 0.0
1.098604 1.192549 -0.002406 0.0
1.845317 0.606217 0.005206 0.0
1.334698 1.997855 0.002471 0.0
3.408041 0.834413 -0.006294 0.0
2.874754 2.145835 -0.001514 0.0
3.554719 0.418757 0.003174 0.0
2.299971 0.192812 0.002305 0.0
3.380747 1.664438 0.000884 0.0
2.710038 1.798408 -0.000810 0.0
0.044866 2.183901 0.005214 0.0
4.205642 0.827241 0.000194 0.0
3.884791 0.204817 0.005098 0.0
1.806074 1.329493 0.002293 0.0
1.316440 0.877792 0.000824 0.0
2.810434 0.623018 0.000570 0.0
1.864362 0.773250 -0.003088 0.0
0.092631 1.044611 -0.004366 0.0
1.795441 1.073122 -0.000655 0.0
0.880149 1.395324 -0.002903 0.0
0.268764 1.903166 -0.001376 0.0
2.066102 0.520898 -0.003761 0.0
3.966577 2.108131 0.001075 0.0
2.004455 1.243774 0.003729 0.0
0.060610 0.284019 0.000318 0.0
0.917391 0.120724 0.001966 0.0
0.388845 1.694700 0.002461 0.0
1.599147 0.173546 0.001365 0.0
0.468925 1.353389 0.000847 0.0
0.322359 0.634241 -0.005279 0.0
0.436217 0.876907 -0.001924 0.0
0.862817 0.469597 0.001096 0.0
3.979837 0.605892 0.001032 0.0
3.349542 1.634972 -0.002329 0.0
2.575736 0.154764 -0.003163 0.0
3.847105 0.609484 0.001824 0.0
4.106260 0.735952 0.001593 0.0
2.798346 1.709823 0.001477 0.0
2.912339 0.476338 0.003058 0.0
2.641555 1.019554 0.000011 0.0
3.909308 0.112145 -0.002629 0.0
0.762285 1.334807 0.000897 0.0
3.026173 2.029278 -0.002743 0.0
2.826573 1.701957 -0.002166 0.0
3.115538 1.117620 0.000775 0.0
0.981648 2.146704 0.001703 0.0
2.571417 0.729072 -0.002143 0.0
2.557628 0.484402 -0.000321 0.0
0.118920 1.972361 0.000813 0.0
0.127709 0.480166 0.002104 0.0
1.411995 0.978899 -0.002810 0.0
3.870857 1.178950 0.002019 0.0
0.916320 0.244406 -0.002203 0.0
3.694771 0.991199 0.000973 0.0
3.115358 1.868155 0.001029 0.0
0.274500 1.070021 0.002726 0.0
0.231174 1.183838 0.001363 0.0
1.443900 0.553232 0.001403 0.0
0.068447 0.485643 -0.000557 0.0
4.013443 1.122708 -0.001720 0.0
3.291446 0.662876 0.003060 0.0
2.639040 1.971420 -0.001675 0.0
0.690875 0.633056 0.005783 0.0
3.713379 1.882521 -0.001857 0.0
1.828116 1.166648 0.002522 0.0
2.256699 0.128610 -0.000810 0.0
0.621894 1.760682 -0.000722 0.0
3.960088 1.832374 -0.000271 0.0
3.087202 1.458258 -0.004187 0.0
2.741599 0.423819 0.003787 0.0
2.909454 0.602417 -0.001465 0.0
0.641601 0.945767 -0.002221 0.0
1.566016 1.675861 -0.002254 0.0
2.917676 1.612533 -0.000563 0.0
2.136318 0.564235 -0.004531 0.0
3.919406 1.564347 0.000998 0.0
0.250092 2.145220 -0.000387 0.0
3.459232 0.073941 -0.002290 0.0
3.332023 1.119631 -0.003309 0.0
2.915486 0.693326 0.001662 0.0
1.857086 0.380312 -0.007680 0.0
1.894856 0.338105 0.001681 0.0
4.029208 0.734318 -0.001807 0.0
2.773910 0.311140 -0.004857 0.0
3.249684 1.134704 -0.001380 0.0
3.490457 0.315770 -0.000786 0.0
3.589566 1.634285 0.004013 0.0
1.612400 0.605866 -0.001239 0.0
2.325015 0.431260 0.000186 0.0
1.384159 1.805342 -0.001795 0.0
1.500811 0.917570 -0.001705 0.0
1.684208 0.170603 -0.003001 0.0
1.101427 1.618397 0.001770 0.0
3.311812 0.383892 0.002830 0.0
2.145062 1.283130 -0.000779 0.0
0.937855 1.358513 0.002378 0.0
2.892133 0.730385 -0.000922 0.0
0.827436 1.515906 -0.000149 0.0
3.535317 1.566013 0.000093 0.0
2.068499 0.288283 -0.004063 0.0
1.768037 1.852404 -0.001398 0.0
1.287351 1.585181 0.000485 0.0
2.042288 0.173827 -0.001307 0.0
0.768376 0.656538 -0.001051 0.0
2.609916 0.224005 -0.002370 0.0
0.279088 0.260472 0.002762 0.0
1.092101 1.721667 -0.000319 0.0
1.683565 0.578502 -0.000487 0.0
2.249425 0.880333 -0.000040 0.0
3.522077 1.544930 0.004329 0.0
1.162035 1.471052 0.002215 0.0
0.000344 0.554618 0.003728 0.0
4.109914 0.936723 -0.001439 0.0
3.479159 1.771459 -0.003794 0.0
1.943026 0.027067 0.000642 0.0
0.062371 1.781853 0.000791 0.0
0.580330 0.191156 0.000549 0.0
2.563298 1.749705 0.007163 0.0
2.163360 1.945792 -0.000777 0.0
1.032105 1.439603 0.000836 0.0
0.645297 0.126268 0.001652 0.0
1.200038 0.980638 0.001451 0.0
4.061760 2.081716 0.001874 0.0
1.350911 0.723330 -0.000066 0.0
3.445406 1.288644 0.000999 0.0
1.891222 1.345574 0.001322 0.0
2.686970 1.064422 0.005189 0.0
1.814412 1.712145 -0.006992 0.0
2.194416 0.171423 0.001735 0.0
3.723731 1.870599 0.000843 0.0
0.352602 1.736031 -0.000240 0.0
4.336233 1.721704 -0.001877 0.0
1.534470 0.658745 0.001475 0.0
2.694926 0.588485 0.001934 0.0
4.063676 2.151914 0.003954 0.0
4.457204 1.865796 0.002069 0.0
3.689568 0.778533 0.004122 0.0
3.348134 1.863490 0.002359 0.0
1.562203 1.975489 -0.004032 0.0
2.347265 1.974960 0.000605 0.0
2.998515 0.745307 0.002586 0.0
2.035892 0.598094 0.002039 0.0
0.119658 0.319811 0.004942 0.0
0.035762 1.905608 0.000673 0.0
1.685106 0.280327 0.001246 0.0
0.689244 0.890836 0.000679 0.0
2.120139 2.049757 -0.002877 0.0
3.524427 1.122752 -0.001388 0.0
3.840020 0.781417 0.002054 0.0
1.390584 1.709290 -0.001002 0.0
0.560060 1.355868 -0.005024 0.0
0.542230 1.240374 -0.003298 0.0
2.283102 0.008721 -0.004339 0.0
0.141958 1.111605 0.001876 0.0
1.483259 1.800630 0.003601 0.0
2.573196 1.225811 0.001970 0.0
0.860380 1.542965 -0.001771 0.0
3.165077 0.901747 -0.004356 0.0
1.823560 0.834463 0.001479 0.0
3.624211 1.766851 -0.000711 0.0
1.868005 1.428617 0.001007 0.0
1.825165 0.172373 -0.001792 0.0
3.642953 0.354348 -0.006463 0.0
0.817766 0.543533 0.002026 0.0
1.622812 2.010813 0.001138 0.0
2.458851 1.605847 0.002642 0.0
4.274597 1.334541 0.002435 0.0
1.766498 0.046953 -0.000195 0.0
0.221616 0.252153 0.000547 0.0
3.208083 0.977753 -0.004183 0.0
2.013897 0.558223 -0.001457 0.0
1.810721 0.058748 -0.003065 0.0
3.142142 1.116265 -0.001183 0.0
3.946527 1.172742 -0.001217 0.0
3.990411 1.485270 0.000824 0.0
1.910670 1.450670 0.000714 0.0
0.770680 1.146869 0.002044 0.0
2.717397 2.128086 0.000871 0.0
2.557211 0.135383 0.001775 0.0
1.543984 0.826362 -0.001805 0.0
1.656612 0.523130 -0.000748 0.0
3.568032 0.743801 -0.000734 0.0
0.203647 1.672255 -0.004455 0.0
0.695202 0.777635 0.003507 0.0
3.010145 1.644690 -0.000341 0.0
3.658789 1.355063 0.001036 0.0
3.919635 1.960387 0.002752 0.0
3.085969 1.325290 0.002882 0.0
0.509284 0.484195 -0.000514 0.0
4.163278 0.081612 -0.001634 0.0
1.207299 0.481755 -0.002400 0.0
0.579485 0.930132 0.001686 0.0
2.649457 0.221550 -0.000378 0.0
4.294937 1.114544 -0.000427 0.0
4.277005 1.846104 0.003214 0.0
2.094189 0.302455 -0.000048 0.0
0.309845 1.034017 -0.000439 0.0
0.531832 0.360380 -0.000308 0.0
1.807971 0.189893 0.001369 0.0
0.440137 1.586523 0.002703 0.0
0.689465 2.153819 0.002065 0.0
1.584641 0.528558 -0.002113 0.0
3.950207 0.548516 -0.000069 0.0
4.021635 0.206406 -0.000177 0.0
0.629702 2.052039 0.001747 0.0
0.548650 0.889940 -0.000316 0.0
2.830674 1.668080 0.002442 0.0
0.087374 0.940465 0.000564 0.0
3.107101 1.943954 -0.003302 0.0
2.797654 1.623049 0.001674 0.0
4.034488 1.557377 0.003123 0.0
4.412396 0.778309 -0.001780 0.0
3.267552 0.644425 -0.000769 0.0
1.635767 0.683097 -0.001732 0.0
0.738375 0.799306 0.001051 0.0
0.805470 1.842767 0.003515 0.0
2.880709 1.099888 0.001589 0.0
4.106807 0.013066 -0.003005 0.0
1.227829 0.435082 -0.001894 0.0
0.798399 1.822610 0.000187 0.0
2.705816 1.000568 0.001447 0.0
1.286109 1.453160 -0.000154 0.0
1.654267 2.081299 -0.001025 0.0
1.470593 1.009291 0.000010 0.0
0.463086 1.521717 0.000272 0.0
0.770101 0.340447 -0.001114 0.0
3.039610 1.088769 -0.001223 0.0
0.126048 1.426924 0.002096 0.0
1.992683 1.593654 0.001131 0.0
0.983059 0.699029 -0.002083 0.0
3.368493 2.040675 -0.002216 0.0
1.733225 1.730680 0.002990 0.0
3.285241 0.956578 0.003677 0.0
3.186015 0.776421 -0.000065 0.0
2.352700 0.518897 0.000047 0.0
3.444399 2.048015 0.006211 0.0
4.247199 2.063566 -0.001563 0.0
3.575841 0.198079 -0.001073 0.0
3.006929 1.286042 -0.000956 0.0
4.133997 0.377654 -0.002069 0.0
2.110771 1.090220 -0.001120 0.0
2.413406 1.624164 0.000905 0.0
0.697660 1.322786 0.001371 0.0
3.643234 0.215903 -0.000768 0.0
2.264876 1.310430 -0.000357 0.0
3.305822 0.365074 -0.003824 0.0
1.952738 0.386910 0.003062 0.0
0.152893 0.778781 0.003035 0.0
1.726785 1.889146 0.005252 0.0
4.486277 1.050639 0.000070 0.0
0.520373 2.147536 -0.005945 0.0
0.000780 2.178292 -0.002325 0.0
4.310096 0.981792 -0.006461 0.0
0.817433 0.774095 0.000115 0.0
3.312793 0.232226 0.000352 0.0
0.006087 0.642056 -0.000414 0.0
3.389172 0.477521 -0.001057 0.0
1.512169 0.124725 -0.001911 0.0
2.440405 0.084471 -0.000925 0.0
4.208669 1.309715 0.003020 0.0
4.266969 1.736588 0.002198 0.0
4.228871 1.397083 -0.002192 0.0
3.399060 2.074277 0.003424 0.0
2.796114 1.286504 0.002676 0.0
2.635172 2.139789 -0.002482 0.0
4.103841 1.822633 0.001009 0.0
1.364067 1.424794 -0.001621 0.0
2.243550 1.311524 0.000933 0.0
3.054416 1.666947 -0.002396 0.0
1.429499 2.167196 0.003220 0.0
2.705549 0.948544 -0.001159 0.0
3.573462 1.364055 0.001419 0.0
2.878669 0.204075 -0.005112 0.0
4.186372 1.412661 -0.000587 0.0
3.272914 0.405045 0.000965 0.0
1.823814 2.085858 -0.001026 0.0
0.798416 0.165714 -0.002991 0.0
2.666967 1.018102 -0.000120 0.0
3.877458 0.997368 -0.000491 0.0
4.078763 1.933542 0.002045 0.0
1.232239 1.746570 -0.001200 0.0
3.925493 1.609311 0.003385 0.0
3.217289 0.617680 0.004571 0.0
3.530500 1.050671 0.002570 0.0
4.279883 0.840031 -0.002572 0.0
3.927148 0.180386 0.003589 0.0
3.372704 1.828163 -0.001299 0.0
2.854858 0.266398 -0.001924 0.0
4.116779 1.534583 0.002200 0.0
0.815654 1.357709 0.003860 0.0
4.083224 1.638603 0.001784 0.0
4.450528 1.568833 -0.003160 0.0
4.266789 2.182167 -0.001045 0.0
2.842363 0.492361 0.005089 0.0
4.250884 1.677546 -0.001153 0.0
0.424653 0.165821 0.001157 0.0
4.500760 0.164462 -0.003161 0.0
1.554940 1.264285 -0.001187 0.0
3.934212 0.150432 0.001855 0.0
2.862367 2.189828 0.002363 0.0
3.062327 1.811085 0.001102 0.0
0.196916 1.356076 -0.000026 0.0
0.951189 0.837544 -0.002874 0.0
0.867093 0.702754 0.001692 0.0
0.726968 0.149564 -0.000533 0.0
3.055114 0.521879 0.000685 0.0
2.510520 0.799559 -0.001240 0.0
1.214983 0.649171 -0.000680 0.0
2.820886 0.145530 0.005603 0.0
1.118968 0.643974 0.002933 0.0
2.660150 0.611206 -0.000492 0.0
0.387690 1.191586 -0.001764 0.0
3.422547 0.329772 -0.004790 0.0
2.583934 1.097226 0.002022 0.0
0.916188 1.491031 0.002616 0.0
0.436080 1.074814 -0.000187 0.0
0.230745 0.083870 0.001290 0.0
1.688905 1.838018 -0.000321 0.0
2.287170 1.536524 0.001767 0.0
0.653965 0.337256 -0.000876 0.0
3.107403 1.300740 -0.002981 0.0
0.914428 0.728646 0.000278 0.0
3.245316 2.028596 -0.000905 0.0
0.443742 0.170450 0.001710 0.0
3.350860 0.590251 -0.003651 0.0
1.956617 1.035421 -0.001028 0.0
2.416390 1.250925 -0.002873 0.0
0.415519 0.525019 0.000521 0.0
0.701590 1.260213 -0.003304 0.0
0.836037 0.301180 0.001902 0.0
3.613869 1.674653 0.000102 0.0
1.955512 1.917405 0.000337 0.0
3.742433 1.737220 -0.002815 0.0
1.674906 1.888460 -0.000317 0.0
0.392677 1.032319 0.001213 0.0
3.676913 0.344268 -0.000108 0.0
0.072791 1.392428 0.000393 0.0
2.151698 1.120884 0.000083 0.0
4.217984 0.425974 -0.001123 0.0
2.266092 0.327114 0.000942 0.0
2.004235 0.610014 0.004946 0.0
4.067933 1.943884 -0.001806 0.0
3.034188 0.516200 0.000454 0.0
0.326916 1.045880 -0.000364 0.0
1.457847 1.495657 0.003162 0.0
3.481798 1.423480 0.002221 0.0
0.038826 0.121195 -0.000217 0.0
4.351018 0.061776 -0.001885 0.0
3.274370 0.786008 -0.006635 0.0
1.339925 1.774977 -0.000705 0.0
4.326555 0.964844 0.000046 0.0
2.056377 0.471399 -0.000484 0.0
2.624924 1.385259 0.002866 0.0
4.211162 0.551023 -0.003614 0.0
3.178802 1.201156 -0.000272 0.0
4.244058 0.827233 0.002089 0.0
2.577187 1.537122 -0.000981 0.0
3.400980 1.956511 0.003662 0.0
2.113826 0.272556 0.000515 0.0
2.588685 1.852024 -0.001634 0.0
1.968763 2.009970 -0.002107 0.0
4.489765 1.232311 0.004640 0.0
1.505400 0.994172 0.001046 0.0
1.806057 2.106249 -0.003133 0.0
1.821413 2.120321 -0.000213 0.0
2.721542 1.591831 -0.001480 0.0
2.371517 1.491786 -0.001691 0.0
1.164934 1.502513 -0.002412 0.0
3.433430 0.165331 -0.002241 0.0
4.360484 0.690267 0.001088 0.0
0.840217 0.260724 0.002223 0.0
3.697710 0.971644 0.001101 0.0
3.555407 1.390429 -0.009127 0.0
0.336505 1.371475 0.001551 0.0
1.444467 1.028944 0.003969 0.0
2.757517 1.126020 -0.003453 0.0
2.933493 0.624681 0.002280 0.0
3.130750 2.182133 -0.001235 0.0
0.111876 1.088907 -0.001237 0.0
1.134247 2.051553 0.002025 0.0
1.662420 0.881184 0.003059 0.0
0.691457 1.420924 0.000404 0.0
0.276683 1.411927 0.002272 0.0
2.956801 2.134512 -0.004624 0.0
4.292313 2.201376 -0.000866 0.0
3.727872 0.390079 -0.005214 0.0
0.866108 0.729017 -0.001895 0.0
1.695750 0.822095 0.004525 0.0
2.172631 0.929146 -0.000848 0.0
2.534091 1.415950 -0.003452 0.0
4.340390 2.024908 -0.001336 0.0
2.559553 1.209298 -0.000089 0.0
4.312933 1.649878 -0.000390 0.0
1.071805 0.059070 -0.001796 0.0
2.473924 1.279018 0.001212 0.0
1.899558 1.102580 0.002555 0.0
2.339149 0.971681 -0.000584 0.0
3.488400 1.214852 0.003052 0.0
4.266201 0.671383 0.002504 0.0
2.909153 1.188487 0.000435 0.0
1.801543 0.103302 0.000346 0.0
3.776915 1.772836 -0.001000 0.0
2.737145 0.606117 0.001926 0.0
3.413612 2.028218 0.002820 0.0
1.712450 1.172291 0.006127 0.0
1.369224 1.423061 -0.004740 0.0
3.929025 0.368393 0.000159 0.0
2.236681 1.706552 -0.000968 0.0
2.537966 0.890159 0.005768 0.0
2.709388 1.304082 0.000155 0.0
1.968206 1.132066 -0.001921 0.0
2.743630 0.485902 -0.002083 0.0
0.581548 0.821398 0.001343 0.0
1.426842 0.771895 -0.000907 0.0
0.737498 0.155453 -0.003676 0.0
1.746425 0.241224 -0.003566 0.0
3.630341 0.355294 0.003076 0.0
1.594483 0.379001 -0.002908 0.0
3.588134 0.230456 0.000432 0.0
4.115097 0.289204 -0.002349 0.0
1.596729 1.509158 -0.002729 0.0
2.540770 2.142485 -0.005323 0.0
4.002184 0.553455 -0.000107 0.0
3.798916 2.100050 0.000820 0.0
4.444578 0.417460 -0.001981 0.0
3.599026 0.623491 -0.003992 0.0
3.112322 1.621477 0.000372 0.0
2.414194 1.198269 -0.002050 0.0
1.802614 0.552464 0.001924 0.0
2.537908 0.302429 0.002449 0.0
2.253713 0.795095 0.005756 0.0
0.902680 1.660658 -0.000100 0.0
4.100324 1.718598 -0.001315 0.0
3.188615 1.648060 0.001434 0.0
0.477576 0.133255 -0.002170 0.0
1.636588 1.153971 -0.001529 0.0
3.989016 0.156865 0.005631 0.0
2.009362 2.121566 0.001093 0.0
1.533816 0.784501 0.000213 0.0
2.403006 1.332862 -0.001182 0.0
2.644142 2.099237 -0.002564 0.0
1.386522 0.664442 0.005082 0.0
1.237688 0.198770 0.001314 0.0
1.484235 0.217525 0.000769 0.0
4.425509 1.451390 -0.001799 0.0
1.592424 1.202731 -0.000713 0.0
2.724277 0.580885 -0.002725 0.0
1.931465 0.924912 -0.003323 0.0
1.112421 1.721583 0.001162 0.0
1.212624 0.201246 0.000954 0.0
2.223111 0.371080 -0.001425 0.0
0.905884 0.749623 -0.005218 0.0
3.716768 0.685766 0.000803 0.0
3.726112 1.882112 -0.000497 0.0
4.479673 0.262451 0.005484 0.0
0.663750 0.911641 -0.000561 0.0
0.887497 0.296047 0.001379 0.0
0.382742 0.724657 -0.002683 0.0
4.156834 0.314653 0.000047 0.0
4.371184 0.791175 0.005202 0.0
0.176760 0.290457 -0.000115 0.0
0.735486 0.895185 -0.000275 0.0
1.235543 1.510898 0.000383 0.0
3.649438 1.783338 0.000822 0.0
3.613953 1.274803 -0.000661 0.0
3.089878 0.768862 0.001954 0.0
2.438501 0.266113 -0.000507 0.0
0.420023 0.772691 -0.006269 0.0
4.327107 1.368584 0.002085 0.0
2.101069 2.082447 0.002578 0.0
1.426956 1.341972 0.001395 0.0
0.169011 0.609569 0.002800 0.0
3.020106 1.422386 -0.001287 0.0
2.795044 1.305220 0.001282 0.0
3.284024 1.207353 0.000642 0.0
2.564392 1.464443 -0.002703 0.0
1.095367 0.191976 -0.001280 0.0
0.363193 0.277601 0.002810 0.0
2.109564 1.411927 0.000837 0.0
0.365088 1.334752 0.000997 0.0
1.959957 1.668758 0.000217 0.0
2.001790 0.184498 -0.002578 0.0
3.743183 1.478299 0.001127 0.0
0.247339 1.299346 0.000263 0.0
0.893753 1.721756 -0.000074 0.0
0.054480 0.639025 -0.001517 0.0
0.762528 0.510255 0.005813 0.0
2.615972 0.416338 -0.002998 0.0
2.553918 1.309041 0.000563 0.0
2.578104 1.533654 -0.001631 0.0
2.637008 1.681857 0.001602 0.0
0.996211 1.522170 -0.002298 0.0
2.328226 0.908490 -0.000521 0.0
0.185451 0.083910 0.006850 0.0
1.927940 1.895529 -0.001259 0.0
1.637676 0.944960 -0.003156 0.0
2.442682 1.004924 -0.000327 0.0
2.631683 0.110016 0.000733 0.0
2.222019 0.359969 0.001444 0.0
3.880839 0.010881 -0.003674 0.0
2.905338 0.240220 -0.001460 0.0
0.712225 0.017009 -0.001401 0.0
2.480320 0.495317 -0.000944 0.0
3.030987 0.569691 -0.000473 0.0
2.750714 1.138826 -0.000685 0.0
3.782022 0.577823 0.002455 0.0
3.713902 1.269192 0.000450 0.0
0.277982 1.440226 -0.006047 0.0
1.614179 1.558469 -0.000658 0.0
1.482198 0.826644 0.000970 0.0
3.191353 1.554584 0.005314 0.0
3.578473 0.504278 -0.000651 0.0
0.445872 0.674223 0.000502 0.0
2.741391 1.063350 -0.000288 0.0
1.431789 0.691934 -0.003698 0.0
3.606505 1.831902 0.000687 0.0
1.391245 1.313524 -0.003161 0.0
0.729407 0.415854 -0.000960 0.0
3.105220 0.776640 -0.005579 0.0
1.706802 0.597923 0.002003 0.0
1.580209 0.838778 0.005616 0.0
4.177394 0.831859 0.003279 0.0
3.900775 2.153998 0.000750 0.0
0.866421 2.104083 0.001122 0.0
0.206939 0.039072 0.003902 0.0
3.432568 0.777521 -0.002276 0.0
3.414194 0.686824 0.002469 0.0
4.323184 1.713346 0.000087 0.0
3.455936 0.617589 -0.000441 0.0
1.516163 1.813654 0.000846 0.0
3.508845 0.811256 -0.001637 0.0
0.119727 2.169598 0.004325 0.0
2.320614 0.752898 0.002341 0.0
0.562013 1.400456 -0.003003 0.0
1.709075 0.369069 -0.001713 0.0
2.927725 2.167006 -0.002822 0.0
0.812569 1.294480 -0.004763 0.0
1.961877 0.241249 0.002657 0.0
1.740344 0.631737 0.002233 0.0
3.027914 2.165381 -0.002246 0.0
3.997951 0.225614 0.002053 0.0
4.004422 0.578797 -0.000874 0.0
2.503747 1.410455 0.002131 0.0
1.486078 1.619906 -0.000607 0.0
0.691780 1.158656 0.002579 0.0
0.748768 0.930635 0.000990 0.0
3.913265 0.244847 -0.002432 0.0
1.409499 0.792777 -0.005732 0.0
1.253443 0.301086 -0.001026 0.0
2.975841 0.998313 -0.000239 0.0
0.233781 0.453056 -0.001460 0.0
1.185578 1.271690 -0.000277 0.0
4.082251 0.652344 0.006015 0.0
2.254217 0.825504 0.001493 0.0
1.561838 1.714904 -0.000727 0.0
1.772237 1.988247 0.000051 0.0
0.681988 1.498428 0.000668 0.0
3.022337 0.147459 0.001028 0.0
1.162315 0.829280 0.000092 0.0
0.520477 1.653081 -0.000427 0.0
3.949588 0.321731 -0.002748 0.0
0.159907 0.251287 -0.001888 0.0
0.403980 1.800877 0.001307 0.0
1.773757 1.863925 -0.003444 0.0
1.263703 1.132707 0.000348 0.0
2.429781 1.040773 0.004444 0.0
4.024258 1.604750 0.002720 0.0
2.536681 0.958055 0.000720 0.0
3.954201 1.035781 0.001108 0.0
3.028252 0.355245 -0.003102 0.0
1.298075 0.766137 -0.005969 0.0
3.412695 2.143702 0.005151 0.0
2.067374 2.183873 0.001779 0.0
3.194686 0.700975 -0.002145 0.0
3.887880 2.018022 0.002959 0.0
2.909429 1.005770 0.002305 0.0
0.921583 0.358937 -0.005368 0.0
3.747295 0.081137 -0.000248 0.0
4.351686 1.867283 0.001353 0.0
3.357825 1.688929 0.000083 0.0
2.775560 2.118948 0.000036 0.0
3.742108 0.099904 -0.002641 0.0
2.667976 0.680422 -0.000803 0.0
3.969124 1.022433 0.003633 0.0
0.856976 1.015628 0.000402 0.0
3.492212 1.565290 0.002723 0.0
1.364139 0.600207 0.004543 0.0
0.776141 2.076739 -0.001646 0.0
2.276331 1.299205 -0.001526 0.0
2.361808 1.679275 0.003037 0.0
0.290725 1.867765 0.003301 0.0
0.856228 1.322752 -0.003314 0.0
0.084539 1.736569 0.000349 0.0
0.339708 0.454586 -0.000968 0.0
2.116102 1.393443 0.004321 0.0
1.244493 1.706284 0.001947 0.0
3.673060 0.176277 -0.000954 0.0
3.345204 1.579621 0.003000 0.0
0.313355 0.853424 0.002106 0.0
2.665222 1.879565 0.001063 0.0
2.565981 0.266297 0.000796 0.0
0.159731 0.819025 0.000983 0.0
1.480720 2.150875 0.001894 0.0
4.419066 1.310491 0.002144 0.0
2.515311 0.016894 0.000376 0.0
4.359386 1.336502 -0.001015 0.0
1.156853 0.661892 -0.000821 0.0
3.645922 0.881995 -0.003807 0.0
0.997381 1.958827 -0.001541 0.0
0.128503 0.093964 0.002688 0.0
2.397219 0.065945 0.001684 0.0
0.806535 0.031348 -0.000734 0.0
2.458014 1.538837 -0.004128 0.0
0.260155 0.046457 0.006781 0.0
0.060095 1.047891 -0.001301 0.0
1.581368 2.192584 -0.000474 0.0
1.288582 0.786537 0.002148 0.0
2.260078 1.817758 -0.001713 0.0
1.459736 0.245224 0.004272 0.0
0.508315 0.006590 0.000264 0.0
0.862240 0.030811 -0.000712 0.0
1.760100 1.360073 -0.006158 0.0
0.519328 0.258555 0.000288 0.0
3.217740 0.417163 -0.000871 0.0
0.763771 1.688958 0.000518 0.0
1.831437 0.687342 -0.001284 0.0
3.377920 0.785398 0.003018 0.0
2.702864 0.539616 0.003508 0.0
1.569683 0.608806 0.002298 0.0
4.056092 1.179744 0.001420 0.0
0.923994 0.852712 0.002154 0.0
1.879847 1.656949 0.003798 0.0
4.091345 1.197099 -0.001047 0.0
0.792055 1.485446 0.000053 0.0
1.942418 1.694281 -0.002289 0.0
3.121971 0.979376 -0.000044 0.0
1.402046 1.496975 -0.002867 0.0
0.385921 0.939229 -0.001042 0.0
3.317303 0.800854 -0.000324 0.0
2.755123 0.204350 -0.005355 0.0
2.538896 1.700384 -0.000316 0.0
0.635486 0.461962 -0.000722 0.0
3.794060 1.036761 0.000415 0.0
1.697191 0.184827 -0.002392 0.0
3.463809 1.264030 -0.000988 0.0
3.335127 0.801483 -0.002456 0.0
3.496720 0.938801 0.002411 0.0
2.794418 1.302789 -0.001233 0.0
0.592451 0.522034 -0.003179 0.0
1.834029 2.126676 -0.000852 0.0
1.863578 1.815376 -0.001191 0.0
2.659519 1.259123 0.001102 0.0
3.106757 0.387222 0.001284 0.0
3.274556 1.981490 -0.004744 0.0
1.142704 0.485187 -0.002370 0.0
4.194603 0.154930 0.000318 0.0
0.050615 0.682559 0.002493 0.0
3.808021 0.110604 0.000545 0.0
0.945546 1.128971 -0.001675 0.0
3.877262 1.526488 -0.001436 0.0
3.539384 0.182091 -0.000460 0.0
2.128496 1.788587 -0.005288 0.0
4.044379 0.857667 -0.001501 0.0
3.304410 1.717627 -0.000556 0.0
0.883032 0.841652 -0.000211 0.0
0.872709 0.222069 -0.002272 0.0
3.236754 1.650103 0.006864 0.0
4.452502 0.426283 -0.002648 0.0
0.931243 1.371261 -0.000247 0.0
2.241906 2.173360 -0.001770 0.0
0.413339 1.613879 0.002287 0.0
1.772172 1.403581 0.002287 0.0
3.324006 0.649031 0.000953 0.0
3.382914 0.758600 -0.002253 0.0
0.078009 0.219058 -0.000896 0.0
3.165972 0.603003 -0.002236 0.0
3.983301 1.935617 -0.000928 0.0
2.920716 0.820252 0.003227 0.0
2.547625 0.382553 -0.000992 0.0
3.776168 1.617345 0.001191 0.0
3.418837 0.316054 0.000115 0.0
2.738430 1.937653 0.000381 0.0
4.204247 1.617434 -0.002709 0.0
2.887725 0.728243 0.002777 0.0
2.384000 1.993746 0.001580 0.0
2.279211 1.639584 0.001620 0.0
0.789505 1.105697 -0.001052 0.0
4.169768 0.591597 0.000192 0.0
4.031727 1.191182 -0.002309 0.0
2.953122 1.722121 0.001590 0.0
0.528227 1.578867 0.003386 0.0
3.694584 0.488517 0.001290 0.0
0.056035 1.810926 -0.001489 0.0
2.277903 1.042232 -0.000316 0.0
2.381108 2.052552 0.000784 0.0
2.441563 1.203062 -0.001601 0.0
1.472306 0.621857 -0.002218 0.0
2.818753 0.377279 -0.003789 0.0
4.500215 1.970754 0.001824 0.0
4.150007 1.707214 0.003693 0.0
3.385847 1.125911 -0.004802 0.0
1.106667 0.761411 0.006033 0.0
3.742807 2.161497 0.003321 0.0
3.130465 1.970974 -0.001568 0.0
0.288222 0.726234 -0.000193 0.0
3.951393 1.367911 0.004747 0.0
1.383389 1.888696 0.003613 0.0
0.011015 1.616034 -0.001188 0.0
3.001871 1.894365 0.004397 0.0
4.036596 1.657138 0.000270 0.0
3.435876 1.487593 0.000033 0.0
0.713335 0.337211 -0.000273 0.0
1.855729 1.787703 -0.003799 0.0
1.731339 0.636885 0.001588 0.0
3.728892 1.245884 0.003036 0.0
4.218838 0.133522 -0.000206 0.0
1.121667 0.071470 -0.000787 0.0
2.717507 1.443651 0.001706 0.0
1.385500 0.448448 0.002314 0.0
1.804409 2.108318 -0.001136 0.0
0.659831 1.337921 -0.002335 0.0
1.282416 0.992391 0.005037 0.0
3.996051 0.826031 -0.001852 0.0
3.556908 2.085515 0.003660 0.0
3.680673 1.408474 0.001824 0.0
3.216619 1.694871 -0.004152 0.0
2.536994 0.532579 0.001323 0.0
1.706830 0.844786 -0.004631 0.0
4.035639 1.659396 -0.003561 0.0
3.694815 1.186966 -0.001152 0.0
1.865995 1.675128 -0.002523 0.0
2.290737 2.146073 0.005887 0.0
2.341145 1.059612 -0.003234 0.0
0.086357 0.790103 0.000116 0.0
2.598735 2.028901 0.002013 0.0
0.754036 0.288678 -0.000858 0.0
3.170868 1.708621 -0.000165 0.0
1.054510 0.144845 0.000271 0.0
2.145323 0.911444 0.001368 0.0
4.221782 1.248260 -0.001886 0.0
3.565695 1.370368 -0.003740 0.0
3.787840 1.213697 0.001980 0.0
2.013421 0.790931 -0.003321 0.0
3.797715 0.823000 0.000600 0.0
0.656262 0.812873 -0.004128 0.0
2.887281 0.588930 -0.003146 0.0
3.639996 1.466339 0.000120 0.0
0.239798 0.129583 -0.005625 0.0
4.182648 1.134780 -0.000897 0.0
4.334294 1.517919 0.001974 0.0
2.958439 0.523948 0.002784 0.0
2.585416 0.046834 -0.000956 0.0
1.068606 0.106446 -0.002152 0.0
3.178088 2.095681 -0.002725 0.0
0.885770 0.117232 0.004136 0.0
3.312232 1.748989 -0.002311 0.0
1.156853 1.501745 0.000839 0.0
2.181199 0.348287 0.001981 0.0
0.797693 2.166821 0.001506 0.0
0.826481 1.995456 -0.000365 0.0
3.011696 2.136370 0.000145 0.0
0.838051 0.861147 0.000745 0.0
3.322029 1.172112 -0.000744 0.0
0.042429 1.565865 -0.006400 0.0
0.261887 0.792588 0.001238 0.0
4.224627 0.586160 -0.004982 0.0
3.794839 0.899651 0.002146 0.0
4.196305 0.323052 -0.000594 0.0
2.711237 1.133091 -0.004362 0.0
3.091116 2.175146 -0.003176 0.0
4.288364 1.194662 -0.002957 0.0
2.706009 0.115607 -0.005519 0.0
3.983322 1.317607 0.002541 0.0
4.300339 1.037132 0.002210 0.0
0.648255 1.404269 0.002463 0.0
0.192541 1.256634 0.000773 0.0
4.222355 0.344588 0.003738 0.0
4.479015 1.158321 -0.001703 0.0
0.181334 1.783209 0.002604 0.0
4.389519 1.063015 -0.003915 0.0
2.199728 0.309524 -0.000343 0.0
4.229437 0.332288 -0.007874 0.0
4.124807 1.770554 -0.001464 0.0
1.295166 1.005591 0.000498 0.0
4.284359 0.392326 -0.002729 0.0
2.504829 1.099436 -0.006216 0.0
2.425734 1.188146 0.000999 0.0
3.638699 1.117975 0.001789 0.0
1.162560 1.605196 -0.000293 0.0
3.039897 0.274061 0.000934 0.0
3.741418 2.182418 -0.000180 0.0
1.155100 1.031099 -0.000197 0.0
3.307210 1.372136 0.004246 0.0
0.166729 0.347257 -0.000583 0.0
2.835202 2.184339 -0.001947 0.0
2.920208 1.549115 -0.001598 0.0
1.606118 0.592937 -0.000211 0.0
4.342865 1.315527 -0.000998 0.0
1.492619 1.508763 -0.001305 0.0
2.849717 1.746372 -0.001037 0.0
0.940945 1.693498 -0.001135 0.0
3.500356 1.497961 -0.000989 0.0
3.676355 0.654152 0.002485 0.0
3.831072 0.916119 -0.002494 0.0
3.339117 0.233057 0.000689 0.0
2.036250 0.321777 0.001585 0.0
2.749591 1.175102 0.002078 0.0
3.424084 0.036892 0.002949 0.0
1.862463 1.095321 0.001064 0.0
3.545174 0.283026 0.000051 0.0
3.593545 1.346402 -0.001371 0.0
1.405281 1.179373 -0.002603 0.0
3.185175 1.547559 0.004730 0.0
3.691269 1.882499 0.003051 0.0
0.598431 1.284741 0.000788 0.0
1.519100 0.473801 -0.002156 0.0
3.040346 0.792835 -0.005700 0.0
2.211557 0.653397 -0.002203 0.0
0.207383 0.241977 0.001141 0.0
0.038021 1.581954 -0.000235 0.0
3.826951 1.904093 0.004432 0.0
4.480433 1.269252 0.001931 0.0
2.528294 0.936223 -0.000294 0.0
2.296490 1.439263 0.000561 0.0
2.686316 1.833714 -0.000989 0.0
2.509855 0.768756 0.001245 0.0
3.359083 0.511171 -0.002426 0.0
0.339626 1.792691 -0.001082 0.0
3.565997 0.505953 -0.001544 0.0
1.840244 1.847857 0.001680 0.0
2.641754 1.663727 0.004092 0.0
1.989766 0.203436 -0.000181 0.0
3.717465 1.309583 -0.000111 0.0
1.752880 1.026254 0.005311 0.0
2.651921 1.578514 0.001063 0.0
1.279890 0.934043 -0.001645 0.0
2.440873 1.875353 -0.000176 0.0
3.948633 0.962212 -0.004683 0.0
2.244316 1.638843 -0.001801 0.0
0.698078 1.775378 -0.005035 0.0
4.374302 1.510848 0.000117 0.0
1.747697 1.523474 -0.002814 0.0
1.546550 1.818899 -0.002777 0.0
1.590151 0.918008 0.001968 0.0
0.280785 1.719464 0.005220 0.0
0.022323 2.123097 -0.002469 0.0
2.046764 2.053424 0.001563 0.0
2.818599 1.537592 -0.003341 0.0
1.237587 0.305574 0.000724 0.0
0.584545 1.685915 0.002497 0.0
4.229633 0.922258 -0.001434 0.0
0.251445 0.774567 0.000909 0.0
3.486303 1.727469 -0.000308 0.0
1.064157 1.144541 -0.002923 0.0
3.233947 0.449929 0.000919 0.0
1.830680 0.176640 -0.000745 0.0
0.096224 0.119425 0.000316 0.0
3.021213 1.003269 -0.001862 0.0
4.080339 0.550230 0.000788 0.0
1.082868 0.565948 -0.004729 0.0
3.357585 1.726138 0.000898 0.0
1.472329 1.106959 0.003722 0.0
4.279506 1.181512 0.000864 0.0
3.808209 1.386957 0.001079 0.0
3.280804 0.760515 -0.001053 0.0
1.553997 1.254688 0.000077 0.0
4.267518 2.017274 0.002484 0.0
2.362018 0.620146 0.001531 0.0
3.293929 1.494615 0.001522 0.0
3.064567 1.478446 -0.004129 0.0
4.284068 0.339052 -0.001092 0.0
1.326162 0.621022 -0.000246 0.0
1.928939 2.014756 -0.000709 0.0
1.038764 1.830065 0.003790 0.0
4.462711 1.754509 -0.001713 0.0
2.868594 0.739606 -0.001689 0.0
3.064338 0.792866 -0.000843 0.0
0.028892 1.642732 -0.001578 0.0
1.401779 0.232877 0.001681 0.0
2.460955 2.120218 0.004235 0.0
0.350040 0.029684 0.001798 0.0
0.646206 1.031156 -0.004471 0.0
3.559118 1.959907 -0.000393 0.0
1.176054 1.732205 -0.002349 0.0
4.061146 0.738017 -0.005339 0.0
1.988054 1.840100 0.001203 0.0
1.248044 1.033456 -0.004510 0.0
3.093410 1.062521 -0.002851 0.0
2.883770 1.103827 -0.001862 0.0
0.986560 1.201809 -0.000827 0.0
0.912121 0.414369 -0.000356 0.0
0.034569 1.991962 -0.001728 0.0
4.386441 0.866025 0.002296 0.0
2.969053 0.680972 -0.001159 0.0
0.381575 0.270809 -0.001145 0.0
1.232015 1.510996 -0.000752 0.0
2.753742 1.631738 0.001007 0.0
4.427552 0.279801 0.000581 0.0
3.229713 1.947476 -0.000689 0.0
3.261809 1.244861 -0.001621 0.0
4.026264 1.385699 0.003109 0.0
2.155991 0.768433 -0.001855 0.0
4.045230 0.851960 -0.002658 0.0
3.024965 1.193287 0.001072 0.0
3.705183 1.286539 0.002838 0.0
1.976599 0.459152 -0.000381 0.0
2.982664 1.446488 -0.003710 0.0
3.834077 1.797053 -0.000288 0.0
1.545928 0.766781 -0.000157 0.0
3.907261 0.045737 -0.000682 0.0
3.265974 0.810649 0.000467 0.0
1.784623 1.961766 -0.000780 0.0
4.372654 0.601391 0.004064 0.0
0.990981 1.646796 0.005113 0.0
0.743117 1.927181 0.003643 0.0
2.390593 0.268658 -0.000476 0.0
3.046092 1.763878 0.003598 0.0
3.313698 0.854209 -0.003192 0.0
1.317558 1.682380 0.001185 0.0
1.522294 0.427313 0.002583 0.0
1.227496 1.370738 0.000445 0.0
4.467391 1.507140 0.003806 0.0
0.388238 0.551495 -0.001724 0.0
1.928564 1.136543 -0.000846 0.0
1.199820 0.841611 0.000712 0.0
1.544269 1.363131 0.000875 0.0
3.178629 1.485556 0.001227 0.0
4.409074 1.800110 0.001644 0.0
0.806813 1.357904 -0.004054 0.0
1.404262 0.306800 -0.000343 0.0
0.848834 1.661545 0.000648 0.0
1.360813 0.519529 0.002283 0.0
0.357834 2.092276 -0.002749 0.0
3.335668 1.887458 0.002651 0.0
1.898240 1.242648 -0.000416 0.0
1.232264 0.136170 0.000815 0.0
2.430096 0.111477 -0.000448 0.0
3.339174 1.007569 -0.003592 0.0
0.008278 1.275063 -0.003568 0.0
0.929570 0.097994 0.003837 0.0
1.803096 2.168689 0.001467 0.0
1.759341 2.035647 0.000484 0.0
3.512290 0.964738 -0.000888 0.0
0.853206 2.036854 0.002827 0.0
2.053585 1.446959 -0.000483 0.0
3.775988 0.639861 0.002354 0.0
4.073967 1.682804 -0.004112 0.0
2.919460 0.647129 -0.002734 0.0
1.445250 1.632161 0.001328 0.0
0.586584 2.192122 -0.002092 0.0
2.511438 0.634306 -0.005397 0.0
3.329134 0.185632 0.000829 0.0
2.640691 1.691629 0.001212 0.0
2.596405 1.242734 -0.000155 0.0
1.994753 1.031344 0.008080 0.0
4.418840 0.758221 0.001818 0.0
1.792299 1.257186 0.003083 0.0
2.459603 -0.002298 0.004761 0.0
4.048356 1.110030 0.000472 0.0
1.457059 0.006188 0.001305 0.0
0.662003 1.542294 0.000980 0.0
3.531137 1.561920 -0.001174 0.0
3.539752 1.218100 0.002826 0.0
0.431191 2.093476 -0.001470 0.0
4.211490 1.277046 0.000241 0.0
0.376904 0.788000 -0.001927 0.0
3.366678 1.286834 -0.001647 0.0
1.372804 1.421413 -0.000648 0.0
4.087091 1.864970 0.000838 0.0
1.967483 0.057508 -0.001197 0.0
1.998964 0.794138 0.000194 0.0
0.717521 1.239135 -0.004126 0.0
2.094005 1.514833 -0.002421 0.0
4.234098 1.674522 0.006432 0.0
0.168876 0.024689 0.000667 0.0
1.673966 0.779990 -0.003807 0.0
0.226179 0.436119 -0.003019 0.0
2.813648 0.515151 0.001854 0.0
0.399563 2.133789 -0.001735 0.0
0.942367 1.529616 0.000721 0.0
0.052586 0.160509 -0.001417 0.0
2.508777 0.510717 0.001408 0.0
0.435581 1.104699 0.001741 0.0
2.090859 1.158239 -0.001557 0.0
0.300486 0.475769 -0.000519 0.0
1.763846 0.448616 0.001032 0.0
1.327619 0.758747 0.002991 0.0
2.697632 2.193250 0.003624 0.0
1.707663 1.054941 -0.000921 0.0
1.045566 0.412727 0.004385 0.0
2.613698 1.541894 -0.002385 0.0
4.297441 1.914269 0.005596 0.0
1.347262 1.008209 0.001841 0.0
1.525595 1.859065 -0.004007 0.0
3.517504 0.402240 0.004943 0.0
2.242368 0.138020 0.001283 0.0
4.405173 0.795322 0.004166 0.0
2.607356 0.371179 0.001202 0.0
2.588483 0.239033 0.001887 0.0
3.462280 1.852573 0.002206 0.0
2.582677 1.855497 -0.000851 0.0
0.077799 1.157847 -0.001889 0.0
3.548086 1.299081 0.001653 0.0
0.851687 0.656685 -0.003134 0.0
1.344708 0.840218 -0.002059 0.0
0.991626 0.702892 0.001078 0.0
3.129814 2.102269 -0.002827 0.0
2.098995 1.669312 -0.000459 0.0
3.638932 1.406125 -0.000714 0.0
1.239412 0.453422 -0.001852 0.0
1.122891 0.991552 0.000341 0.0
4.310063 0.333659 -0.002369 0.0
0.601672 0.201463 -0.002742 0.0
1.462773 1.345151 -0.002444 0.0
2.711006 1.820355 -0.002505 0.0
3.207745 0.051942 0.000044 0.0
1.134205 0.453720 -0.000463 0.0
1.044938 0.174225 -0.002709 0.0
1.486242 0.980284 -0.001131 0.0
3.991700 1.926283 -0.000191 0.0
1.292730 1.470528 -0.001256 0.0
4.460180 1.545095 0.002221 0.0
0.553672 0.337188 -0.001502 0.0
1.955553 0.481037 0.004842 0.0
2.248764 0.619144 0.000173 0.0
2.449084 1.843358 0.002252 0.0
0.634149 0.000608 0.092561 0.0
2.130469 0.000682 0.168641 0.0
2.838861 0.000768 0.030981 0.0
0.299026 0.000088 0.160086 0.0
2.729849 0.000328 0.043218 0.0
0.334454 0.005621 0.186752 0.0
0.024361 -0.001562 0.036203 0.0
2.782610 0.003773 0.156923 0.0
0.757206 -0.000002 0.006185 0.0
2.755874 -0.000861 0.117415 0.0
0.534114 0.002327 0.134784 0.0
0.587633 -0.003070 0.036814 0.0
1.192398 0.000488 0.062013 0.0
1.975017 0.004257 0.065128 0.0
1.243655 -0.000694 0.091783 0.0
0.591890 0.002866 0.167539 0.0
0.290107 0.006842 0.104277 0.0
2.805393 0.004578 0.058089 0.0
0.600776 -0.001997 0.071522 0.0
4.129474 0.001239 0.053145 0.0
0.404957 0.002902 0.183301 0.0
3.445376 0.002706 0.133081 0.0
2.307895 -0.002853 0.038216 0.0
2.739147 -0.000145 0.056400 0.0
4.481082 0.005563 0.149376 0.0
3.712313 0.003225 0.097281 0.0
