1.60400794 1.40688787 -0.00332548 0.00000000
3.15287360 0.85482061 0.00022932 0.00000000
4.92036868 0.53266112 -0.00078319 0.00000000
4.98145618 1.72794383 -0.00683016 0.00000000
0.06936798 1.20682189 -0.00220892 0.00000000
2.62809494 1.28135588 0.00044628 0.00000000
0.72303279 0.54547459 0.00504600 0.00000000
0.44479375 0.71149310 -0.00038268 0.00000000
3.53774688 1.65378943 -0.00418868 0.00000000
1.67524143 2.15586458 0.00152321 0.00000000
3.31141363 1.66490790 0.00004739 0.00000000
1.87672201 0.10441897 -0.00586922 0.00000000
3.54297837 0.97942290 0.00201709 0.00000000
2.71479209 0.55742003 0.00062866 0.00000000
3.89205229 0.24014778 -0.00041469 0.00000000
4.36903522 1.01905172 0.00217046 0.00000000
3.08207449 1.32008758 0.00152069 0.00000000
0.59568865 0.27700140 0.00000598 0.00000000
2.52680181 1.33161014 -0.00498126 0.00000000
1.28664028 1.61068596 -0.00091053 0.00000000
1.99741257 0.80038452 0.00620909 0.00000000
3.16815068 1.76450219 0.00122076 0.00000000
0.56393610 1.03498896 -0.00373216 0.00000000
0.91564007 0.88724866 0.00483817 0.00000000
0.57734611 0.22127587 0.00096309 0.00000000
3.18512913 0.93731712 -0.00166647 0.00000000
4.73975966 1.24370420 0.00065083 0.00000000
2.82642130 0.91717245 0.00108142 0.00000000
3.01192610 0.52341560 0.00142896 0.00000000
0.35988544 1.13031723 -0.00334173 0.00000000
1.40089239 0.86193652 0.00141204 0.00000000
3.70351229 1.20540715 -0.00103845 0.00000000
0.74858910 1.11260352 -0.00226071 0.00000000
1.51117765 0.80085109 -0.00148342 0.00000000
0.23390052 -0.00292595 -0.00519950 1.00000000
1.56213961 0.00531137 0.00038691 1.00000000
1.31418504 -0.00100837 0.00009136 1.00000000
4.86155704 -0.00315568 0.00119560 1.00000000
0.55935529 -0.00050579 0.00131141 1.00000000
1.98065290 0.00451593 0.00114889 1.00000000
0.28446970 -0.00148586 -0.00213622 1.00000000
0.62479192 0.00061427 -0.00120911 1.00000000
0.55319514 -0.00094404 0.00125689 1.00000000
2.39687904 0.00035324 -0.00022358 1.00000000
1.62231778 0.00200123 -0.00374899 1.00000000
4.21520657 0.00189840 0.00182185 1.00000000
3.73425448 0.00012075 -0.00030493 1.00000000
1.77778739 0.00049227 0.00065789 1.00000000
0.88109978 -0.00049150 -0.00538679 1.00000000
2.34478190 -0.00391761 0.00148452 1.00000000
4.54479830 -0.00015315 0.00046408 1.00000000
4.93633585 -0.00126910 0.00089640 1.00000000
1.36023494 -0.00297430 0.00092805 1.00000000
2.24857016 -0.00343568 0.00054716 1.00000000
3.16266940 -0.00003196 0.00151901 1.00000000
0.22544875 -0.00227777 -0.00108529 1.00000000
2.01029892 0.00220177 -0.00377749 1.00000000
1.88112732 -0.00054760 0.00141703 1.00000000
1.45059088 -0.00016473 -0.00230640 1.00000000
4.12254906 -0.00245645 -0.00033114 1.00000000
0.80811963 0.00199284 0.00211967 1.00000000
2.19246001 -0.00302424 0.00152552 1.00000000
3.59559891 0.00358207 -0.00769301 1.00000000
0.97446610 0.00125986 0.00079077 1.00000000
2.44406767 0.00305075 0.00036585 1.00000000
2.78313944 -0.00072331 0.00321008 1.00000000
3.45563752 -0.00227186 -0.00288356 1.00000000
2.84738337 -0.00239328 0.00028644 1.00000000
1.92522308 -0.00326511 -0.00286807 1.00000000
0.49562297 -0.00041572 0.00038893 1.00000000
4.28386573 0.00494212 -0.00066584 1.00000000
3.52728843 0.00218050 0.00359848 1.00000000
2.15770124 -0.00228759 0.00168842 1.00000000
0.31334198 0.00103190 -0.00031510 1.00000000
3.85356647 -0.00011181 -0.00208214 1.00000000
1.18688222 -0.00122893 0.00186869 1.00000000
0.84614572 -0.00024673 -0.00092569 1.00000000
1.29779820 0.00141291 0.00096450 1.00000000
1.23208325 0.00329481 0.00164470 1.00000000
2.92722754 -0.00031086 -0.00095212 1.00000000
2.75984081 0.00245967 0.00209151 1.00000000
4.05199957 -0.00029270 0.00154490 1.00000000
2.06410744 -0.00098475 0.00057241 1.00000000
4.05956418 -0.00186796 0.00353936 1.00000000
1.07919119 -0.00446818 0.00121866 1.00000000
0.37186560 0.00058600 -0.00260279 1.00000000
3.84572333 -0.00088059 0.00161102 1.00000000
4.09753957 -0.00622770 0.00332796 1.00000000
4.92207850 0.00090080 -0.00478580 1.00000000
4.13770003 -0.00066976 -0.00311894 1.00000000
3.95042625 -0.00252746 -0.00053627 1.00000000
2.67968069 0.00012933 0.00129042 1.00000000
0.21343333 0.00494227 0.00316755 1.00000000
3.85184374 0.00009331 0.00001203 1.00000000
2.27361481 -0.00102008 -0.00175758 1.00000000
4.49266033 -0.00383880 -0.00286646 1.00000000
2.36933142 -0.00102289 0.00159230 1.00000000
4.67745115 -0.00184708 -0.00319914 1.00000000
0.09062449 -0.00044543 -0.00413714 1.00000000
2.93638171 0.00259405 0.00164190 1.00000000
3.86736651 0.00170867 -0.00074847 1.00000000
2.81063365 -0.00348338 0.00446396 1.00000000
2.55277794 -0.00352172 0.00052030 1.00000000
4.79351180 0.00212280 0.00327543 1.00000000
3.08363452 -0.00010024 -0.00034429 1.00000000
2.63224623 0.00581111 0.00169865 1.00000000
0.31144158 -0.00225479 -0.00109448 1.00000000
3.27339745 0.00488927 -0.00342798 1.00000000
0.78997555 0.00124804 0.00084806 1.00000000
0.53125834 -0.00459664 0.00092092 1.00000000
1.94687500 0.00265762 0.00348014 1.00000000
2.56984081 0.00208492 0.00077334 1.00000000
2.45184315 0.00240660 -0.00005931 1.00000000
2.55314028 -0.00036189 -0.00382598 1.00000000
1.93018027 0.00399367 0.00009981 1.00000000
1.54697986 -0.00739733 0.00003632 1.00000000
1.72622524 -0.00354558 0.00106117 1.00000000
3.39023746 -0.00047673 0.00449453 1.00000000
1.60490240 -0.00284059 -0.00044700 1.00000000
1.05484095 -0.00233701 -0.00315324 1.00000000
2.04681904 0.00151135 -0.00357951 1.00000000
4.31204888 0.00180865 0.00119344 1.00000000
3.02172830 0.00114988 -0.00286065 1.00000000
3.22586708 -0.00325658 -0.00269081 1.00000000
1.24488764 0.00453741 0.00170476 1.00000000
3.16587483 -0.00270550 0.00240624 1.00000000
0.13476809 -0.00399780 0.00154066 1.00000000
0.75621449 0.00060266 -0.00194557 1.00000000
4.07810714 -0.00247080 0.00133866 1.00000000
3.00918236 -0.00032446 0.00207768 1.00000000
2.49338999 0.00654378 -0.00118554 1.00000000
4.84526306 -0.00115299 0.00063120 1.00000000
2.43142088 -0.00353972 0.00143273 1.00000000
3.02582242 0.00405101 0.00014113 1.00000000
1.62070563 0.00273402 0.00291068 1.00000000
1.62305802 0.00586975 0.00144026 1.00000000
3.00894561 -0.00020520 -0.00030467 1.00000000
2.91352271 -0.00202397 0.00442534 1.00000000
0.12311331 0.00195122 0.00084600 1.00000000
2.56721273 0.00103157 -0.00005502 1.00000000
3.84337616 0.00190159 -0.00437091 1.00000000
1.58763242 0.00063436 -0.00178796 1.00000000
0.12100752 -0.00246195 0.00105861 1.00000000
3.47985704 0.00080900 0.00141541 1.00000000
4.91251860 -0.00200819 -0.00167586 1.00000000
3.02716482 -0.00301938 -0.00112488 1.00000000
4.79704313 0.00023725 -0.00049010 1.00000000
3.07817260 -0.00054982 -0.00435891 1.00000000
1.14672601 -0.00108990 -0.00105003 1.00000000
2.57907643 -0.00134130 0.00372336 1.00000000
2.86231139 -0.00172463 0.00070383 1.00000000
3.91868982 0.00214350 -0.00157579 1.00000000
3.14206115 -0.00228536 -0.00259831 1.00000000
2.17678525 -0.00224006 -0.00194988 1.00000000
0.75792451 -0.00317244 -0.00583805 1.00000000
0.71810152 -0.00276171 -0.00170222 1.00000000
1.73357236 0.00292786 -0.00237549 1.00000000
2.42124327 -0.00067053 -0.00729279 1.00000000
1.42694911 -0.00310577 0.00112847 1.00000000
0.61882345 -0.00122100 -0.00081327 1.00000000
1.94993943 -0.00273810 0.00302006 1.00000000
2.91039929 -0.00329834 -0.00115513 1.00000000
0.17954062 0.00010334 -0.00331691 1.00000000
0.42776060 -0.00494961 0.00022671 1.00000000
1.17032887 -0.00445423 -0.00513232 1.00000000
1.61595764 -0.00208811 -0.00149474 1.00000000
4.71125255 0.00259015 0.00145906 1.00000000
3.60764288 -0.00239191 -0.00335803 1.00000000
0.43982054 -0.00138989 0.00117864 1.00000000
1.37851807 0.00050010 0.00094418 1.00000000
1.51341113 0.00020757 0.00175325 1.00000000
2.62926699 -0.00064838 0.00439997 1.00000000
3.81561476 -0.00169241 -0.00046205 1.00000000
1.71260593 0.00240915 0.00075145 1.00000000
4.23480056 0.00179951 -0.00305148 1.00000000
0.03436352 0.00000578 0.00374672 1.00000000
2.32198522 -0.00395281 0.00249348 1.00000000
4.71392226 0.00161905 -0.00100288 1.00000000
3.87624904 -0.00231959 0.00142354 1.00000000
1.60339606 -0.00115906 0.00423485 1.00000000
1.97938364 0.00248394 0.00077603 1.00000000
1.28089715 -0.00163900 -0.00283788 1.00000000
3.20886565 -0.00138996 -0.00289463 1.00000000
1.42633597 -0.00104150 -0.00239115 1.00000000
0.52328820 -0.00030473 0.00372730 1.00000000
0.99602797 0.00282475 0.00161402 1.00000000
0.33548509 0.00027707 -0.00076686 1.00000000
4.64234165 0.00130012 -0.00005221 1.00000000
0.84554984 0.00192811 -0.00489993 1.00000000
0.29798693 0.00083639 0.00251557 1.00000000
4.19085469 -0.00179608 -0.00030877 1.00000000
4.65405803 0.00252716 0.00372793 1.00000000
1.61789858 -0.00104158 0.00100907 1.00000000
0.59127466 0.00280849 0.00020498 1.00000000
4.36919356 -0.00183361 0.00264503 1.00000000
3.25237319 0.00317447 -0.00086466 1.00000000
0.41592597 -0.00402243 0.00286560 1.00000000
4.74175695 0.00005932 -0.00124242 1.00000000
1.49213714 0.00032269 -0.00427810 1.00000000
3.23954520 -0.00079790 -0.00143132 1.00000000
1.34369132 -0.00169282 0.00119137 1.00000000
4.55085135 -0.00262246 0.00138089 1.00000000
0.62384064 0.00039566 0.00318058 1.00000000
0.95997635 -0.00156705 0.00289463 1.00000000
2.86074000 -0.00093826 0.00076167 1.00000000
1.54899338 -0.00525592 0.00312523 1.00000000
4.28454722 -0.00325863 0.00246840 1.00000000
0.08325911 -0.00409336 0.00398636 1.00000000
1.23703901 -0.00157423 0.00381324 1.00000000
0.22398512 -0.00165279 -0.00041676 1.00000000
3.47634824 0.00131433 -0.00073893 1.00000000
1.64325169 -0.00439914 -0.00058361 1.00000000
3.87851242 -0.00187676 0.00333721 1.00000000
3.68504348 -0.00099876 0.00280565 1.00000000
0.06957929 -0.00354174 0.00096012 1.00000000
1.28024946 0.00418943 -0.00045974 1.00000000
4.95183030 0.00248745 -0.00169734 1.00000000
0.43375632 -0.00039235 -0.00334403 1.00000000
4.10559494 -0.00107982 -0.00118425 1.00000000
0.44826528 -0.00339259 0.00206714 1.00000000
1.53044864 -0.00197146 -0.00181767 1.00000000
3.44452740 -0.00073377 0.00228903 1.00000000
2.02502918 0.00259180 0.00033586 1.00000000
2.93642296 -0.00021678 0.00081665 1.00000000
4.15227728 0.00710598 -0.00212826 1.00000000
4.85255213 0.00101371 -0.00175942 1.00000000
2.12249687 -0.00397675 0.00110062 1.00000000
0.86128296 0.00228548 -0.00180911 1.00000000
3.01452729 0.00110926 0.00515108 1.00000000
3.48423375 0.00457859 -0.00452504 1.00000000
4.48782191 -0.00042514 -0.00009022 1.00000000
1.88304063 -0.00090782 0.00186200 1.00000000
3.67437498 0.00350841 0.00324226 1.00000000
0.06232048 -0.00191553 0.00403512 1.00000000
3.08768647 -0.00004604 0.00094675 1.00000000
4.16827555 -0.00161451 -0.00309224 1.00000000
0.77638071 0.00332007 -0.00429802 1.00000000
2.13272300 -0.00280720 -0.00066590 1.00000000
1.55856514 -0.00420393 0.00206521 1.00000000
4.05352456 0.00000756 -0.00392844 1.00000000
2.01353385 -0.00129909 0.00038637 1.00000000
3.56633483 0.00278577 0.00063971 1.00000000
4.46427917 -0.00369513 0.00340580 1.00000000
0.59100030 0.00206386 -0.00076916 1.00000000
2.04177961 -0.00214454 -0.00027784 1.00000000
3.22061900 0.00007093 0.00082608 1.00000000
0.97747027 -0.00086116 0.00299728 1.00000000
1.80061124 -0.00309728 -0.00203325 1.00000000
1.22267886 -0.00011273 -0.00219105 1.00000000
1.69483561 -0.00058517 -0.00090004 1.00000000
2.71129556 0.00090044 0.00053625 1.00000000
3.98931103 0.00105655 0.00143814 1.00000000
2.51516857 0.00324681 -0.00193057 1.00000000
1.47308796 0.00049574 -0.00016413 1.00000000
2.29049079 -0.00148989 -0.00144189 1.00000000
2.51805964 0.00374655 0.00136794 1.00000000
3.87541680 0.00152671 -0.00247666 1.00000000
4.88535815 -0.00542177 -0.00085048 1.00000000
0.88534303 -0.00313519 -0.00215978 1.00000000
1.04535928 -0.00196123 0.00511354 1.00000000
3.70505847 0.00080382 0.00035764 1.00000000
0.72809931 -0.00036497 0.00055653 1.00000000
4.20484863 0.00129670 -0.00352789 1.00000000
2.19634826 0.00132555 -0.00003507 1.00000000
0.99011866 -0.00422754 0.00167380 1.00000000
1.40341301 -0.00061623 -0.00014957 1.00000000
1.62005416 -0.00138719 -0.00017580 1.00000000
4.87019481 -0.00303450 0.00385315 1.00000000
4.12430850 0.00365590 -0.00139289 1.00000000
2.62479636 -0.00225307 0.00046830 1.00000000
0.09952293 0.00208712 0.00337177 1.00000000
0.88747050 0.00033883 -0.00010634 1.00000000
4.81343754 -0.00175044 -0.00283305 1.00000000
2.38864633 0.00057729 -0.00333446 1.00000000
0.48454997 -0.00075561 -0.00302251 1.00000000
2.50653458 0.00472272 0.00060396 1.00000000
4.02362946 -0.00075833 -0.00189120 1.00000000
4.34424783 -0.00449261 -0.00013480 1.00000000
0.85331592 0.00069689 0.00201653 1.00000000
3.50947778 -0.00216664 -0.00051320 1.00000000
3.05466830 0.00173688 0.00189330 1.00000000
3.25539936 -0.00312303 -0.00480261 1.00000000
4.70111392 -0.00182984 0.00034574 1.00000000
2.70234361 -0.00444623 0.00096729 1.00000000
1.14325595 0.00227826 0.00284144 1.00000000
0.52456169 -0.00130672 0.00086220 1.00000000
2.40069383 -0.00228224 -0.00172215 1.00000000
0.61162257 0.00065826 -0.00014278 1.00000000
1.33176839 -0.00102871 0.00232092 1.00000000
2.64266275 0.00200582 -0.00334308 1.00000000
3.95193974 0.00030154 0.00263694 1.00000000
0.48042077 0.00230229 -0.00314368 1.00000000
1.94256721 0.00201139 -0.00292492 1.00000000
0.54956180 0.00183835 -0.00254895 1.00000000
2.03276699 -0.00011127 -0.00101225 1.00000000
0.44196295 -0.00290822 0.00249233 1.00000000
0.81559562 0.00053644 0.00009692 1.00000000
0.58835873 -0.00261006 0.00274373 1.00000000
0.79872458 0.00232561 -0.00132733 1.00000000
1.99684133 0.00042468 0.00185152 1.00000000
0.49478719 0.00025755 -0.00126720 1.00000000
1.77648332 -0.00054318 0.00032681 1.00000000
4.15932444 -0.00051020 -0.00255498 1.00000000
0.40651418 -0.00172097 0.00158645 1.00000000
1.79134370 0.00692858 -0.00004414 1.00000000
4.58617638 0.00159313 -0.00065837 1.00000000
2.23969760 -0.00284617 0.00164951 1.00000000
3.56420174 -0.00484047 0.00053067 1.00000000
0.79202915 0.00057537 0.00095268 1.00000000
0.80889022 0.00127606 -0.00382726 1.00000000
1.24539628 -0.00438874 0.00203017 1.00000000
3.86192500 0.00248639 0.00106906 1.00000000
4.10544932 -0.00278819 -0.00148682 1.00000000
0.27158632 -0.00205154 0.00115341 1.00000000
4.67800382 0.00307259 -0.00014597 1.00000000
3.67172137 0.00063746 -0.00006015 1.00000000
2.65675254 0.00002980 0.00161824 1.00000000
4.36679020 -0.00416502 0.00282803 1.00000000
3.19172875 0.00277147 -0.00193545 1.00000000
1.68145812 0.00250900 0.00563035 1.00000000
4.25484059 -0.00057730 -0.00100823 1.00000000
1.87874316 -0.00232329 -0.00138534 1.00000000
1.53863267 -0.00173530 0.00041066 1.00000000
2.77358664 0.00011964 0.00405745 1.00000000
2.68359690 0.00090355 -0.00263255 1.00000000
2.23434104 -0.00290958 0.00104510 1.00000000
0.17766536 0.00459779 -0.00495685 1.00000000
0.85408660 0.00051553 -0.00265843 1.00000000
1.43232523 -0.00152209 -0.00034195 1.00000000
3.09373577 -0.00006905 0.00652623 1.00000000
3.99062351 -0.00114320 0.00003193 1.00000000
4.47435581 -0.00342582 0.00071325 1.00000000
0.21920499 0.00537312 0.00237621 1.00000000
3.76750153 -0.00205763 0.00255487 1.00000000
0.10533315 -0.00300709 0.00353490 1.00000000
2.21697181 0.00044388 -0.00149270 1.00000000
2.06913883 -0.00069826 -0.00398301 1.00000000
3.80776374 -0.00212288 -0.00186046 1.00000000
2.70952116 0.00275188 -0.00205875 1.00000000
2.38362091 0.00183743 0.00385331 1.00000000
4.00093780 0.00391044 -0.00404395 1.00000000
3.15484470 -0.00384184 0.00280935 1.00000000
4.90530436 0.00187455 -0.00203811 1.00000000
0.12090483 0.00179305 -0.00489900 1.00000000
0.41204291 0.00362326 -0.00212725 1.00000000
1.52182319 -0.00365359 0.00317600 1.00000000
1.66789544 -0.00168406 -0.00374406 1.00000000
2.63565535 0.00205133 0.00238513 1.00000000
1.04849068 -0.00240771 -0.00330422 1.00000000
3.14837413 -0.00171320 -0.00074600 1.00000000
2.23256812 0.00195862 0.00184064 1.00000000
0.23544448 -0.00336872 0.00299349 1.00000000
4.73394907 -0.00109542 -0.00131289 1.00000000
4.73757207 0.00221678 0.00265484 1.00000000
4.28472499 0.00537300 -0.00051441 1.00000000
4.80777724 -0.00279643 0.00305362 1.00000000
2.91297421 0.00048175 0.00264233 1.00000000
2.75052484 -0.00323990 0.00298351 1.00000000
0.91877844 0.00419870 -0.00076752 1.00000000
3.41933204 0.00466636 -0.00086536 1.00000000
3.91246996 0.00025722 0.00041271 1.00000000
1.12430023 -0.00385298 -0.00429953 1.00000000
4.13415851 0.00318559 0.00352998 1.00000000
0.56298462 0.00088732 -0.00013117 1.00000000
1.50845546 0.00348754 0.00015380 1.00000000
2.50287568 -0.00229088 -0.00178894 1.00000000
3.48135649 0.00190123 -0.00103273 1.00000000
0.44100366 -0.00088319 0.00223602 1.00000000
3.50419072 0.00336502 0.00378512 1.00000000
1.71624747 0.00258440 0.00219145 1.00000000
3.99928043 0.00028485 -0.00050455 1.00000000
1.28490280 0.00116247 -0.00320698 1.00000000
1.93208731 -0.00133954 0.00309556 1.00000000
3.44839724 -0.00426276 0.00180992 1.00000000
4.81639445 -0.00040230 -0.00339379 1.00000000
4.52347355 0.00111207 -0.00113477 1.00000000
0.05521747 0.00206636 -0.00470190 1.00000000
3.01448920 -0.00245830 0.00113143 1.00000000
3.10089021 -0.00326668 0.00042801 1.00000000
3.05749127 -0.00018907 -0.00096220 1.00000000
2.13003063 0.00302579 -0.00341734 1.00000000
1.56590023 -0.00259592 0.00553211 1.00000000
2.64939590 0.00087694 0.00156957 1.00000000
2.36167237 0.00067969 0.00193129 1.00000000
2.53993938 0.00200661 -0.00098449 1.00000000
3.93907740 0.00106374 0.00449886 1.00000000
4.51931980 -0.00093887 0.00023983 1.00000000
2.17396139 0.00337919 0.00040094 1.00000000
1.95861800 0.00081524 0.00065967 1.00000000
1.45508689 0.00277937 -0.00396255 1.00000000
2.93656217 0.00543504 0.00196501 1.00000000
2.68599794 0.00047649 -0.00228757 1.00000000
2.59285089 -0.00053830 -0.00243510 1.00000000
1.77994493 -0.00195438 -0.00421392 1.00000000
3.84688816 0.00670669 0.00104468 1.00000000
0.24989546 -0.00346278 0.00351137 1.00000000
0.79980401 0.00039298 -0.00483196 1.00000000
2.43448773 -0.00375094 -0.00164602 1.00000000
1.91637319 0.00009481 -0.00004248 1.00000000
0.54023366 0.00092853 -0.00133671 1.00000000
3.55542756 0.00045626 0.00027753 1.00000000
1.91014824 0.00440403 0.00094113 1.00000000
2.76273965 -0.00177538 -0.00070366 1.00000000
3.27955382 0.00276517 0.00304354 1.00000000
0.41013140 -0.00174520 0.00137769 1.00000000
1.66729568 0.00176757 -0.00220563 1.00000000
3.31588055 0.00478321 -0.00691104 1.00000000
1.48846667 -0.00312879 -0.00147899 1.00000000
3.78011944 0.00158163 -0.00080685 1.00000000
4.07277199 0.00147258 0.00123686 1.00000000
1.57786369 -0.00054632 0.00040678 1.00000000
1.00696300 0.00538737 0.00340848 1.00000000
3.69683388 0.00168196 0.00162623 1.00000000
1.71912548 -0.00100707 0.00012263 1.00000000
4.88465734 0.00197266 -0.00134808 1.00000000
0.50279454 0.00195592 -0.00448966 1.00000000
1.14705176 0.00137958 -0.00219698 1.00000000
0.86843545 0.00440176 -0.00233487 1.00000000
4.26316121 -0.00754718 0.00680148 1.00000000
1.96100621 0.00385967 0.00259993 1.00000000
0.38685617 -0.00089233 -0.00151211 1.00000000
1.29226737 -0.00078096 0.00170467 1.00000000
3.32379631 0.00214195 -0.00133420 1.00000000
2.89768742 0.00166119 0.00230994 1.00000000
2.08156366 0.00099622 0.00260663 1.00000000
2.90537748 0.00368640 0.00250867 1.00000000
1.22239393 0.00165523 0.00009668 1.00000000
4.54692639 0.00211863 -0.00163675 1.00000000
1.23655459 -0.00395805 0.00307887 1.00000000
2.39615430 -0.00091270 0.00119484 1.00000000
2.49884435 0.00171714 0.00278697 1.00000000
0.33910921 0.00067646 0.00437928 1.00000000
3.33683541 0.00131147 -0.00285961 1.00000000
3.15392532 0.00428600 0.00300577 1.00000000
3.62716637 -0.00145690 -0.00131212 1.00000000
1.30975427 -0.00427412 -0.00197528 1.00000000
2.55596088 0.00129704 -0.00032692 1.00000000
0.55455801 -0.00086632 -0.00064683 1.00000000
4.45957557 0.00055672 0.00065551 1.00000000
2.98038509 0.00059575 -0.00142883 1.00000000
2.28587589 0.00132530 -0.00356105 1.00000000
3.52575213 -0.00069362 -0.00178456 1.00000000
2.30860646 -0.00325517 0.00627198 1.00000000
1.50886169 0.00128859 0.00043228 1.00000000
0.98408794 0.00236788 0.00268308 1.00000000
0.87678919 -0.00055753 -0.00123589 1.00000000
2.11878380 0.00134283 0.00361368 1.00000000
3.29616452 0.00383838 0.00643284 1.00000000
3.99753613 -0.00060551 0.00007240 1.00000000
2.69122584 0.00002246 0.00048675 1.00000000
3.13447924 0.00169865 -0.00054485 1.00000000
4.06258686 -0.00466723 -0.00391315 1.00000000
0.32963084 0.00146936 0.00061938 1.00000000
3.73462153 0.00073410 0.00005575 1.00000000
2.90573398 0.00069485 -0.00373761 1.00000000
0.79618752 -0.00453737 -0.00164644 1.00000000
0.37094153 -0.00086053 0.00158606 1.00000000
0.34898410 0.00219974 -0.00144596 1.00000000
1.23242286 0.00250184 0.00007096 1.00000000
4.12137474 0.00305619 -0.00361402 1.00000000
2.82226362 -0.00270961 -0.00004342 1.00000000
3.15429932 -0.00140936 -0.00097390 1.00000000
0.75830342 -0.00104203 0.00064367 1.00000000
0.41452151 0.00008590 0.00153184 1.00000000
1.36457022 0.00196774 0.00255457 1.00000000
4.63446524 -0.00039036 -0.00387778 1.00000000
4.48787892 -0.00196864 0.00033558 1.00000000
0.65038728 -0.00362040 0.00297866 1.00000000
3.50391564 0.00589221 -0.00166813 1.00000000
1.98137903 0.00308004 -0.00019445 1.00000000
0.70825642 -0.00061314 0.00120404 1.00000000
3.42643037 0.00152822 0.00472231 1.00000000
0.54966826 -0.00075308 0.00330872 1.00000000
1.43197514 0.00081059 -0.00029683 1.00000000
4.62860428 -0.00506007 -0.00290231 1.00000000
4.38061297 0.00122011 0.00248243 1.00000000
4.08516367 -0.00050556 0.00013380 1.00000000
2.76678786 0.00244283 -0.00239941 1.00000000
3.76738148 0.00178484 0.00224788 1.00000000
1.81955012 0.00005357 0.00096422 1.00000000
4.47499784 -0.00235109 -0.00169138 1.00000000
4.89135372 -0.00161231 -0.00131313 1.00000000
1.61324115 0.00195454 -0.00235659 1.00000000
2.40724873 -0.00433423 -0.00002375 1.00000000
3.11562216 0.00006729 -0.00236955 1.00000000
3.13784247 -0.00129307 -0.00005020 1.00000000
2.34905565 0.00119236 0.00160269 1.00000000
4.60678291 0.00065264 -0.00039268 1.00000000
4.94905307 -0.00121442 0.00155341 1.00000000
4.28048081 0.00067466 0.00305254 1.00000000
4.72102549 -0.00368665 -0.04675476 0.00000000
4.72503467 0.00179398 -0.03604193 0.00000000
1.80937513 0.00439837 -0.12517842 0.00000000
2.17656867 0.00283580 -0.10471940 0.00000000
1.14432027 -0.00142262 -0.04709298 0.00000000
0.42458052 -0.00009665 -0.03462442 0.00000000
3.95617622 0.00338152 -0.02838350 0.00000000
4.15955281 0.00251985 -0.09331049 0.00000000
2.50951320 0.00602771 -0.13467006 0.00000000
4.32794726 0.00297329 -0.13781096 0.00000000
0.81532110 -0.00016391 -0.12632431 0.00000000
1.19776224 -0.00025602 -0.04150724 0.00000000
3.32723485 -0.00217635 -0.10082380 0.00000000
2.59067418 0.00316628 -0.05151378 0.00000000
0.04987789 -0.00162871 -0.08015327 0.00000000
0.03655556 0.00277320 -0.09274527 0.00000000
2.49435206 0.00146339 -0.05403033 0.00000000
0.20338949 0.00164045 -0.13424121 0.00000000
3.70331021 0.00330337 -0.12181200 0.00000000
2.43554631 0.00123998 -0.02321580 0.00000000
3.69593343 0.00324138 -0.02823208 0.00000000
3.74133206 0.00164878 -0.10802095 0.00000000
4.47250957 -0.00441294 -0.08833932 0.00000000
1.20363715 0.00714745 -0.01871211 0.00000000
0.67955964 -0.00066688 -0.00186802 0.00000000
4.62199936 0.00163439 -0.11314234 0.00000000
4.91827847 -0.00038901 -0.01772605 0.00000000
3.33276160 0.00307122 -0.13649598 0.00000000
3.64663439 -0.00130673 -0.03699643 0.00000000
4.95440897 0.00232851 -0.13403399 0.00000000
4.65626791 -0.00132923 -0.07672989 0.00000000
4.12347915 -0.00569831 -0.05451646 0.00000000
0.17329660 0.00060967 -0.13603468 0.00000000
4.34132433 -0.00266976 -0.12397925 0.00000000
2.50075177 0.00165625 -0.13825752 0.00000000
2.78078201 -0.00344401 -0.09626832 0.00000000
1.34675947 0.00378793 -0.08882629 0.00000000
1.91805456 -0.00095799 -0.03925734 0.00000000
4.88454744 0.00345142 -0.09214370 0.00000000
4.08207254 -0.00102580 -0.08727753 0.00000000
4.94962088 0.00151712 -0.06077651 0.00000000
4.28354873 -0.00457936 -0.08747774 0.00000000
3.80247188 0.00043766 -0.05879438 0.00000000
4.94121948 0.00102333 -0.13828554 0.00000000
1.28485857 0.00040595 -0.00050442 0.00000000
4.77790905 0.00090206 -0.13805572 0.00000000
4.90252586 -0.00012128 -0.00356088 0.00000000
2.64963482 0.00031236 -0.09130898 0.00000000
2.89950775 -0.00151025 -0.10297286 0.00000000
2.01005097 -0.00341708 -0.12172804 0.00000000
4.06302221 -0.00109276 -0.07705648 0.00000000
3.72002996 0.00364756 -0.03565453 0.00000000
2.36310152 -0.00233780 -0.07090260 0.00000000
2.37463562 -0.00284614 -0.10671825 0.00000000
2.31676426 0.00512853 -0.07874552 0.00000000
1.25130806 -0.00089653 -0.01514254 0.00000000
2.93866596 -0.00146186 -0.10210045 0.00000000
2.72897015 -0.00216778 -0.00504809 0.00000000
4.03648879 0.00118650 -0.10864944 0.00000000
1.21007459 0.00225925 -0.02502657 0.00000000
0.84817085 0.00080726 -0.09965589 0.00000000
2.06370841 -0.00223089 -0.00023018 0.00000000
3.54520867 0.00169494 -0.05540203 0.00000000
2.79376012 0.00665047 -0.10332985 0.00000000
0.26410911 0.00295027 -0.12661172 0.00000000
3.52600602 0.00275327 -0.09375657 0.00000000
3.00783919 0.00212718 -0.04934141 0.00000000
4.92786044 -0.00273823 -0.00964471 0.00000000
0.36549108 -0.00081375 -0.04345128 0.00000000
4.50687394 0.00149850 -0.03582470 0.00000000
2.82717036 0.00073101 -0.07791121 0.00000000
3.78507608 -0.00361572 -0.06720352 0.00000000
0.86083070 0.00374703 -0.08229953 0.00000000
3.40007353 0.00241446 -0.08846624 0.00000000
4.57054419 0.00293338 -0.06010188 0.00000000
2.79153438 -0.00128914 -0.11151598 0.00000000
4.25348940 0.00295410 -0.05508764 0.00000000
3.94040896 0.00186565 -0.00916360 0.00000000
3.63432249 0.00159627 -0.09147792 0.00000000
4.59931947 -0.00222392 -0.12561155 0.00000000
0.23720644 -0.00073374 -0.09113482 0.00000000
4.21991977 0.00007128 -0.08525402 0.00000000
3.67498025 -0.00316626 -0.00975357 0.00000000
0.30994434 0.00142757 -0.05042620 0.00000000
1.26299732 0.00332970 -0.03741872 0.00000000
3.20123207 0.00052272 -0.12187295 0.00000000
1.18053401 0.00026435 -0.04213832 0.00000000
1.38441617 0.00107843 -0.10852340 0.00000000
2.60628564 -0.00203634 -0.00099533 0.00000000
1.05862065 0.00068824 -0.13734641 0.00000000
4.83157415 0.00088324 -0.03737394 0.00000000
1.46606081 -0.00269941 -0.02547996 0.00000000
2.83003384 0.00359417 -0.10984954 0.00000000
0.64612237 -0.00072701 -0.00986492 0.00000000
0.51818206 0.00155942 -0.02141779 0.00000000
3.58477063 -0.00058394 -0.11339876 0.00000000
0.04404074 -0.00075348 -0.06257483 0.00000000
4.12544219 -0.00258885 -0.07900194 0.00000000
3.50419517 -0.00145273 -0.12317971 0.00000000
0.67658984 -0.00296970 -0.05445980 0.00000000
0.84639879 -0.00110548 -0.01005969 0.00000000
0.26946363 0.00078633 -0.04014151 0.00000000
1.23162983 0.00004404 -0.12530385 0.00000000
3.00455548 -0.00070677 -0.09674160 0.00000000
1.50917639 0.00022135 -0.02695208 0.00000000
1.98096097 -0.00277128 -0.00572464 0.00000000
4.85600768 0.00288573 -0.12403251 0.00000000
0.01178963 -0.00409840 -0.01071188 0.00000000
0.85628645 -0.00079307 -0.09497363 0.00000000
4.90179349 0.00594211 -0.06722982 0.00000000
4.09237791 0.00098644 -0.04800435 0.00000000
3.03954264 -0.00392272 -0.00687976 0.00000000
4.17604976 0.00152653 -0.02824171 0.00000000
0.21714191 0.00104501 -0.06360120 0.00000000
0.15873395 0.00429813 -0.02396323 0.00000000
1.88293112 0.00188816 -0.12545139 0.00000000
1.10128922 0.00565932 -0.12710600 0.00000000
1.01849691 0.00244716 -0.06048970 0.00000000
1.97847559 -0.00008563 -0.03640715 0.00000000
1.50998668 0.00703870 -0.12528785 0.00000000
2.98681285 -0.00427030 -0.00169522 0.00000000
3.42731290 0.00110885 -0.11017540 0.00000000
4.41817832 0.00099166 -0.08976188 0.00000000
0.22720695 -0.00091438 -0.06549856 0.00000000
4.20934835 0.00161373 -0.09966112 0.00000000
4.26388958 0.00121120 -0.12110244 0.00000000
1.65901617 0.00002463 -0.00556682 0.00000000
2.82467960 0.00488793 -0.06148379 0.00000000
2.31137832 -0.00144428 -0.07776845 0.00000000
4.15309840 0.00001017 -0.02654801 0.00000000
3.32675245 0.00225335 -0.10006190 0.00000000
3.27990743 0.00232472 -0.03023313 0.00000000
3.05332476 0.00187501 -0.13311402 0.00000000
2.54395552 -0.00037952 -0.07201412 0.00000000
0.91814496 0.00078380 -0.01901271 0.00000000
2.33067902 0.00302358 -0.09552542 0.00000000
1.75673872 0.00049097 -0.02995820 0.00000000
0.81937876 0.00131691 -0.08032464 0.00000000
4.10178978 0.00019819 -0.09246197 0.00000000
0.53206874 0.00198503 -0.01183888 0.00000000
2.92075246 0.00085430 -0.04256319 0.00000000
2.43198887 -0.00004474 -0.10321774 0.00000000
0.60999638 -0.00096057 -0.05998425 0.00000000
3.14170782 0.00191546 -0.12211375 0.00000000
0.56327533 0.00097443 -0.06884576 0.00000000
3.11558335 0.00290171 -0.11638782 0.00000000
4.75129664 0.00116618 -0.10527564 0.00000000
1.92204530 0.00236555 -0.11901995 0.00000000
4.54026066 0.00194239 -0.12638650 0.00000000
2.46771501 -0.00288031 -0.08577589 0.00000000
4.58161659 0.00174815 -0.13108003 0.00000000
1.94488509 -0.00323190 -0.08202199 0.00000000
1.51145156 -0.00083285 -0.06021081 0.00000000
4.94946602 0.00012164 -0.01798942 0.00000000
0.64424043 -0.00449450 -0.09516022 0.00000000
2.72333603 0.00182788 -0.12816479 0.00000000
1.52464715 0.00224781 -0.09724675 0.00000000
4.58085776 0.00183744 -0.10658672 0.00000000
0.85511637 0.00168814 -0.00243235 0.00000000
3.01048058 0.00385245 -0.13326518 0.00000000
1.68062082 0.00331524 -0.05335215 0.00000000
4.77485350 -0.00223998 -0.05385156 0.00000000
3.48107365 -0.00203270 -0.01908923 0.00000000
2.87801601 0.00140565 -0.13129920 0.00000000
4.97940400 0.00230151 -0.07774707 0.00000000
2.24187625 0.00226524 -0.10592360 0.00000000
3.23948278 0.00358878 -0.07887172 0.00000000
1.56757770 -0.00420747 -0.12949229 0.00000000
3.37506373 -0.00009819 -0.11333129 0.00000000
4.36226611 0.00158638 -0.04376055 0.00000000
3.93338475 0.00159090 -0.05570825 0.00000000
0.18000314 0.00670535 -0.12480662 0.00000000
4.53927148 0.00236342 -0.13972250 0.00000000
3.61321020 -0.00122291 -0.04228618 0.00000000
0.10764999 -0.00079053 -0.01377374 0.00000000
2.97300752 0.00108784 -0.13351763 0.00000000
3.07015447 0.00126628 -0.05892841 0.00000000
2.08357673 0.00118983 -0.06349945 0.00000000
1.21241173 -0.00381591 -0.02692430 0.00000000
2.31501917 0.00251979 -0.13397076 0.00000000
0.36808352 0.00104934 -0.10336137 0.00000000
1.02090063 0.00468356 -0.04194151 0.00000000
3.99353208 0.00340274 -0.04325327 0.00000000
1.71015540 -0.00313050 -0.10685256 0.00000000
2.31337388 0.00585481 -0.06014673 0.00000000
1.81312552 0.00258788 -0.01973645 0.00000000
1.50803412 0.00188432 -0.10125034 0.00000000
4.28293162 -0.00293318 -0.02028092 0.00000000
4.64411324 -0.00205262 -0.12470578 0.00000000
1.54836802 0.00175524 -0.05620232 0.00000000
1.00220665 0.00253682 -0.13391318 0.00000000
2.63959020 0.00096504 -0.03018391 0.00000000
3.64690408 0.00039010 -0.01159471 0.00000000
2.60525115 0.00144606 -0.13671753 0.00000000
2.79203360 -0.00058419 -0.12277931 0.00000000
3.76785470 0.00190417 -0.01602647 0.00000000
2.13901450 -0.00208851 -0.12087706 0.00000000
0.71856226 0.00119242 -0.04650002 0.00000000
3.03722441 -0.00152317 -0.13282792 0.00000000
4.20694909 0.00387355 -0.11782663 0.00000000
1.24659017 -0.00054417 -0.12132947 0.00000000
3.57750918 0.00060085 -0.02136836 0.00000000
4.28048123 -0.00102714 -0.05923292 0.00000000
0.25002909 -0.00407418 -0.04368979 0.00000000
2.60356577 0.00148722 -0.07502112 0.00000000
4.14742502 0.00122439 -0.02793194 0.00000000
3.46113217 -0.00168646 -0.05964709 0.00000000
4.92039807 -0.00093925 -0.09092188 0.00000000
4.53029782 -0.00467863 -0.11461479 0.00000000
4.03741755 0.00225615 -0.08681678 0.00000000
3.78805969 -0.00221274 -0.01940356 0.00000000
4.28731720 -0.00063176 -0.03782588 0.00000000
4.57170718 -0.00205645 -0.12110738 0.00000000
4.00035674 -0.00142999 -0.00184710 0.00000000
3.74447972 0.00319310 -0.06392376 0.00000000
3.23136312 0.00553152 -0.11804224 0.00000000
1.19848082 -0.00000253 -0.09242259 0.00000000
0.48030058 0.00105614 -0.03654514 0.00000000
1.45640435 0.00081662 -0.12837234 0.00000000
0.59526466 -0.00132514 -0.06652733 0.00000000
0.06264997 0.00174101 -0.07762026 0.00000000
4.28935147 0.00042015 -0.02567088 0.00000000
2.99494135 -0.00217276 -0.00440245 0.00000000
2.21784219 0.00303366 -0.02676380 0.00000000
4.51044020 0.00211602 -0.03987683 0.00000000
0.68759888 0.00299936 -0.04967927 0.00000000
1.36626464 0.00012439 -0.09116628 0.00000000
0.66955948 -0.00219314 -0.04857688 0.00000000
2.33956705 0.00255908 -0.08731222 0.00000000
3.47962393 -0.00228734 -0.10934427 0.00000000
1.98523617 -0.00508215 -0.05559334 0.00000000
2.31608023 0.00429077 -0.08653997 0.00000000
2.87991609 0.00425079 -0.12406422 0.00000000
4.37070363 0.00624125 -0.12758577 0.00000000
4.93463019 0.00501724 -0.05659072 0.00000000
1.59080505 0.00343554 -0.00854833 0.00000000
4.01904698 0.00274173 -0.01210057 0.00000000
4.93032279 0.00495521 -0.09781184 0.00000000
2.33075445 -0.00051584 -0.08909204 0.00000000
1.44915508 0.00117248 -0.12712833 0.00000000
4.35453878 -0.00227244 -0.12377836 0.00000000
1.28010140 -0.00090400 -0.08046923 0.00000000
2.96597052 -0.00020418 -0.04731616 0.00000000
0.66642675 -0.00048750 -0.07351348 0.00000000
1.98407984 0.00127835 -0.11339960 0.00000000
2.61081720 0.00160563 -0.13225740 0.00000000
0.55423795 0.00194602 -0.11256923 0.00000000
2.23140733 -0.00462791 -0.06937231 0.00000000
0.98502567 -0.00152377 -0.07633125 0.00000000
0.84391266 0.00104453 -0.06345325 0.00000000
3.00871493 0.00002834 -0.12540438 0.00000000
3.36396676 -0.00004466 -0.10507184 0.00000000
3.00795335 0.00469547 -0.11821755 0.00000000
0.53435454 0.00674739 -0.03108794 0.00000000
1.85985386 0.00042948 -0.02097643 0.00000000
4.97674249 -0.00089444 -0.05949226 0.00000000
4.21685823 -0.00051694 -0.06532374 0.00000000
0.30493881 0.00030397 -0.01102672 0.00000000
3.70874885 -0.00390724 -0.04911113 0.00000000
1.14338623 0.00224548 -0.10424827 0.00000000
0.50924082 -0.00167472 -0.09255369 0.00000000
4.07409031 -0.00216040 -0.00469936 0.00000000
0.40504797 -0.00557792 -0.02767755 0.00000000
1.67761724 -0.00351096 -0.10252579 0.00000000
1.70812934 -0.00198798 -0.13157544 0.00000000
2.80689079 0.00288738 -0.11080157 0.00000000
0.09187175 0.00060108 -0.09830843 0.00000000
4.85896286 -0.00045833 -0.12850542 0.00000000
0.64796347 -0.00008335 -0.08810534 0.00000000
4.84986517 0.00191682 -0.09277558 0.00000000
1.65825865 0.00525084 -0.02320841 0.00000000
2.36452816 0.00140216 -0.04263643 0.00000000
0.77356690 0.00060714 -0.06655831 0.00000000
2.55337663 -0.00206381 -0.06714016 0.00000000
0.79674211 0.00079539 -0.05399903 0.00000000
4.07568635 0.00042173 -0.07151242 0.00000000
2.77362533 0.00160436 -0.11402150 0.00000000
1.20440390 -0.00001554 -0.11831798 0.00000000
0.11670250 0.00200373 -0.00400146 0.00000000
2.51976222 -0.00032901 -0.03235881 0.00000000
0.64319191 0.00693366 -0.07063229 0.00000000
1.25149976 -0.00076627 -0.02108116 0.00000000
3.32285511 0.00049284 -0.02642542 0.00000000
2.64427549 0.00368997 -0.02968563 0.00000000
1.44914550 0.00057993 -0.13187987 0.00000000
4.58725170 -0.00069136 -0.04171685 0.00000000
3.36620702 0.00561089 -0.09844143 0.00000000
2.10308632 -0.00171986 -0.05749043 0.00000000
4.44695122 0.00046349 -0.10895729 0.00000000
2.62862701 -0.00016342 -0.10198966 0.00000000
1.17130023 -0.00001512 -0.05760428 0.00000000
1.78372256 -0.00145878 -0.13743020 0.00000000
4.69671133 -0.00023456 -0.06788255 0.00000000
2.49173574 -0.00590972 -0.06695668 0.00000000
3.86604939 0.00115766 -0.13008270 0.00000000
1.07403206 -0.00070731 -0.00581500 0.00000000
2.47355114 0.00504291 -0.07818426 0.00000000
4.76274327 -0.00204991 -0.04622440 0.00000000
4.74350754 -0.00382197 -0.13573046 0.00000000
2.47721057 -0.00050849 -0.03356669 0.00000000
4.01204302 0.00223635 -0.03363845 0.00000000
1.36480715 0.00283194 -0.05346825 0.00000000
2.89607920 -0.00126259 -0.01022810 0.00000000
4.01803120 -0.00071230 -0.06630383 0.00000000
2.44709763 0.00112217 -0.08816799 0.00000000
3.75174082 -0.00137445 -0.08345698 0.00000000
3.33330263 -0.00097657 -0.02099875 0.00000000
0.62924551 0.00335314 -0.07925738 0.00000000
4.83942623 -0.00276326 -0.11331509 0.00000000
2.46596436 0.00291389 -0.05862483 0.00000000
1.21091626 -0.00005160 -0.10974921 0.00000000
1.17929437 0.00075234 -0.06333222 0.00000000
3.48349968 0.00282454 -0.04269632 0.00000000
2.28210290 0.00009889 -0.04275996 0.00000000
3.31064613 0.00145394 -0.13910065 0.00000000
3.00429616 0.00191279 -0.13321852 0.00000000
1.52215168 0.00344470 -0.11871872 0.00000000
2.41191049 0.00157441 -0.02931845 0.00000000
3.74751263 0.00325624 -0.07623137 0.00000000
4.06200917 0.00748471 -0.12362118 0.00000000
3.18889068 0.00173349 -0.03433034 0.00000000
1.45562738 -0.00166867 -0.01837521 0.00000000
4.38909166 0.00345392 -0.11544372 0.00000000
1.51840600 0.00204829 -0.00254477 0.00000000
3.71529066 0.00286806 -0.13364000 0.00000000
4.98034641 0.00356194 -0.13151129 0.00000000
1.83895750 0.00150167 -0.02877461 0.00000000
3.67063407 0.00486695 -0.04300039 0.00000000
4.22053140 -0.00047223 -0.13030528 0.00000000
4.23136271 -0.00077627 -0.04071369 0.00000000
4.29959935 0.00210473 -0.09828592 0.00000000
2.99554333 0.00147497 -0.01767398 0.00000000
2.62494706 -0.00171034 -0.03557503 0.00000000
2.94686942 -0.00284897 -0.03911440 0.00000000
1.49690090 -0.00022617 -0.01886945 0.00000000
0.08800538 -0.00089926 -0.10971373 0.00000000
2.34096447 0.00027626 -0.10665819 0.00000000
1.93640386 0.00317110 -0.13723224 0.00000000
4.18678869 0.00013758 -0.04599591 0.00000000
1.74903389 0.00425343 -0.07176206 0.00000000
0.11037162 0.00314820 -0.03115447 0.00000000
4.86978955 0.00337019 -0.04054153 0.00000000
0.55194651 -0.00079686 -0.07391527 0.00000000
4.38094723 -0.00006849 -0.04478421 0.00000000
0.46771020 0.00335997 -0.04822481 0.00000000
4.13343448 0.00057186 -0.02130491 0.00000000
2.65835279 -0.00122815 -0.05518247 0.00000000
2.93168123 -0.00497388 -0.11065410 0.00000000
1.32194691 -0.00425045 -0.00454905 0.00000000
1.71232966 -0.00137395 -0.00541830 0.00000000
4.53225908 0.00416260 -0.01538204 0.00000000
3.34454913 -0.00237888 -0.01434000 0.00000000
4.47252223 0.00226373 -0.02177381 0.00000000
2.77642126 -0.00118029 -0.09326176 0.00000000
4.10713825 0.00099352 -0.05191607 0.00000000
0.71219736 -0.00170550 -0.02287595 0.00000000
4.61800425 -0.00246962 -0.05415509 0.00000000
3.49778677 0.00472084 -0.03084317 0.00000000
0.85502961 -0.00204124 -0.12372963 0.00000000
3.68595128 -0.00017247 -0.02483909 0.00000000
1.93754262 0.00309476 -0.11080466 0.00000000
2.41681511 0.00429459 -0.08753582 0.00000000
0.96585641 -0.00150817 -0.09773784 0.00000000
3.78427013 0.00018422 -0.00137307 0.00000000
2.39223088 -0.00033538 -0.13779579 0.00000000
4.28390584 -0.00021130 -0.08650015 0.00000000
4.77200356 0.00549000 -0.04349307 0.00000000
3.38443363 0.00389688 -0.13077157 0.00000000
0.98815457 -0.00057235 -0.07892857 0.00000000
3.69193661 0.00161969 -0.01891409 0.00000000
4.82630383 -0.00013286 -0.09345261 0.00000000
2.79385328 -0.00691726 -0.00536437 0.00000000
3.71842657 0.00146108 -0.12378582 0.00000000
0.83465802 -0.00328109 -0.01889209 0.00000000
1.14535648 0.00172468 -0.03759349 0.00000000
3.28454968 0.00450753 -0.03393660 0.00000000
3.01675173 0.00034412 -0.12238544 0.00000000
2.10924562 0.00051655 -0.07282236 0.00000000
4.24738095 -0.00064865 -0.01824513 0.00000000
1.03695867 0.00127589 -0.04679974 0.00000000
4.78734993 0.00083200 -0.13688354 0.00000000
4.93538142 0.00108008 -0.10466879 0.00000000
2.80577730 -0.00302639 -0.03561347 0.00000000
2.16603847 0.00228522 -0.12066688 0.00000000
0.97866920 0.00379389 -0.09147348 0.00000000
1.51492762 0.00041831 -0.01688801 0.00000000
4.43337487 0.00125169 -0.07286869 0.00000000
0.68163363 0.00408692 -0.09404140 0.00000000
4.89881068 -0.00030269 -0.09351357 0.00000000
3.39506907 0.00264993 -0.13150359 0.00000000
1.59738208 -0.00266594 -0.04177740 0.00000000
1.87772667 0.00065264 -0.02581006 0.00000000
3.87422833 -0.00046698 -0.03753867 0.00000000
4.51885303 -0.00628158 -0.03744617 0.00000000
1.71730732 0.00312080 -0.11462815 0.00000000
1.50293645 0.00124802 -0.07317656 0.00000000
1.56759039 -0.00145666 -0.00756498 0.00000000
4.52029023 -0.00287561 -0.07953264 0.00000000
2.63129270 -0.00160968 -0.12169538 0.00000000
0.74515035 0.00044666 -0.06017407 0.00000000
3.98574889 0.00033650 -0.02752784 0.00000000
0.63257867 -0.00381359 -0.10830102 0.00000000
0.43699497 -0.00332583 -0.00250647 0.00000000
1.17685048 0.00499397 -0.10471758 0.00000000
0.75744300 -0.00017760 -0.01731457 0.00000000
1.08240738 -0.00202903 -0.07666662 0.00000000
3.44995932 0.00159122 -0.12886616 0.00000000
2.28720053 -0.00021249 -0.02273661 0.00000000
1.04047540 -0.00072702 -0.02738651 0.00000000
0.78987800 0.00249391 -0.07440292 0.00000000
3.71493632 0.00095261 -0.06794531 0.00000000
2.61510915 0.00211240 -0.01797656 0.00000000
1.44452408 -0.00070588 -0.08869466 0.00000000
3.41263253 -0.00012071 -0.00272787 0.00000000
0.64907009 0.00188946 -0.11424560 0.00000000
2.02093373 0.00182814 -0.00166540 0.00000000
3.03355390 0.00366432 -0.09983555 0.00000000
4.25560189 -0.00550350 -0.00217848 0.00000000
4.73101415 0.00139241 -0.03231069 0.00000000
2.89176580 0.00431368 -0.07549524 0.00000000
4.30922669 0.00288290 -0.12887592 0.00000000
0.70713312 0.00023909 -0.01805610 0.00000000
1.77976765 -0.00227963 -0.01624451 0.00000000
4.77343077 0.00166737 -0.03832709 0.00000000
0.57809195 -0.00201087 -0.03509772 0.00000000
1.21329404 -0.00112445 -0.11437291 0.00000000
4.75068387 0.00296415 -0.01925892 0.00000000
1.30730264 0.00170522 -0.08723625 0.00000000
2.31552971 0.00391561 -0.02356309 0.00000000
2.85781357 0.00005111 -0.06997951 0.00000000
2.94859637 0.00644641 -0.05021509 0.00000000
3.69425282 -0.00286845 -0.07768044 0.00000000
4.44197772 -0.00001881 -0.04114760 0.00000000
4.07344512 0.00242109 -0.05220849 0.00000000
0.21316523 0.00047432 -0.04142651 0.00000000
1.56013134 -0.00010276 -0.01957683 0.00000000
3.43275500 0.00166983 -0.01960985 0.00000000
2.85136791 0.00074559 -0.11946866 0.00000000
2.34918792 0.00442068 -0.12394577 0.00000000
3.24300618 -0.00206214 -0.07624563 0.00000000
4.37118265 0.00709887 -0.09080908 0.00000000
3.20261401 0.00125255 -0.04675612 0.00000000
0.35195867 0.00219070 -0.10666207 0.00000000
3.00981766 0.00255528 -0.01408243 0.00000000
2.06245310 -0.00059334 -0.06474581 0.00000000
4.57222840 -0.00159326 -0.06372128 0.00000000
4.75315375 -0.00151675 -0.12084115 0.00000000
3.36026890 0.00060417 -0.07435327 0.00000000
1.36759955 0.00165750 -0.11957172 0.00000000
4.42541288 0.00512449 -0.08356761 0.00000000
4.19056240 -0.00023453 -0.08582924 0.00000000
1.14967694 -0.00077487 -0.11197914 0.00000000
0.96009395 0.00352591 -0.03843398 0.00000000
3.01904097 0.00049711 -0.04241759 0.00000000
1.20606677 0.00024156 -0.06483340 0.00000000
3.22899678 0.00064803 -0.07464989 0.00000000
4.19091364 -0.00425053 -0.10510681 0.00000000
3.09383610 0.00035814 -0.06437281 0.00000000
0.60447067 0.00132061 -0.11009860 0.00000000
0.04245230 -0.00008265 -0.02109893 0.00000000
1.25912558 0.00140373 -0.05302095 0.00000000
1.58273627 -0.00167259 -0.05686741 0.00000000
1.35209813 0.00181516 -0.11909823 0.00000000
4.35014402 0.00031320 -0.00047885 0.00000000
1.12480167 -0.00421587 -0.00686475 0.00000000
3.63262638 -0.00169996 -0.08707637 0.00000000
4.19723237 -0.00117274 -0.10705048 0.00000000
1.77444450 0.00137559 -0.08325993 0.00000000
0.13863911 0.00543225 -0.13388397 0.00000000
4.52932375 0.00030679 -0.00297274 0.00000000
0.54623857 0.00346319 -0.02738040 0.00000000
3.07027542 0.00106212 -0.10799560 0.00000000
1.46095190 -0.00398918 -0.01438786 0.00000000
0.72616141 0.00366756 -0.06118003 0.00000000
0.02608494 0.00177197 -0.12351415 0.00000000
1.62350413 0.00171822 -0.00137848 0.00000000
4.40943156 0.00428433 -0.13643072 0.00000000
1.10502079 0.00098685 -0.10052676 0.00000000
4.58919745 -0.00046641 -0.08425642 0.00000000
4.42955420 -0.00001217 -0.05430566 0.00000000
0.15521328 0.00180083 -0.07938387 0.00000000
3.27748938 0.00435465 -0.11533459 0.00000000
4.85726418 -0.00258375 -0.01479051 0.00000000
1.50905600 -0.00126524 -0.12090141 0.00000000
0.65545947 0.00167732 -0.09998300 0.00000000
1.58596465 -0.00303211 -0.08061032 0.00000000
3.24693567 -0.00103744 -0.08014858 0.00000000
0.12154553 0.00008222 -0.09447157 0.00000000
1.40244021 -0.00167049 -0.08822761 0.00000000
4.86620982 0.00055929 -0.06199828 0.00000000
0.29654448 -0.00008744 -0.12530072 0.00000000
0.74860217 0.00244607 -0.02788515 0.00000000
0.26420670 0.00030332 -0.06070890 0.00000000
4.52774129 -0.00345466 -0.05271172 0.00000000
4.80380734 -0.00131761 -0.03119854 0.00000000
3.93103918 -0.00274972 -0.06188777 0.00000000
1.07308231 0.00185184 -0.06171770 0.00000000
1.41613996 0.00306572 -0.02236791 0.00000000
2.85862158 0.00100609 -0.01792240 0.00000000
2.29815387 -0.00033993 -0.09140896 0.00000000
2.79772676 -0.00044894 -0.10843320 0.00000000
3.66983338 0.00160711 -0.12940518 0.00000000
1.77763147 -0.00135612 -0.10941009 0.00000000
0.60569845 0.00110270 -0.10388200 0.00000000
0.90194657 0.00297570 -0.10457366 0.00000000
4.10926371 0.00241105 -0.03572560 0.00000000
0.65237174 0.00166168 -0.09122210 0.00000000
0.05154716 -0.00073519 -0.02628810 0.00000000
0.81891952 -0.00298915 -0.02597767 0.00000000
2.47671427 0.00225419 -0.08515526 0.00000000
2.50386399 -0.00160015 -0.12131216 0.00000000
3.22199317 -0.00216351 -0.01170125 0.00000000
3.60843996 0.00174479 -0.11120497 0.00000000
0.86288397 0.00021806 -0.09109452 0.00000000
0.46539111 0.00165163 -0.04432956 0.00000000
0.59040516 0.00301483 -0.04550153 0.00000000
2.67667057 0.00092743 -0.04248604 0.00000000
1.20123815 0.00139979 -0.02916303 0.00000000
3.44677107 0.00031640 -0.13802442 0.00000000
3.87342444 0.00198189 -0.00566150 0.00000000
2.00605505 0.00121966 -0.12695570 0.00000000
2.32546225 0.00306051 -0.08906484 0.00000000
0.05676150 0.00362069 -0.10688855 0.00000000
0.94113444 0.00017956 -0.06045938 0.00000000
0.65192473 -0.00038446 -0.00039665 0.00000000
2.51506624 0.00046877 -0.12429970 0.00000000
3.21854675 -0.00051943 -0.11045263 0.00000000
4.61020953 0.00290149 -0.12738787 0.00000000
4.36430400 -0.00004104 -0.07091079 0.00000000
3.85711765 -0.00061196 -0.06802209 0.00000000
0.34788911 -0.00185803 -0.05564034 0.00000000
3.93166168 0.00220587 -0.12545554 0.00000000
0.56745409 0.00091364 -0.09349783 0.00000000
1.59716317 -0.00198313 -0.07629021 0.00000000
1.48911146 0.00299266 -0.00568763 0.00000000
1.49510997 -0.00030050 -0.05574084 0.00000000
2.36425839 -0.00208057 -0.11837406 0.00000000
2.37801329 0.00200661 -0.04428261 0.00000000
3.12763525 0.00072973 -0.02057139 0.00000000
1.66665710 0.00032837 -0.01671358 0.00000000
1.49948104 0.00488844 -0.12885855 0.00000000
4.85888950 -0.00021736 -0.03616569 0.00000000
4.78001679 -0.00096775 -0.10778947 0.00000000
1.75297250 -0.00012441 -0.13152402 0.00000000
1.89082350 0.00277172 -0.11023344 0.00000000
1.05861052 -0.00280335 -0.05652505 0.00000000
4.74948258 0.00186363 -0.13280172 0.00000000
0.79915849 0.00092155 -0.11962152 0.00000000
2.47230529 -0.00035894 -0.03523709 0.00000000
1.05270390 0.00089327 -0.02612372 0.00000000
4.53903692 0.00158657 -0.06009756 0.00000000
1.10872079 0.00167067 -0.11826806 0.00000000
4.33045175 0.00004712 -0.10650953 0.00000000
0.19828638 -0.00473506 -0.03023465 0.00000000
0.73277058 0.00020524 -0.10349739 0.00000000
4.01587636 0.00109789 -0.10267044 0.00000000
4.85469399 0.00043807 -0.08051349 0.00000000
0.13256084 0.00256093 -0.06245187 0.00000000
1.37195010 -0.00100542 -0.07337907 0.00000000
4.56209093 0.00519424 -0.01375617 0.00000000
4.37498284 0.00012120 -0.03819457 0.00000000
2.10319329 0.00037152 -0.04674201 0.00000000
0.73660267 0.00516504 -0.12791903 0.00000000
1.09306158 -0.00344975 -0.03528478 0.00000000
2.64362660 -0.00025715 -0.07067440 0.00000000
3.14646165 0.00111054 -0.10183204 0.00000000
0.90518309 0.00293702 -0.13973763 0.00000000
2.69812446 -0.00501605 -0.00799668 0.00000000
0.05375781 -0.00323932 -0.07179083 0.00000000
0.33188593 0.00422895 -0.10075129 0.00000000
0.41835452 0.00121871 -0.07919884 0.00000000
0.76561372 -0.00064867 -0.05266858 0.00000000
