1.64659308 0.62923442 0.00204976 0.00000000
0.89102746 0.80613790 0.00025772 0.00000000
3.29605953 1.60990946 0.00266654 0.00000000
2.07614892 0.81144130 0.00208561 0.00000000
3.99826324 0.62222498 -0.00169300 0.00000000
2.12019884 1.94689384 -0.00173099 0.00000000
0.38452324 0.44530896 0.00203040 0.00000000
2.32881256 0.12240251 0.00326560 0.00000000
2.53048659 0.92634636 -0.00106401 0.00000000
2.27258646 1.00767725 0.00100512 0.00000000
2.62917769 0.29160186 -0.00257313 0.00000000
0.38463960 1.69775657 -0.00295715 0.00000000
0.27775483 0.67603829 -0.00295752 0.00000000
3.77954687 1.53973757 0.00159286 0.00000000
2.11086225 1.64321999 0.00156217 0.00000000
3.56127068 1.84508589 -0.00108634 0.00000000
1.12426007 1.54598444 0.00321266 0.00000000
1.15211547 0.13571817 0.00425009 0.00000000
0.45462858 1.66737916 -0.00157504 0.00000000
0.17599216 0.19573561 0.00268528 0.00000000
3.22792419 1.83010759 0.00095365 0.00000000
0.62251102 1.36247804 0.00101859 0.00000000
1.43471066 1.25640196 0.00086928 0.00000000
3.95673409 1.95144603 0.00182824 0.00000000
1.76302160 0.50846438 -0.00198481 0.00000000
2.39613599 1.22473114 -0.00298162 0.00000000
4.16304709 0.27699755 0.00046919 0.00000000
3.27587627 0.28356325 0.00180681 0.00000000
3.70104737 1.96368262 -0.00205015 0.00000000
2.62435833 0.18066196 0.00022314 0.00000000
0.41922244 1.12095942 0.00050432 0.00000000
1.43985669 0.87291294 -0.00019849 0.00000000
0.31000930 0.94528855 -0.00077137 0.00000000
3.19459324 1.57088304 0.00205131 0.00000000
1.54911268 0.29483921 0.00322495 0.00000000
3.83431142 1.22669179 0.00445173 0.00000000
4.25514354 1.84578042 0.00218532 0.00000000
2.72462407 1.07509311 -0.00093207 0.00000000
3.45774763 0.01765154 0.00149382 0.00000000
0.27709991 0.09313492 -0.00241811 0.00000000
1.71164610 1.85893814 -0.00190759 0.00000000
2.27007924 0.98026242 -0.00066444 0.00000000
0.46367075 0.73911747 0.00355188 0.00000000
0.99603918 0.97820560 0.00031658 0.00000000
1.64502955 1.11951208 0.00247934 0.00000000
0.63589458 0.74175051 -0.00146557 0.00000000
0.25367586 1.65859967 0.00447733 0.00000000
1.70459496 0.25915428 -0.00204020 0.00000000
2.68935430 1.08407114 0.00314521 0.00000000
1.02626329 1.86324059 0.00280757 0.00000000
4.17258341 1.09533035 -0.00088732 0.00000000
3.23603963 1.46868791 0.00007834 0.00000000
1.92725259 0.50171754 0.00333362 0.00000000
2.97445272 1.01389150 0.00300977 0.00000000
0.12676224 1.73454213 -0.00182112 0.00000000
2.36392894 1.73005166 -0.00088493 0.00000000
1.59542187 0.64490495 0.00161224 0.00000000
2.59992898 0.07907340 -0.00320567 0.00000000
1.52202290 1.44819427 0.00086589 0.00000000
0.06798417 1.03001743 0.00324528 0.00000000
1.69751183 1.50665440 0.00416693 0.00000000
0.98655776 0.80545623 -0.00093610 0.00000000
3.99186920 1.95609360 0.00030675 0.00000000
2.60092866 1.09921942 0.00257507 0.00000000
1.93684181 1.70104439 0.00118646 0.00000000
1.32856489 0.85131256 0.00157123 0.00000000
2.40781981 1.31641692 -0.00054847 0.00000000
3.63009028 0.89874143 -0.00081099 0.00000000
3.86051362 1.47478419 0.00420746 0.00000000
1.62643567 0.87180601 0.00006071 0.00000000
2.03393040 0.91612459 -0.00328934 0.00000000
0.48001383 0.87681131 0.00066639 0.00000000
0.34070634 1.25940381 -0.00251537 0.00000000
0.47220821 0.08629244 -0.00086820 0.00000000
2.92877434 0.32372087 0.00477984 0.00000000
0.49991682 1.55555285 0.00447153 0.00000000
0.19416327 1.38032481 0.00046279 0.00000000
0.00338140 1.20607220 -0.00066349 0.00000000
3.94858106 1.03584091 0.00327496 0.00000000
0.84084475 1.19745900 0.00000804 0.00000000
3.46106988 0.60629401 -0.00076918 0.00000000
1.69751271 0.07732746 0.00470214 0.00000000
1.35043818 1.00801772 -0.00293018 0.00000000
2.30874238 1.24609763 -0.00361746 0.00000000
0.60896893 1.53478498 -0.00053533 0.00000000
2.57162720 0.29282350 0.00006379 0.00000000
1.14839130 1.40904934 0.00265410 0.00000000
3.14529237 1.49926178 0.00148596 0.00000000
1.81549586 0.93396230 0.00440045 0.00000000
0.05644033 0.31453366 0.00033020 0.00000000
2.33174958 0.75540533 0.00156631 0.00000000
0.82409000 1.46430388 0.00145264 0.00000000
4.29763108 1.88636289 0.00326192 0.00000000
1.71800971 0.94934202 -0.00037724 0.00000000
1.05142644 1.74423775 -0.00137133 0.00000000
0.01281619 1.78024344 0.00458130 0.00000000
3.83428722 0.51570558 -0.00002213 0.00000000
2.56025899 1.45389275 0.00002720 0.00000000
0.50166084 1.09017425 0.00066029 0.00000000
0.47972287 1.69785443 0.00160612 0.00000000
3.45176892 0.90453355 0.00338053 0.00000000
0.69829047 0.75383867 0.00414603 0.00000000
2.77428817 1.23292432 -0.00055357 0.00000000
2.34731522 0.13039634 0.00066619 0.00000000
3.57726246 0.90085027 -0.00019452 0.00000000
0.73973896 1.30037267 -0.00031057 0.00000000
0.14914047 0.32905006 0.00390390 0.00000000
3.82504168 0.92213068 0.00222540 0.00000000
4.05185959 0.91673687 -0.00644092 0.00000000
3.41190811 0.70469449 -0.00026085 0.00000000
1.66643508 0.39080596 -0.00361274 0.00000000
1.18351750 1.57695944 -0.00151893 0.00000000
1.70596836 1.26284628 0.00092985 0.00000000
2.98787742 1.57141798 0.00361771 0.00000000
2.86709507 1.73624252 0.00024219 0.00000000
3.66724988 0.60204916 0.00228313 0.00000000
0.65152558 1.68587309 0.00025010 0.00000000
1.85579230 0.30990056 -0.00066079 0.00000000
1.30913597 1.44021392 -0.00016024 0.00000000
2.94069061 0.80067550 -0.00105657 0.00000000
0.60326437 1.49197968 -0.00004902 0.00000000
2.26718000 0.04963098 -0.00044017 0.00000000
1.46874934 0.64673778 0.00208975 0.00000000
1.44443041 0.20296982 -0.00088860 0.00000000
1.56583117 1.57019495 0.00061516 0.00000000
2.46533051 0.82892315 0.00042054 0.00000000
3.91223187 0.47748548 0.00148251 0.00000000
0.25256799 1.47228173 0.00079759 0.00000000
1.66072328 0.97215552 0.00100559 0.00000000
3.83955631 1.73041137 0.00427034 0.00000000
0.94489810 1.70008060 0.00116409 0.00000000
3.53153900 1.19017407 0.00209337 0.00000000
3.30646170 1.61534173 -0.00290645 0.00000000
0.82245911 1.65340421 -0.00051710 0.00000000
1.45813174 1.69051906 0.00072985 0.00000000
1.16092635 0.30612793 0.00160640 0.00000000
0.05745006 0.25217611 0.00009345 0.00000000
3.75704887 0.94357908 -0.00131565 0.00000000
3.17293251 1.82173232 -0.00411891 0.00000000
2.68271432 1.16548289 -0.00051728 0.00000000
0.11470657 1.80452416 -0.00223807 0.00000000
2.24146781 1.68512750 -0.00449262 0.00000000
4.29702130 1.20761384 -0.00010678 0.00000000
3.89855984 0.15260158 0.00277466 0.00000000
1.35878631 0.75584364 -0.00059476 0.00000000
2.83972022 0.38687457 -0.00234532 0.00000000
2.68064447 0.53025027 0.00186004 0.00000000
0.84634910 1.63486679 -0.00174409 0.00000000
3.72215735 0.15279846 0.00322129 0.00000000
3.51697996 0.83393791 0.00041211 0.00000000
2.26365289 0.42098824 0.00233811 0.00000000
0.42615274 0.20089354 0.00061600 0.00000000
2.16469628 1.38233767 0.00057087 0.00000000
4.20301404 0.86869917 0.00400924 0.00000000
0.76533420 1.41652958 0.00210780 0.00000000
0.52471114 1.94629049 -0.00127884 0.00000000
2.59517411 0.07721727 0.00218101 0.00000000
2.06496077 0.16004332 -0.00008977 0.00000000
3.43347322 0.22420389 -0.00086599 0.00000000
3.67367495 0.35711385 0.00118866 0.00000000
3.39397783 1.43116991 0.00052869 0.00000000
3.93011746 0.57613112 -0.00332976 0.00000000
0.17647325 1.18583970 0.00193057 0.00000000
2.01420158 0.93509276 -0.00013340 0.00000000
1.73007856 0.03888022 0.00736199 0.00000000
4.13334500 0.36565823 -0.00118992 0.00000000
3.99737200 1.03067195 0.00028594 0.00000000
3.31173656 0.86448273 -0.00075992 0.00000000
1.33894170 0.81977692 -0.00463621 0.00000000
2.03438314 1.90120696 -0.00016362 0.00000000
1.06374751 0.46105575 -0.00227414 0.00000000
3.15442892 0.54782311 0.00347772 0.00000000
2.52495657 0.14826292 -0.00074130 0.00000000
3.31940965 0.71419163 -0.00117198 0.00000000
0.45898443 0.60335881 0.00143775 0.00000000
1.17407058 0.09821434 0.00165804 0.00000000
1.90557959 0.98716616 0.00218547 0.00000000
3.53199338 1.42566912 -0.00029627 0.00000000
2.23505797 0.79422256 0.00064238 0.00000000
2.73602504 0.54795961 0.00184295 0.00000000
0.48658346 0.54027330 0.00011511 0.00000000
1.86231041 1.92871045 -0.00196255 0.00000000
1.74669593 0.51192377 0.00147523 0.00000000
2.90142289 0.81806955 -0.00427082 0.00000000
0.76597689 1.85187105 -0.00258859 0.00000000
2.47485712 1.77917731 0.00270532 0.00000000
3.52934960 0.95878076 0.00019491 0.00000000
1.83578095 0.57636072 -0.00187692 0.00000000
2.64023780 1.06940434 -0.00204642 0.00000000
4.18166170 0.17549077 0.00785187 0.00000000
4.19915194 0.47163944 -0.00274680 0.00000000
0.10712480 1.65642282 0.00252905 0.00000000
0.09397677 0.60098696 -0.00352411 0.00000000
4.12328810 0.20922114 -0.00020588 0.00000000
1.48655532 0.03927169 -0.00010709 0.00000000
0.75052706 0.38344131 -0.00129418 0.00000000
0.00932168 0.89114188 0.00054943 0.00000000
1.78994962 0.83323563 -0.00305821 0.00000000
2.76360948 1.59886446 -0.00033767 0.00000000
2.33463282 0.74817481 0.00140054 0.00000000
1.93997291 1.60412441 0.00024101 0.00000000
0.79250356 0.21325391 0.00452737 0.00000000
2.47081433 0.49843000 0.00016767 0.00000000
3.48598608 1.66741931 0.00037132 0.00000000
1.91283875 0.87472025 0.00161073 0.00000000
2.90140319 1.10846187 0.00021263 0.00000000
0.40353415 0.75389497 0.00068113 0.00000000
1.62054228 0.19618170 -0.00196862 0.00000000
3.86636573 0.72784198 -0.00692618 0.00000000
1.97958165 0.11939455 -0.00219735 0.00000000
2.17366816 1.80662660 0.00299200 0.00000000
1.65438497 0.17720706 0.00141337 0.00000000
1.65918179 0.39999871 -0.00386932 0.00000000
0.56994930 0.85556399 -0.00176854 0.00000000
1.14524663 0.69940683 -0.00214959 0.00000000
0.12227996 0.47464787 -0.00308732 0.00000000
4.01999063 1.17760586 -0.00205255 0.00000000
1.20878088 1.53184248 -0.00219121 0.00000000
1.99763726 1.30967429 0.00204713 0.00000000
2.76070707 0.31316121 0.00119222 0.00000000
2.38995261 1.92064157 -0.00032740 0.00000000
0.78391958 0.09543418 -0.00063928 0.00000000
4.18898221 1.50661172 0.00018251 0.00000000
3.88390582 0.98791630 -0.00125233 0.00000000
2.69251550 0.68157289 -0.00237781 0.00000000
3.59184176 1.89626068 0.00376598 0.00000000
4.21118563 0.47299802 -0.00307230 0.00000000
0.79251896 0.04149929 0.00245339 0.00000000
1.14559570 1.87254062 0.00285025 0.00000000
0.14073435 0.96538057 0.00232640 0.00000000
1.70224016 1.31632853 -0.00026518 0.00000000
1.07339886 0.66553313 -0.00064318 0.00000000
3.41416822 1.00836184 -0.00001380 0.00000000
1.03274843 1.95961957 0.00309719 0.00000000
0.03366844 1.47712430 0.00207620 0.00000000
3.50768523 1.47434899 -0.00147178 0.00000000
2.75432720 0.11533677 -0.00401449 0.00000000
1.07956271 1.10557443 -0.00298570 0.00000000
4.18566080 1.56338226 -0.00687454 0.00000000
0.89336166 0.79341146 -0.00137812 0.00000000
2.31240614 1.40218394 -0.00139028 0.00000000
2.13187926 0.99315609 -0.00366789 0.00000000
2.38152409 0.71505458 0.00281693 0.00000000
0.22813566 1.33840313 -0.00296589 0.00000000
0.08779566 0.58194714 0.00294280 0.00000000
2.12655852 1.06132429 -0.00427303 0.00000000
1.29937330 1.23755424 0.00058334 0.00000000
3.44916993 0.78066280 0.00035345 0.00000000
0.96297295 0.79937778 -0.00075239 0.00000000
0.36916723 1.10292391 0.00035417 0.00000000
2.57568875 1.74544630 -0.00007680 0.00000000
1.75405972 0.50246653 0.00247942 0.00000000
3.34729870 0.22439475 -0.00005993 0.00000000
3.92606231 1.10421687 -0.00240015 0.00000000
0.29519454 0.90923505 0.00357381 0.00000000
1.18475918 1.63779240 0.00098496 0.00000000
1.39100249 1.02339444 -0.00002318 0.00000000
1.52904096 0.47213478 -0.00195288 0.00000000
1.47412404 1.86340815 -0.00299491 0.00000000
1.41386160 1.93349403 0.00040457 0.00000000
1.30099839 0.02045968 0.00636505 0.00000000
4.16766145 1.28876292 0.00421331 0.00000000
3.21080570 1.61710701 0.00185073 0.00000000
3.44737962 0.96048347 -0.00250490 0.00000000
3.76748417 1.84090081 0.00138362 0.00000000
3.28781287 1.08883156 0.00060844 0.00000000
3.55495639 1.32644449 0.00168637 0.00000000
0.86716024 0.64074862 0.00116653 0.00000000
3.56302992 0.35809911 0.00093468 0.00000000
4.12095784 1.36949960 0.00516473 0.00000000
2.39995670 0.47458388 0.00017205 0.00000000
1.37399038 1.38910595 0.00142963 0.00000000
3.89397692 0.53101786 -0.00233588 0.00000000
1.69712948 1.76242039 -0.00027353 0.00000000
1.68620769 1.25828168 -0.00040034 0.00000000
0.71897024 1.85922578 -0.00320719 0.00000000
0.53991487 1.77202688 -0.00328388 0.00000000
3.00648333 1.89313557 0.00849307 0.00000000
0.29896897 0.44563205 0.00254861 0.00000000
1.19209214 1.87479346 0.00181794 0.00000000
0.38572360 0.32251950 0.00192712 0.00000000
2.39749557 1.35533556 0.00315961 0.00000000
2.37072443 1.95309841 0.00085251 0.00000000
1.26607135 0.58085597 0.00171548 0.00000000
2.43138872 0.83951347 0.00059449 0.00000000
0.51869792 1.67490236 0.00180583 0.00000000
2.26546599 1.91207883 0.00154145 0.00000000
2.21650075 0.44881183 -0.00145394 0.00000000
3.85838547 1.10213174 0.00050747 0.00000000
1.59712521 0.08591658 -0.00026322 0.00000000
3.92871071 1.15149443 -0.00051754 0.00000000
1.17797592 1.63216305 0.00503315 0.00000000
2.12878020 1.33152756 0.00030926 0.00000000
2.36013327 0.36664269 0.00323455 0.00000000
3.01914576 1.53362474 0.00074122 0.00000000
2.06219835 1.59424157 0.00135126 0.00000000
1.63942951 0.22439052 0.00194665 0.00000000
1.95361792 1.76077015 -0.00166234 0.00000000
1.44212244 1.71650107 -0.00309687 0.00000000
1.64019723 1.83083673 -0.00105323 0.00000000
4.01092562 0.09423095 0.00530240 0.00000000
2.52732143 0.62623826 0.00241098 0.00000000
3.88513697 0.50886706 0.00082024 0.00000000
1.47484986 0.00491459 -0.00629413 0.00000000
0.92592089 1.04559461 -0.00351970 0.00000000
4.00734847 0.81923570 0.00271626 0.00000000
0.00021721 0.63929165 0.00433582 0.00000000
0.14192514 0.94597749 -0.00023649 0.00000000
3.26432232 0.06876565 0.00049311 0.00000000
0.37496755 0.84512975 0.00074808 0.00000000
2.02709230 1.72956877 0.00143484 0.00000000
4.03523146 1.01141803 0.00126111 0.00000000
3.00715739 0.52425821 -0.00084406 0.00000000
1.83457193 1.61736160 0.00059388 0.00000000
2.72448403 1.73999799 -0.00167582 0.00000000
2.82549620 1.15395144 -0.00236151 0.00000000
2.41228985 0.07355417 -0.00146323 0.00000000
1.36931830 0.81146359 -0.00131056 0.00000000
1.76430313 0.46683181 -0.00274143 0.00000000
3.18095918 1.83984999 0.00121250 0.00000000
0.55653152 0.14570885 -0.00026826 0.00000000
3.33005957 1.60526763 -0.00284122 0.00000000
1.52481951 0.49439092 -0.00034098 0.00000000
2.05400756 0.85941689 -0.00270512 0.00000000
2.93711457 1.31564368 -0.00161456 0.00000000
0.85984108 1.84076537 -0.00167223 0.00000000
0.36006727 0.64312454 0.00116947 0.00000000
3.36519149 1.07735839 0.00436086 0.00000000
3.63478145 1.87071188 0.00181958 0.00000000
1.60140686 0.29078655 -0.00276736 0.00000000
1.09822195 0.23477008 -0.00386695 0.00000000
3.45620121 0.48747203 0.00388182 0.00000000
2.34814934 0.80976536 -0.00481989 0.00000000
0.95352003 0.30971991 -0.00256541 0.00000000
0.22746143 0.47461402 -0.00193996 0.00000000
1.04750111 0.21357594 0.00129410 0.00000000
2.65954775 0.02180063 -0.00127984 0.00000000
3.45114922 0.15129502 0.00071802 0.00000000
1.18010527 1.23503457 0.00280026 0.00000000
2.83599347 1.03741040 -0.00165177 0.00000000
3.28612069 0.77087538 -0.00349010 0.00000000
1.25509025 0.12061347 0.00017688 0.00000000
3.88600435 0.13687887 0.00032023 0.00000000
3.19722637 0.65694330 -0.00120558 0.00000000
1.87409164 0.99139766 -0.00176140 0.00000000
0.27748586 1.48649352 -0.00235867 0.00000000
2.80276629 1.62396941 0.00175584 0.00000000
1.11792788 0.50546733 -0.00209566 0.00000000
0.81963413 1.05233895 0.00058712 0.00000000
1.56548421 0.66502945 -0.00339248 0.00000000
3.31343862 0.05592299 0.00344612 0.00000000
0.05261455 0.54868914 0.00130622 0.00000000
1.92457074 1.25434551 0.00131111 0.00000000
0.41734181 1.89451017 0.00121931 0.00000000
1.68000302 0.97771609 0.00218436 0.00000000
3.96580657 0.95325383 0.00454785 0.00000000
3.04652406 1.50254285 0.00009213 0.00000000
0.29799106 1.59363600 -0.00425653 0.00000000
0.24116447 1.95195996 0.00345623 0.00000000
1.00213225 0.61365517 -0.00099422 0.00000000
4.17249996 0.35594780 -0.00689370 0.00000000
1.56730427 0.49666159 0.00058437 0.00000000
4.17115835 0.15167140 0.00000462 0.00000000
2.67828157 1.51470443 0.00088436 0.00000000
3.72935384 1.72540559 -0.00094832 0.00000000
3.02371405 1.67229961 -0.00066448 0.00000000
2.96093064 1.20689136 0.00415988 0.00000000
0.68183364 0.53419033 -0.00132029 0.00000000
1.76172705 1.41255451 0.00244126 0.00000000
3.97410118 1.18388723 -0.00396293 0.00000000
1.16129205 0.94108766 -0.00259348 0.00000000
1.43432398 0.62017602 -0.00483317 0.00000000
3.49205816 1.95874097 0.00276823 0.00000000
0.85147230 0.86939172 -0.00186113 0.00000000
1.89909527 1.66993815 0.00141706 0.00000000
1.93110965 1.71964647 -0.00024257 0.00000000
0.79915882 0.95810694 -0.00225907 0.00000000
3.91368950 0.04366548 0.00098178 0.00000000
4.30511479 0.77116905 0.00160347 0.00000000
3.23078210 0.14142056 -0.00319254 0.00000000
1.37450591 1.18721254 0.00514174 0.00000000
2.64717856 1.21620809 0.00010092 0.00000000
0.71621634 1.08536144 0.00097556 0.00000000
1.91339613 1.70419612 0.00389206 0.00000000
0.76661808 0.51072274 0.00045922 0.00000000
0.78413941 0.82132523 0.00214032 0.00000000
2.64955608 1.23409182 -0.00340319 0.00000000
4.20662386 1.21490628 -0.00043163 0.00000000
2.91333217 0.14740198 0.00331516 0.00000000
0.03981601 1.94512375 0.00451755 0.00000000
1.94393399 0.65535966 -0.00261965 0.00000000
1.31998906 0.20721437 -0.00029330 0.00000000
1.93495294 1.74308470 0.00119132 0.00000000
3.21879525 0.11537731 -0.00153100 0.00000000
2.89506111 1.00453156 0.00091439 0.00000000
3.06201922 0.58496834 0.00044304 0.00000000
0.42237947 1.18008119 -0.00366355 0.00000000
3.43991423 0.95184707 -0.00059440 0.00000000
0.33454090 1.65278906 0.00175707 0.00000000
4.13364341 0.10330506 0.00211272 0.00000000
3.19630329 0.14799864 0.00128927 0.00000000
1.45577205 0.79659836 -0.00263739 0.00000000
1.29229337 0.45438402 -0.00135123 0.00000000
0.43451342 0.57379378 -0.00199800 0.00000000
1.35159298 1.93640182 -0.00007198 0.00000000
0.33254522 1.83479630 0.00097368 0.00000000
3.26839798 0.04827813 -0.00358074 0.00000000
3.85771047 1.17775846 0.00279828 0.00000000
3.68173968 1.13184698 -0.00218313 0.00000000
0.25999641 1.23869540 -0.00309317 0.00000000
1.68686653 0.98868468 0.00243401 0.00000000
2.04224892 0.21023495 0.00736012 0.00000000
3.23553071 0.86659551 -0.00423774 0.00000000
3.19538248 0.84673410 -0.00132784 0.00000000
0.87500250 1.92070852 0.00347008 0.00000000
0.67571275 0.53568576 0.00145209 0.00000000
0.65897319 1.95304949 0.00073530 0.00000000
0.64505207 0.12810119 0.00372413 0.00000000
1.42388573 1.17270288 -0.00445901 0.00000000
1.49717751 1.74629139 0.00195761 0.00000000
1.81664922 1.32406288 0.00169043 0.00000000
4.14102323 0.61628585 -0.00022090 0.00000000
0.84740350 1.34126347 -0.00072903 0.00000000
0.23853387 1.12378924 -0.00115537 0.00000000
4.03983658 0.67652638 -0.00130745 0.00000000
1.53012652 1.25542749 0.00355884 0.00000000
1.75946571 0.87305204 0.00216065 0.00000000
4.08484477 1.30010313 0.00443142 0.00000000
4.16745840 0.38963633 -0.00481941 0.00000000
3.01048464 0.77787362 0.00252089 0.00000000
1.49530351 1.04564533 -0.00069823 0.00000000
0.04637638 0.35065347 0.00053730 0.00000000
2.34466473 0.65078921 0.00174628 0.00000000
1.61494586 1.07349678 0.00399144 0.00000000
0.78825985 1.26918845 0.00100758 0.00000000
3.01087600 0.47463432 -0.00251882 0.00000000
1.92906469 0.26403151 -0.00489867 0.00000000
4.11996653 1.31459216 -0.00224392 0.00000000
1.73693037 1.95707795 -0.00130844 0.00000000
2.00856321 1.56642610 -0.00274561 0.00000000
1.87308695 0.43805436 -0.00338149 0.00000000
2.71480905 0.78181560 -0.00037345 0.00000000
2.46576919 0.89389250 -0.00488154 0.00000000
1.20737074 1.48952252 -0.00312321 0.00000000
1.33754932 1.22505760 0.00040549 0.00000000
1.11191618 0.40119214 -0.00140038 0.00000000
0.18269801 0.86059595 0.00077405 0.00000000
0.35631203 0.36489642 -0.00380396 0.00000000
0.79334042 1.19821672 0.00267785 0.00000000
2.72859591 0.98249544 -0.00193374 0.00000000
0.87834416 0.74972707 0.00170479 0.00000000
2.49135367 0.70382672 -0.00112614 0.00000000
3.92679459 1.48551405 0.00041100 0.00000000
1.33942085 1.62240340 -0.00502060 0.00000000
3.46883545 0.69363984 -0.00127399 0.00000000
2.00360217 0.38592463 0.00029869 0.00000000
0.08267806 1.09464252 -0.00120297 0.00000000
3.64524107 1.50066904 0.00086182 0.00000000
0.16316145 0.20066484 -0.00223824 0.00000000
3.77606308 0.15706123 -0.00360507 0.00000000
0.53063884 0.63435858 0.00404610 0.00000000
1.27686764 0.52080330 -0.00253226 0.00000000
3.52227810 1.42267556 0.00413600 0.00000000
0.17623233 0.22424163 0.00151216 0.00000000
0.69607280 0.04231846 -0.00122174 0.00000000
3.16550523 1.02616505 0.00028198 0.00000000
2.53190849 1.54854474 0.00327686 0.00000000
1.40943959 1.53487290 0.00018609 0.00000000
2.20232219 0.56902020 0.00016253 0.00000000
3.15947024 0.40078222 0.00095154 0.00000000
3.64292072 0.14528515 0.00167517 0.00000000
3.43457095 1.91634706 0.00025018 0.00000000
1.45873619 1.34493348 -0.00150840 0.00000000
1.94468660 0.64764658 -0.00133736 0.00000000
4.03829172 1.21360071 0.00492034 0.00000000
3.37504570 1.64295633 0.00608414 0.00000000
2.75273389 0.57037393 -0.00119561 0.00000000
2.04356132 1.63216413 -0.00124553 0.00000000
0.09313242 1.53246244 0.00261900 0.00000000
4.14309467 1.77161341 -0.00284645 0.00000000
1.16027476 0.94337393 -0.00390291 0.00000000
0.65300615 1.03639863 -0.00061525 0.00000000
2.82227583 1.84700733 -0.00345627 0.00000000
1.45852626 0.41995058 -0.00460200 0.00000000
2.28130469 0.75222841 0.00057882 0.00000000
2.15698788 0.15376027 -0.00158783 0.00000000
4.19955220 1.40056994 0.00158279 0.00000000
1.27985252 0.09773057 -0.00342007 0.00000000
2.02471029 1.45804886 -0.00020145 0.00000000
1.37247619 0.98763852 0.00155314 0.00000000
0.45368339 0.91458610 -0.00248313 0.00000000
1.39410011 0.29214635 0.00016621 0.00000000
0.93988291 0.13261631 0.00325153 0.00000000
3.46205095 0.22257892 0.00379433 0.00000000
4.24441276 1.78320946 -0.00125804 0.00000000
0.89673194 0.47408360 -0.00182464 0.00000000
0.21486914 1.81008934 -0.00396349 0.00000000
3.79955014 1.22421652 0.00197110 0.00000000
1.59263571 1.61781210 -0.00088506 0.00000000
1.35862321 1.20848874 0.00051268 0.00000000
0.24650867 0.22196433 -0.00139532 0.00000000
4.05400617 0.20902656 0.00504382 0.00000000
2.51369269 0.32394462 -0.00139994 0.00000000
0.87084893 1.47036676 0.00235685 0.00000000
0.26653893 1.28333175 -0.00249022 0.00000000
3.38946681 0.60439625 -0.00468514 0.00000000
3.03092397 1.37762584 -0.00327292 0.00000000
2.79449503 0.51075123 -0.00230393 0.00000000
2.51744594 1.64782111 0.00393105 0.00000000
3.16170633 1.87497490 0.00001870 0.00000000
2.95374707 0.53124634 -0.00352295 0.00000000
2.25245326 0.39583877 -0.00151151 0.00000000
2.15029178 1.77097625 0.00312413 0.00000000
3.38427081 1.84034031 0.00083111 0.00000000
3.10608247 1.29859702 0.00391062 0.00000000
1.56669674 1.10028355 -0.00144936 0.00000000
2.53686741 0.26128299 -0.00266464 0.00000000
3.39275731 0.80304963 -0.00066330 0.00000000
2.76695740 1.85472755 -0.00453356 0.00000000
2.97270345 1.35547784 -0.00426145 0.00000000
2.66481156 0.02934618 0.00220217 0.00000000
1.21572375 0.53003295 -0.00079623 0.00000000
2.08791043 0.90154955 -0.00099867 0.00000000
1.81240672 0.67748896 0.00050843 0.00000000
2.01149216 1.58909797 -0.00475321 0.00000000
2.26220747 0.99259876 -0.00184022 0.00000000
2.57366387 0.82551291 -0.00403577 0.00000000
3.36116556 1.39739071 0.00014878 0.00000000
0.48939783 1.90857573 -0.00023288 0.00000000
0.90006808 1.61612210 0.00015896 0.00000000
0.26529964 0.30878173 -0.00106931 0.00000000
2.86862281 1.33445309 0.00026393 0.00000000
1.71846182 0.36218748 -0.00062126 0.00000000
3.96251527 0.59760536 -0.00270911 0.00000000
1.73487540 0.18115839 0.00480110 0.00000000
0.58891367 1.24707164 -0.00318018 0.00000000
4.04506736 0.14953294 0.00249053 0.00000000
0.79374447 0.11131684 -0.00205812 0.00000000
0.01806510 1.29343537 -0.00150789 0.00000000
2.89258829 1.55816066 -0.00131474 0.00000000
3.49050533 1.81642001 0.00423136 0.00000000
3.84785651 0.24754199 -0.00151785 0.00000000
0.54482824 0.74813153 -0.00282505 0.00000000
2.02718214 1.40971343 0.00125077 0.00000000
3.20685478 0.39866059 0.00018548 0.00000000
2.87489705 1.71800609 0.00081110 0.00000000
0.97114613 0.51317409 0.00184249 0.00000000
1.55970355 1.28878527 -0.00009101 0.00000000
1.46884948 1.07698749 -0.00203081 0.00000000
3.64282981 0.28849954 -0.00077521 0.00000000
2.70693216 1.72175781 0.00163215 0.00000000
3.03768785 1.39458433 -0.00207239 0.00000000
3.62678603 1.13163049 -0.00052567 0.00000000
1.30478354 0.26468000 -0.00050851 0.00000000
3.22254111 1.57671777 0.00137896 0.00000000
1.93413204 0.82806760 -0.00111776 0.00000000
2.57322761 1.27887722 -0.00193379 0.00000000
3.55862246 1.71823052 -0.00080637 0.00000000
3.97929828 1.69651540 0.00406626 0.00000000
2.91740563 1.93052282 0.00253839 0.00000000
0.15833760 1.70423805 -0.00217878 0.00000000
4.29016125 1.09493415 0.00197577 0.00000000
0.60702718 0.16853573 0.00177570 0.00000000
3.33491439 0.25639095 0.00040687 0.00000000
3.80287979 0.39072848 0.00365865 0.00000000
3.67716867 1.57880435 -0.00142352 0.00000000
0.44908379 0.83960718 -0.00133558 0.00000000
1.82511076 0.30559989 -0.00424256 0.00000000
2.38351722 1.47525655 -0.00287657 0.00000000
0.67087043 0.86899335 -0.00095203 0.00000000
1.09647492 1.50795985 -0.00346668 0.00000000
1.70327167 1.46003010 -0.00368478 0.00000000
0.36375272 1.31067733 -0.00067066 0.00000000
1.05497110 1.51272603 0.00079795 0.00000000
0.01049126 0.03904778 0.00408309 0.00000000
0.41643599 1.95311531 0.00161199 0.00000000
0.57850908 0.38656341 -0.00117968 0.00000000
1.87411098 0.69687832 0.00116165 0.00000000
2.34548129 0.61645371 -0.00041884 0.00000000
3.68755434 1.25280179 -0.00219936 0.00000000
1.34306236 0.71296178 0.00024041 0.00000000
1.55914475 0.16862536 0.00079266 0.00000000
3.56106959 1.66867835 0.00057527 0.00000000
3.15553821 0.06803191 0.00099439 0.00000000
0.81893769 1.84517671 -0.00001272 0.00000000
0.68055861 0.92361520 -0.00157616 0.00000000
0.36724019 1.10906499 -0.00054132 0.00000000
2.48997406 1.07168700 0.00099971 0.00000000
0.22600155 1.76074511 0.00306857 0.00000000
0.53890266 0.84417156 0.00462943 0.00000000
3.10887774 1.33715585 -0.00203926 0.00000000
2.79365120 0.86563176 0.00060936 0.00000000
0.72069913 0.03232820 0.00265785 0.00000000
0.39891991 0.79874976 0.00055390 0.00000000
2.75415706 0.59334150 0.00037284 0.00000000
1.00011751 1.93182889 -0.00273630 0.00000000
1.33422321 1.34338760 0.00186091 0.00000000
1.44341454 0.94184450 -0.00151897 0.00000000
2.23128709 1.44557551 0.00185381 0.00000000
1.14174053 1.00959623 -0.00364880 0.00000000
4.19105712 0.88538860 -0.00178762 0.00000000
3.69656559 0.70856042 -0.00462093 0.00000000
0.38053209 0.61234746 -0.00386245 0.00000000
3.45842438 0.96660945 0.00396796 0.00000000
3.58394131 1.84038186 -0.00101473 0.00000000
0.15995760 0.08675852 0.00259888 0.00000000
0.92110053 0.46256680 0.00088086 0.00000000
1.52642676 1.83451666 0.00018846 0.00000000
1.30424282 0.73938459 -0.00001919 0.00000000
2.12627353 0.99407418 0.00036908 0.00000000
3.86261603 1.34713340 0.00183684 0.00000000
2.91545161 1.31957355 0.00128213 0.00000000
1.97139667 0.39965893 0.00243719 0.00000000
2.46195598 0.05565943 0.00242992 0.00000000
3.46750063 1.03926819 0.00282540 0.00000000
3.85648692 1.01831527 0.00050060 0.00000000
1.93987813 0.12642632 -0.00033679 0.00000000
2.66740992 1.04447681 0.00010816 0.00000000
3.24294837 1.75736841 -0.00398255 0.00000000
2.27646954 1.03929679 0.00091316 0.00000000
3.43401865 0.64646149 0.00231984 0.00000000
3.41649620 0.86078327 0.00040862 0.00000000
3.80925571 0.05226533 -0.00071794 0.00000000
1.12908088 0.39606044 -0.00007150 0.00000000
1.00481757 1.34684426 -0.00358251 0.00000000
3.66793733 1.65774153 0.00345401 0.00000000
1.01858056 1.83177913 0.00083498 0.00000000
0.88964060 0.71956716 0.00145975 0.00000000
1.90104747 0.53966487 0.00402433 0.00000000
0.42083746 0.40338140 0.00464582 0.00000000
2.02567098 1.82655996 -0.00153474 0.00000000
2.67445000 1.15522579 -0.00109701 0.00000000
2.21975468 0.06724367 0.00200776 0.00000000
0.63728194 1.88321718 0.00090779 0.00000000
0.40354998 0.22457328 -0.00149858 0.00000000
3.22907246 0.47481437 0.00162931 0.00000000
4.27115473 1.27237486 0.00009537 0.00000000
2.08580766 0.14298962 0.00149970 0.00000000
4.27408260 0.07672427 -0.00045403 0.00000000
2.14522161 1.09173728 -0.00508714 0.00000000
3.16436686 0.51638495 -0.00068949 0.00000000
3.65191333 0.65697861 -0.00165848 0.00000000
2.95205221 0.09287063 0.00004084 0.00000000
0.01375202 0.15143958 -0.00407511 0.00000000
3.53218498 1.26416762 0.00057550 0.00000000
3.93152589 0.07010420 -0.00117846 0.00000000
2.58554840 1.21251745 0.00453946 0.00000000
2.70686108 1.11794254 -0.00279478 0.00000000
2.32876455 0.28411840 -0.00548980 0.00000000
2.65231398 0.10736853 -0.00248854 0.00000000
3.49612265 1.16180665 -0.00007504 0.00000000
0.56337066 0.96489237 -0.00318940 0.00000000
1.18968024 1.76587882 0.00097781 0.00000000
4.04924615 1.20533528 -0.00532913 0.00000000
2.47134589 0.78151205 0.00090783 0.00000000
1.77668798 1.47933543 -0.00319455 0.00000000
0.76625754 0.02897917 0.00082898 0.00000000
1.88535050 0.66833318 0.00076744 0.00000000
1.10784439 0.54880345 -0.00046166 0.00000000
0.26751359 0.30890485 -0.00115463 0.00000000
1.35424578 0.94268841 -0.00163993 0.00000000
2.89794625 0.17678692 -0.00209371 0.00000000
4.04728704 0.68653626 0.00055140 0.00000000
2.49437121 1.30269732 0.00359795 0.00000000
1.76358582 0.88732880 0.00132926 0.00000000
3.24129478 0.23521171 -0.00150883 0.00000000
1.95632608 0.27720049 0.00146175 0.00000000
3.63619810 1.39532307 -0.00223868 0.00000000
4.25698079 1.32206671 -0.00061859 0.00000000
3.55283800 0.33691656 0.00379812 0.00000000
0.48322402 1.30412617 0.00139222 0.00000000
3.19871550 1.70986152 -0.00335253 0.00000000
1.98998890 1.73572246 0.00185083 0.00000000
3.40157291 1.64251109 0.00082927 0.00000000
1.27445656 1.35668793 -0.00143325 0.00000000
3.41545672 0.27358064 0.00151962 0.00000000
0.19021645 1.24076251 0.00017654 0.00000000
3.01204400 0.46352328 0.00138714 0.00000000
1.17800355 0.53096851 0.00278951 0.00000000
2.71639423 0.73336995 -0.00525176 0.00000000
1.59383283 0.61853109 0.00069762 0.00000000
2.90097391 0.54230456 -0.00085628 0.00000000
2.06151162 1.56242984 0.00189052 0.00000000
3.77537267 0.12765268 -0.00561686 0.00000000
1.02877269 1.84146752 0.00012011 0.00000000
3.09351758 0.51786711 0.00032689 0.00000000
3.07351314 1.19323761 0.00135652 0.00000000
3.08597778 0.23360918 -0.00009788 0.00000000
3.90398184 1.58945474 0.00414831 0.00000000
2.29186595 1.93789700 -0.00509661 0.00000000
3.48937502 0.62741699 0.00090981 0.00000000
1.01015839 0.50337756 0.00618915 0.00000000
4.06594773 0.17477400 -0.00812599 0.00000000
3.09990048 1.16787494 0.00542025 0.00000000
4.00221047 0.65515505 -0.00283203 0.00000000
1.21847198 0.92668285 0.00555485 0.00000000
3.92435240 1.89822412 -0.00061096 0.00000000
1.56125599 1.25345033 -0.00085975 0.00000000
1.78099831 0.17165476 0.00094003 0.00000000
1.54513483 0.70421850 -0.00181059 0.00000000
0.41608932 0.13126138 0.00156549 0.00000000
3.09641332 0.35843721 -0.00157027 0.00000000
1.81674032 1.96500366 0.00445608 0.00000000
1.02661563 1.19457979 -0.00329952 0.00000000
1.39918736 1.59694148 -0.00142471 0.00000000
0.78368705 0.76430018 -0.00106049 0.00000000
2.41064892 1.92926387 -0.00222215 0.00000000
3.68854334 1.87484443 -0.00165216 0.00000000
2.34744870 1.89113159 0.00186594 0.00000000
1.93942701 1.96529371 0.00370529 0.00000000
3.18131383 1.03520116 0.00060877 0.00000000
4.07251576 0.36848257 -0.00155354 0.00000000
3.36365935 1.54961737 0.00249911 0.00000000
0.03533945 0.40721768 0.00091076 0.00000000
4.29698185 1.32979245 0.00394541 0.00000000
1.51738999 1.76591806 0.00661607 0.00000000
3.72138808 0.05194072 -0.00292814 0.00000000
3.48978083 1.37596596 -0.00391510 0.00000000
3.89496510 1.00197526 -0.00059397 0.00000000
3.89016394 0.89402435 0.00174608 0.00000000
1.79831248 0.59830350 -0.00169374 0.00000000
1.04085663 0.75787806 -0.00019515 0.00000000
3.19285034 1.39809443 -0.00000118 0.00000000
0.30239406 1.43068982 0.00123982 0.00000000
0.98301206 1.96494556 -0.00127328 0.00000000
2.50323341 1.60285971 -0.00248164 0.00000000
2.34581382 1.93137935 0.00106251 0.00000000
0.89546758 0.42817922 -0.00293771 0.00000000
0.29369539 0.52398112 -0.00095426 0.00000000
3.85733405 1.91487514 -0.00046414 0.00000000
1.27440737 1.51847916 -0.00324684 0.00000000
3.48845996 0.82541230 0.00206680 0.00000000
4.06587411 0.75087618 -0.00339382 0.00000000
2.60398759 0.52600092 -0.00240764 0.00000000
3.51374965 0.12793556 0.00318128 0.00000000
0.41393952 1.45307890 -0.00019310 0.00000000
2.46203457 1.48533734 -0.00392303 0.00000000
0.15330220 0.18625487 0.00076287 0.00000000
3.88652998 1.50549044 0.00009844 0.00000000
1.97987240 1.78266199 0.00390701 0.00000000
3.16813865 0.40053848 -0.00265681 0.00000000
1.09193855 0.22694762 0.00054350 0.00000000
1.80500810 1.14729823 -0.00337960 0.00000000
1.95162333 1.20914759 -0.00026948 0.00000000
1.89123197 0.06715948 -0.00259538 0.00000000
1.58586340 1.19565983 0.00099931 0.00000000
4.12358822 0.04546215 -0.00033578 0.00000000
2.56525922 0.49585862 -0.00308404 0.00000000
2.29198865 0.65746236 0.00208476 0.00000000
3.58139454 0.73348160 0.00239908 0.00000000
4.23365897 1.01617477 0.00018826 0.00000000
4.14803762 1.77118705 0.00278753 0.00000000
2.64692447 1.23172351 -0.00159446 0.00000000
3.06416310 0.03360978 0.00180581 0.00000000
1.87904064 0.11727204 -0.00019173 0.00000000
0.27611785 1.46974450 -0.00008180 0.00000000
3.58305221 1.65564904 -0.00633838 0.00000000
3.59046166 1.66729886 -0.00064737 0.00000000
0.65225960 0.89102452 -0.00069533 0.00000000
3.70227581 0.30558077 0.00529432 0.00000000
1.09442694 0.82576477 0.00365773 0.00000000
1.48274389 1.81401483 0.00204605 0.00000000
1.24765634 1.09427757 0.00372154 0.00000000
0.31837217 0.09975877 -0.00464749 0.00000000
4.17570310 1.19120241 -0.00156171 0.00000000
0.05074312 0.37236574 -0.00557947 0.00000000
3.54467111 1.52407679 -0.00213579 0.00000000
3.79890839 1.21683941 -0.00073690 0.00000000
3.10064580 0.14893491 0.00121123 0.00000000
1.76826047 0.33485543 0.00173229 0.00000000
3.08731585 0.63042450 -0.00142793 0.00000000
1.55819061 0.81399420 0.00339854 0.00000000
2.01828440 1.93380064 0.00189016 0.00000000
1.93530973 1.57696080 0.00641896 0.00000000
1.88822469 0.42110844 0.00068562 0.00000000
3.40306670 1.27822461 0.00150288 0.00000000
4.22200173 1.68718758 0.00005462 0.00000000
2.83502174 0.78945828 -0.00344995 0.00000000
1.85290695 0.17409892 0.00071226 0.00000000
1.46827672 1.02682925 0.00564876 0.00000000
1.09039114 0.11524015 0.00261824 0.00000000
0.49624262 0.88496270 0.00287093 0.00000000
0.05744680 0.15623991 0.00135381 0.00000000
3.85341848 0.91635715 0.00174691 0.00000000
3.23111030 0.39285156 0.00202958 0.00000000
1.93605673 0.52501859 -0.00038721 0.00000000
2.16410402 0.33073262 0.00142596 0.00000000
0.18242538 1.26296262 -0.00232110 0.00000000
1.66307705 0.47070141 0.00233978 0.00000000
0.28501558 0.25895200 -0.00198936 0.00000000
2.96445237 0.97929412 0.00334853 0.00000000
3.08147814 1.64696099 0.00466868 0.00000000
2.20518660 1.62382433 0.00145153 0.00000000
0.56226278 0.98938027 -0.00578261 0.00000000
2.34336979 1.71890848 -0.00058950 0.00000000
2.24433827 1.43925078 -0.00169224 0.00000000
3.03014359 0.71206683 0.00103673 0.00000000
0.98148963 0.92557840 -0.00321330 0.00000000
1.71197182 0.96448089 0.00067628 0.00000000
2.35282665 0.44259812 0.00490762 0.00000000
0.42828375 1.89537639 -0.00031654 0.00000000
1.50068288 1.55192195 0.00244690 0.00000000
3.13898143 0.05697017 0.00098446 0.00000000
3.20782884 0.95832618 -0.00306278 0.00000000
2.59247656 1.12013600 0.00109995 0.00000000
3.84557465 1.81107176 -0.00341718 0.00000000
1.98614626 1.23708255 0.00017566 0.00000000
0.52074396 1.11031796 -0.00288281 0.00000000
1.75044678 0.56444545 -0.00453144 0.00000000
1.04396273 1.85026088 -0.00269815 0.00000000
1.67452566 1.20858597 -0.00348654 0.00000000
3.96706294 0.26234793 -0.00418585 0.00000000
3.10967880 1.30569612 -0.00015377 0.00000000
1.46698200 1.08097990 -0.00218966 0.00000000
1.85177351 0.25590311 -0.00129714 0.00000000
3.32532091 0.75192357 -0.00045791 0.00000000
0.77641957 1.95755029 -0.00124048 0.00000000
3.88834360 0.95702435 0.00063205 0.00000000
2.69646593 1.29103092 0.00501648 0.00000000
3.11901921 1.42839791 -0.00427386 0.00000000
3.16152024 0.82926944 0.00069439 0.00000000
3.71494472 1.03917519 -0.00402235 0.00000000
0.70341708 0.96761947 -0.00031461 0.00000000
3.50035720 0.30421427 -0.00024746 0.00000000
3.12446023 1.80476729 0.00166384 0.00000000
2.11710435 1.06990005 0.00047398 0.00000000
2.00631464 0.49581986 0.00423702 0.00000000
0.74150750 0.59273126 -0.00273656 0.00000000
2.55166777 1.25339005 0.00291157 0.00000000
2.55300990 1.94429986 0.00172933 0.00000000
0.08497073 0.29398853 0.00186185 0.00000000
2.18624821 1.87932840 0.00043224 0.00000000
0.26493422 1.66364547 -0.00291323 0.00000000
2.91610760 0.84331163 -0.00413473 0.00000000
0.06871375 1.31339526 0.00312143 0.00000000
2.09709215 1.93284269 0.00396855 0.00000000
4.27242678 1.78108360 0.00150184 0.00000000
4.25681632 0.30201576 0.00062119 0.00000000
3.97919113 0.93603422 -0.00071338 0.00000000
0.37386270 0.22424185 -0.00160000 0.00000000
2.46424699 1.22711808 -0.00248014 0.00000000
0.50623962 1.92164872 -0.00214495 0.00000000
0.20029952 1.58655210 0.00033877 0.00000000
0.35858011 0.42177685 0.00601318 0.00000000
2.70995630 0.96777199 0.00128365 0.00000000
1.76477939 0.57260158 -0.00032720 0.00000000
1.18986297 0.02358506 0.00198329 0.00000000
1.64026764 1.32085187 -0.00092873 0.00000000
2.74449137 0.50054885 -0.00002506 0.00000000
1.64104766 0.07146900 -0.00171090 0.00000000
1.80048067 1.78281924 0.00069370 0.00000000
3.82517282 1.32920349 0.00063751 0.00000000
2.24874772 0.85787663 0.00155762 0.00000000
3.09753102 1.87718929 -0.00683455 0.00000000
1.49956124 1.83912464 -0.00133113 0.00000000
4.15773731 0.77207861 -0.00176115 0.00000000
0.85241552 1.17252389 0.00315231 0.00000000
0.60879385 1.02559197 -0.00068484 0.00000000
0.43985219 0.53139388 0.00071552 0.00000000
1.70800784 0.14868521 0.00652018 0.00000000
3.87038080 0.10893030 0.00111469 0.00000000
3.02927812 1.32533874 0.00166558 0.00000000
0.15757276 1.56313762 -0.00369120 0.00000000
2.25905057 0.73559266 0.00118209 0.00000000
1.29795623 0.94404649 -0.00153742 0.00000000
0.80755069 0.95891319 0.00050527 0.00000000
1.07392946 0.43947640 -0.00177554 0.00000000
0.45494139 0.62474061 0.00446669 0.00000000
1.25063202 1.12908589 0.00112671 0.00000000
2.04141212 0.14773143 0.00388510 0.00000000
0.69727180 1.17950088 -0.00359380 0.00000000
0.30685928 0.65121365 -0.00039991 0.00000000
0.20028928 1.83749000 -0.00058489 0.00000000
1.95390305 1.02531494 -0.00032187 0.00000000
1.27448328 1.10947951 -0.00468621 0.00000000
4.05037918 1.24006965 -0.00221442 0.00000000
0.26780177 0.52528529 -0.00315660 0.00000000
3.74439619 1.20194548 0.00098857 0.00000000
2.53595034 0.77812245 -0.00297552 0.00000000
3.70949565 1.69281996 -0.00180892 0.00000000
2.45456356 1.49831143 -0.00259148 0.00000000
3.67143801 0.02457338 0.00279082 0.00000000
1.89210992 1.63849484 0.00316752 0.00000000
1.71151956 0.53696399 0.00042465 0.00000000
0.14518899 0.06098812 -0.00132052 0.00000000
1.93334965 1.85647088 -0.00068965 0.00000000
0.62843806 1.60195350 -0.00377303 0.00000000
0.22129479 0.89185784 0.00237611 0.00000000
2.18420223 1.47836820 0.00079440 0.00000000
0.55387829 1.18135656 -0.00140609 0.00000000
0.01529914 0.29270470 -0.00496640 0.00000000
0.10292944 0.52498948 -0.00197781 0.00000000
3.44105082 0.53295898 0.00029337 0.00000000
3.93914871 1.33332758 -0.00224672 0.00000000
2.30232680 1.39216784 -0.00187695 0.00000000
3.46247719 0.25781759 0.00044025 0.00000000
2.56225660 0.16874213 -0.00203229 0.00000000
0.60137418 0.89151362 0.00032786 0.00000000
1.62948455 0.16643035 -0.00105674 0.00000000
3.55183150 1.36696885 0.00391247 0.00000000
4.19363503 1.47918243 0.00099634 0.00000000
2.12643159 0.36234441 0.00292296 0.00000000
3.68496182 0.90453198 0.00042513 0.00000000
2.45897523 0.65092368 0.00067615 0.00000000
3.56025762 0.02640798 -0.00023083 0.00000000
0.24129412 0.53266911 0.00194743 0.00000000
4.30318122 1.14571223 -0.00311202 0.00000000
3.88985264 1.93754977 -0.00366378 0.00000000
4.20110165 0.27327640 0.00189969 0.00000000
3.06605556 0.96512180 -0.00418943 0.00000000
0.59945435 0.39952565 0.00113050 0.00000000
3.17981943 0.95176508 0.00286142 0.00000000
0.93326754 0.02995012 -0.00000496 0.00000000
2.35668617 0.44451099 -0.00037437 0.00000000
2.28656057 1.18979156 0.00175244 0.00000000
0.45756009 0.32460507 -0.00078356 0.00000000
1.46853589 0.85476934 -0.00122812 0.00000000
2.16869747 1.03632573 0.00170601 0.00000000
3.93283715 0.41582914 -0.00345489 0.00000000
4.17880656 0.95580550 0.00505707 0.00000000
3.43295586 1.78946033 -0.00016246 0.00000000
1.23465027 0.30901697 0.00206397 0.00000000
1.40388471 1.14363902 -0.00343786 0.00000000
2.38424007 1.26723700 0.00002599 0.00000000
0.81813868 0.14085444 -0.00170902 0.00000000
2.31679292 1.43827199 0.00024530 0.00000000
1.81864522 0.02232272 -0.00160174 0.00000000
4.02698777 1.74480493 -0.00194185 0.00000000
3.09102056 0.45116846 0.00569212 0.00000000
2.29874840 0.71017167 -0.00366402 0.00000000
1.91382769 1.22095937 -0.00326645 0.00000000
4.10637993 1.54061091 -0.00213398 0.00000000
4.27183758 0.86375936 -0.00343581 0.00000000
2.79161484 1.93337939 -0.00205744 0.00000000
1.32115937 1.84092808 -0.00108892 0.00000000
1.77572013 0.15568212 -0.00101687 0.00000000
3.79691692 1.18657565 -0.00251390 0.00000000
0.62355562 0.58082077 -0.00191032 0.00000000
2.54656438 0.72263066 -0.00007859 0.00000000
1.30144661 1.80788102 -0.00255602 0.00000000
0.27765631 1.96028297 0.00085555 0.00000000
1.94321626 0.19961727 -0.00119769 0.00000000
1.53504391 0.95014004 0.00045539 0.00000000
3.67239450 0.30246662 0.00032337 0.00000000
1.33847455 0.18144840 -0.00045981 0.00000000
2.54713539 1.27251141 0.00237550 0.00000000
2.71533615 1.26390058 -0.00080030 0.00000000
3.23726019 0.78649115 0.00046411 0.00000000
1.88111639 0.41175237 -0.00108854 0.00000000
3.93254282 0.67121313 -0.00561961 0.00000000
0.02931460 0.73798494 -0.00059526 0.00000000
3.24702250 0.35523188 0.00146893 0.00000000
1.58314415 0.57171333 -0.00224283 0.00000000
3.00727839 0.60817735 0.00256936 0.00000000
3.18490005 0.14545708 0.00387074 0.00000000
2.10034497 1.00520914 -0.00043122 0.00000000
0.93484714 1.85557821 -0.00069483 0.00000000
3.82437074 0.79199010 -0.00077463 0.00000000
1.22954570 0.81933654 -0.00228966 0.00000000
0.65597863 1.18534650 0.00006839 0.00000000
3.13114139 0.15904937 0.00096077 0.00000000
1.62812517 1.30584158 0.00078137 0.00000000
1.35171733 0.77373373 -0.00364516 0.00000000
3.50024884 1.63163756 0.00243177 0.00000000
2.70530283 1.81252325 0.00549168 0.00000000
2.15428569 1.44665835 -0.00122879 0.00000000
3.28093796 1.24671149 0.00341311 0.00000000
0.47446949 1.59515568 -0.00069651 0.00000000
1.39677040 1.72980867 0.00070308 0.00000000
0.41392771 1.32913271 -0.00056316 0.00000000
2.14030688 0.41123217 0.00174603 0.00000000
2.81220442 1.13703981 0.00084842 0.00000000
0.35633055 0.92233359 0.00206906 0.00000000
0.73832965 1.93678441 0.00227692 0.00000000
2.32139874 1.92004135 0.00076621 0.00000000
1.22849513 0.47287887 0.00028163 0.00000000
2.19952588 0.40721237 -0.00203831 0.00000000
2.57495732 1.12128412 -0.00211883 0.00000000
0.97547206 0.35907320 -0.00134428 0.00000000
3.17138651 0.85485326 0.00314952 0.00000000
0.01198075 1.88945007 -0.00079794 0.00000000
2.75098013 1.35481945 0.00381058 0.00000000
4.11377442 0.29638191 -0.00430323 0.00000000
0.50541318 0.79806152 -0.00280172 0.00000000
0.78349711 1.78224745 0.00110518 0.00000000
0.37405240 1.59629603 -0.00083298 0.00000000
1.74294496 0.67750638 0.00231219 0.00000000
2.79185091 1.33587116 0.00158631 0.00000000
1.90340982 0.21402817 -0.00057565 0.00000000
3.26713160 0.80717731 -0.00074056 0.00000000
2.11264320 0.97872199 -0.00508114 0.00000000
2.17117076 0.99825476 -0.00299317 0.00000000
0.98954675 0.52959982 0.00045427 0.00000000
4.00886325 0.80209918 0.00142880 0.00000000
3.90649326 0.07354957 -0.00360019 0.00000000
2.85526906 1.89461245 0.00323883 0.00000000
3.10370732 0.32965350 -0.00116506 0.00000000
1.67037405 1.33172960 0.00164045 0.00000000
0.10305419 0.31930200 0.00071900 0.00000000
2.40482948 0.73043487 -0.00252935 0.00000000
1.78869891 0.35212194 -0.00009739 0.00000000
3.52134974 0.02248855 0.00169503 0.00000000
1.13997751 0.77708963 0.00649198 0.00000000
0.47557416 1.80240332 -0.00400222 0.00000000
2.95047950 1.64443629 -0.00523051 0.00000000
0.37587157 1.40763215 0.00106095 0.00000000
2.47927473 0.99156151 0.00244668 0.00000000
4.24560886 0.03250709 0.00086836 0.00000000
4.10586452 0.98286024 -0.00037654 0.00000000
4.15485072 1.01375757 -0.00389414 0.00000000
3.84765768 0.03606179 0.00153330 0.00000000
2.19144536 0.68219329 0.00075115 0.00000000
3.60971738 0.82133162 -0.00409516 0.00000000
1.08987086 1.19980524 0.00209610 0.00000000
0.69781334 1.75939819 -0.00200940 0.00000000
2.13085439 1.65119550 -0.00286448 0.00000000
0.62878979 0.13021815 0.00679963 0.00000000
3.12417233 0.62076728 0.00066543 0.00000000
1.21965146 1.16617537 0.00481850 0.00000000
2.30734306 0.58490721 -0.00165232 0.00000000
0.29106594 0.82351105 -0.00223791 0.00000000
1.90701438 1.64658258 -0.00312366 0.00000000
0.75017051 1.53593783 0.00048303 0.00000000
1.98170985 1.16358196 -0.00378207 0.00000000
2.20539771 0.80976067 0.00464735 0.00000000
2.21049808 1.62886298 -0.00076278 0.00000000
4.24672744 0.92161862 -0.00173839 0.00000000
0.56600123 0.11179720 0.00253555 0.00000000
2.86106223 0.83356834 -0.00096919 0.00000000
0.86241806 0.88902206 -0.00192524 0.00000000
3.09947887 1.85254426 0.00041074 0.00000000
3.63724952 1.12218186 -0.00129822 0.00000000
4.26112139 0.06248838 0.00209636 0.00000000
3.06648674 1.28887668 0.00430740 0.00000000
1.40722184 0.37325145 0.00166629 0.00000000
2.55310187 1.60374310 -0.00097997 0.00000000
1.00960508 1.06490835 0.00207125 0.00000000
0.96445778 0.00224557 0.00376360 1.00000000
2.01671552 0.00108931 0.00002346 1.00000000
2.33430686 -0.00145871 -0.00686580 1.00000000
2.10360800 0.00241509 0.00062741 1.00000000
1.79725878 -0.00190413 -0.00031337 1.00000000
4.19094211 -0.00053751 0.00102941 1.00000000
4.29489891 0.00406965 -0.00108986 1.00000000
1.23514905 -0.00028829 0.00291709 1.00000000
1.86365814 -0.00551636 0.00213171 1.00000000
2.33898846 -0.00085917 0.00512661 1.00000000
0.65846093 -0.00181512 0.00190686 1.00000000
3.85244643 0.00585470 0.00232222 1.00000000
2.08017111 0.00036508 0.00045421 1.00000000
1.45120390 -0.00093859 -0.00074497 1.00000000
3.25433829 0.00015603 -0.00034112 1.00000000
1.73162423 -0.00001080 0.00113580 1.00000000
0.55188635 0.00346103 0.00142836 1.00000000
2.01188032 0.00112471 0.00163089 1.00000000
3.45732141 -0.00090142 -0.00061130 1.00000000
2.84554831 0.00046143 0.00140757 1.00000000
0.68239552 -0.00432260 -0.00023468 1.00000000
1.60865292 -0.00240059 -0.00084377 1.00000000
0.15917479 -0.00183277 -0.00304148 1.00000000
1.22515778 -0.00333004 0.00090508 1.00000000
2.56570129 -0.00058304 -0.00174771 1.00000000
0.21537638 0.00332895 -0.00541828 1.00000000
4.06087413 -0.00258679 -0.00284104 1.00000000
3.61807986 0.00384566 -0.00352290 1.00000000
4.08190588 0.00326452 0.00312883 1.00000000
1.45458871 -0.00083795 -0.00141726 1.00000000
0.44010156 0.00027394 -0.00309237 1.00000000
1.96764964 -0.00074868 -0.00084882 1.00000000
0.73427869 0.00307768 -0.00390258 1.00000000
3.49302395 0.00020844 -0.00007831 1.00000000
1.32603675 -0.00078083 -0.00136973 1.00000000
4.16211433 0.00209284 -0.00189980 1.00000000
0.55869705 -0.00137609 0.00167909 1.00000000
3.49166028 0.00145462 -0.00095591 1.00000000
1.75408601 0.00511220 0.00002292 1.00000000
1.95281555 0.00115512 0.00275502 1.00000000
0.80401464 -0.00043628 -0.00149374 1.00000000
