4.265149 1.156150 0.002200 0.0
0.417196 1.347619 0.000571 0.0
1.619031 0.287915 -0.000347 0.0
0.581569 1.318728 0.001104 0.0
2.460289 0.174169 -0.002962 0.0
3.841204 0.950416 0.002275 0.0
1.749897 0.416375 -0.004417 0.0
1.766252 0.080653 -0.002968 0.0
1.984813 1.820850 -0.001899 0.0
4.539816 1.148585 -0.002606 0.0
1.845151 1.153298 -0.001749 0.0
0.383767 0.517644 -0.001376 0.0
0.049322 1.786416 0.000687 0.0
4.289114 0.470530 0.001627 0.0
3.194851 0.108346 -0.003249 0.0
2.688793 0.880901 -0.001430 0.0
3.549451 1.614396 0.003755 0.0
2.540600 1.261949 -0.004729 0.0
1.507970 1.062667 0.000765 0.0
4.593053 0.874812 0.002709 0.0
3.546561 1.255312 -0.003419 0.0
1.760840 0.020227 -0.000924 0.0
3.889268 0.274355 0.001799 0.0
2.612419 1.474953 0.003312 0.0
1.985675 1.135443 -0.000896 0.0
2.519675 1.119431 0.001549 0.0
1.493334 0.240862 -0.002023 0.0
3.007534 1.252025 -0.002128 0.0
4.172010 0.137381 0.003500 0.0
0.617846 1.222248 0.000167 0.0
3.237883 0.545164 -0.000100 0.0
2.017421 1.814951 0.001266 0.0
3.555163 1.092676 -0.000445 0.0
4.561055 0.505144 -0.003312 0.0
1.213742 0.537587 -0.000392 0.0
3.592938 1.797283 -0.003064 0.0
1.696117 0.707487 -0.000160 0.0
2.391977 0.062267 -0.003152 0.0
3.557874 0.811044 0.002748 0.0
2.619671 1.609740 0.002486 0.0
0.263609 1.469423 0.001184 0.0
3.741816 1.328063 0.000796 0.0
3.195885 1.840626 0.005824 0.0
3.775857 0.555045 -0.003714 0.0
3.297559 1.312582 -0.001813 0.0
1.028500 0.905452 0.000793 0.0
1.312435 0.545763 -0.000261 0.0
4.623002 1.802664 0.002112 0.0
2.053281 0.301991 0.000913 0.0
4.276056 0.582666 0.002246 0.0
3.660700 0.490864 -0.002298 0.0
1.842704 1.436323 0.001184 0.0
1.969707 0.022920 0.002001 0.0
0.168936 0.778296 0.003467 0.0
1.904998 1.666037 -0.003437 0.0
2.546638 1.005625 -0.000679 0.0
3.019896 0.506510 -0.000800 0.0
4.416348 0.990462 0.000335 0.0
3.796349 0.672174 0.001556 0.0
1.578065 0.375474 -0.000317 0.0
3.048068 0.362853 0.000625 0.0
2.901184 1.808200 0.004437 0.0
1.180127 0.856555 -0.000184 0.0
3.239134 0.766519 0.005577 0.0
4.207177 0.136026 -0.000921 0.0
0.829108 1.358564 0.000988 0.0
4.283531 1.029806 0.000359 0.0
2.335980 1.451967 0.005986 0.0
1.298839 0.356073 -0.003616 0.0
4.395523 1.113660 0.000102 0.0
3.709426 0.534080 -0.004450 0.0
3.092163 0.095155 -0.001469 0.0
3.479045 1.808375 -0.003514 0.0
2.782087 1.656948 0.002838 0.0
3.829587 0.699529 0.000826 0.0
3.428381 1.065277 0.003333 0.0
1.081748 0.564865 -0.002264 0.0
3.640180 1.169002 0.001133 0.0
3.929854 1.251260 0.000093 0.0
1.232644 1.324048 0.000360 0.0
2.946057 0.589041 -0.002303 0.0
3.365002 0.370409 0.004016 0.0
0.559056 0.740662 -0.007035 0.0
4.596412 1.083837 -0.000185 0.0
3.097822 0.425278 0.006071 0.0
0.867726 0.360667 0.003329 0.0
0.435285 0.404376 0.002154 0.0
0.606699 0.011824 -0.002792 0.0
0.810055 0.421033 -0.002058 0.0
0.305690 1.620783 -0.003326 0.0
2.699480 1.071507 0.002367 0.0
1.755902 1.364824 -0.001291 0.0
4.299097 1.218990 -0.004700 0.0
2.472105 1.403505 0.002481 0.0
0.803941 0.363173 0.003220 0.0
3.412646 0.896390 0.001763 0.0
3.664783 0.598974 0.000320 0.0
2.146402 0.658007 -0.002540 0.0
3.598959 0.694271 -0.001455 0.0
4.582292 0.242865 0.002494 0.0
0.372157 0.038442 0.004032 0.0
0.602142 1.749237 -0.003381 0.0
3.018790 1.570377 -0.001160 0.0
2.580021 0.182199 -0.003163 0.0
1.158083 1.179748 -0.001262 0.0
1.612867 0.491385 0.001895 0.0
4.197600 0.109832 0.003323 0.0
0.858548 1.512013 0.004239 0.0
1.491894 1.096950 0.000774 0.0
3.355380 0.343685 0.001340 0.0
3.429188 1.528635 0.001126 0.0
1.681278 1.526857 0.003479 0.0
4.050227 1.324743 -0.001043 0.0
4.366563 1.691102 -0.003809 0.0
3.714377 0.111478 0.000456 0.0
4.166183 0.737623 -0.003291 0.0
2.253146 0.535536 -0.000835 0.0
1.311171 1.524973 -0.001442 0.0
3.149447 0.227012 -0.003351 0.0
3.275929 0.439718 0.001610 0.0
3.926982 0.533635 0.003277 0.0
0.183012 1.746149 0.006594 0.0
0.411031 1.771744 0.003613 0.0
3.180923 1.478949 -0.000316 0.0
2.194457 1.014300 -0.001093 0.0
3.236591 0.934179 -0.001183 0.0
3.691795 0.161666 0.006021 0.0
3.509752 1.428824 -0.003801 0.0
0.366497 1.205612 0.004482 0.0
4.006574 0.574807 -0.001809 0.0
3.257207 1.388247 0.003635 0.0
2.158031 0.066257 0.004125 0.0
3.444909 1.431478 -0.002171 0.0
3.118043 0.943084 0.003126 0.0
4.147518 0.041296 -0.002742 0.0
0.604169 0.629217 -0.001260 0.0
3.476035 1.116652 -0.002877 0.0
2.480801 1.001353 -0.000149 0.0
3.606657 1.023418 -0.001122 0.0
1.860279 0.266546 0.001660 0.0
1.467030 0.509307 0.003050 0.0
3.828668 1.081667 -0.001136 0.0
0.706922 0.016269 0.000784 0.0
3.030136 0.876142 0.001820 0.0
0.087306 0.350296 -0.003771 0.0
1.778862 0.276559 -0.001964 0.0
3.401854 1.313781 -0.002576 0.0
3.942925 0.374047 -0.004267 0.0
4.486749 0.623135 0.001252 0.0
0.488362 0.364976 -0.001061 0.0
1.321942 1.341600 0.003498 0.0
2.402116 0.293356 -0.003767 0.0
2.738386 0.175798 -0.001084 0.0
4.102759 1.169621 0.002268 0.0
2.992339 1.130769 -0.000493 0.0
1.422195 0.978472 0.000549 0.0
3.680303 1.067220 -0.001716 0.0
1.818131 1.585630 -0.000765 0.0
1.991438 1.387536 0.002258 0.0
0.779908 1.343845 -0.002840 0.0
3.504834 1.339616 0.001458 0.0
1.151232 0.001716 -0.002344 0.0
0.715689 0.609180 0.005303 0.0
0.748868 1.572152 0.002392 0.0
2.236018 0.926492 -0.001805 0.0
1.627087 1.647567 0.002307 0.0
1.873425 1.478028 -0.004132 0.0
1.802655 1.371645 0.002494 0.0
1.498389 0.657039 -0.003327 0.0
2.676296 1.630775 0.002736 0.0
0.881231 1.761104 -0.000947 0.0
1.916558 0.490880 0.002157 0.0
1.195939 0.752197 0.000726 0.0
1.487912 1.327312 0.000040 0.0
2.881169 1.503361 -0.000611 0.0
2.556003 0.673844 -0.003069 0.0
2.758721 1.053892 0.001605 0.0
0.722016 1.512704 -0.001440 0.0
4.593890 0.355022 -0.003426 0.0
3.814505 1.106169 -0.000060 0.0
4.107252 0.530496 0.001879 0.0
4.434518 0.803996 0.003940 0.0
3.475259 0.878257 0.003059 0.0
0.249884 1.409889 -0.000781 0.0
4.175293 1.544346 -0.004840 0.0
3.835337 0.919169 0.004674 0.0
3.506770 0.066836 0.001010 0.0
1.399552 0.147091 -0.001300 0.0
0.654048 1.110777 -0.001623 0.0
3.237996 0.021652 -0.003688 0.0
4.300171 0.633017 0.001289 0.0
4.125675 0.213148 0.001648 0.0
3.797955 0.962871 -0.001705 0.0
2.507545 0.944987 0.001411 0.0
3.068312 0.811232 -0.000219 0.0
4.559480 1.748858 0.001179 0.0
2.192638 1.570805 -0.001271 0.0
3.800709 1.020293 0.002689 0.0
0.729892 1.819171 -0.000327 0.0
4.176698 1.570090 0.000300 0.0
1.174180 1.405659 -0.003401 0.0
4.487041 0.977664 -0.004533 0.0
4.564415 0.832810 -0.001874 0.0
1.393517 0.644176 -0.000589 0.0
0.737095 1.614817 0.002199 0.0
3.418688 1.461152 0.003044 0.0
3.065306 0.496621 -0.002533 0.0
4.192287 0.118007 -0.003008 0.0
3.112242 1.646994 -0.001043 0.0
4.558996 0.128803 -0.002656 0.0
1.412802 1.014750 -0.004042 0.0
3.161500 0.139724 0.000501 0.0
2.532413 1.013339 0.000256 0.0
0.818733 1.520485 -0.000791 0.0
4.588781 1.421838 0.003453 0.0
2.826585 0.320835 0.003966 0.0
3.557153 0.575575 0.001382 0.0
4.587276 1.696329 0.006189 0.0
2.641776 0.610600 -0.000844 0.0
2.922509 0.542832 -0.003043 0.0
4.616172 1.105354 -0.001098 0.0
2.289566 1.586054 -0.000151 0.0
3.739250 0.903404 0.002032 0.0
3.095918 1.173695 -0.000778 0.0
0.451176 0.934615 -0.000127 0.0
2.088109 0.108929 0.002960 0.0
4.025301 1.659712 -0.003930 0.0
3.318188 0.121256 -0.000952 0.0
2.899820 0.043425 0.001695 0.0
0.771829 1.666441 -0.001035 0.0
3.821134 1.711287 0.000636 0.0
0.585269 1.673356 0.000638 0.0
3.540794 0.928809 0.002757 0.0
4.221326 0.471883 0.002696 0.0
0.337339 0.465191 0.005357 0.0
3.150763 0.035598 -0.002811 0.0
0.862176 0.004757 -0.000919 0.0
0.791247 1.834597 -0.001621 0.0
2.618964 1.732291 -0.004479 0.0
0.442808 0.419814 -0.004588 0.0
0.117019 1.376795 0.007015 0.0
3.891626 0.170376 -0.004388 0.0
2.972180 1.033294 0.001085 0.0
0.747062 0.880319 0.000389 0.0
0.442902 0.806840 0.002281 0.0
1.700090 1.623527 0.002003 0.0
2.972441 0.222355 -0.001515 0.0
4.339016 0.977418 -0.000171 0.0
1.708689 1.661830 -0.001008 0.0
0.317094 1.439453 0.002910 0.0
2.763323 1.141486 0.001264 0.0
1.032137 1.010357 0.000991 0.0
2.803433 0.075194 -0.001746 0.0
4.204035 0.513802 0.002255 0.0
2.680428 0.449067 0.004806 0.0
0.625906 1.784520 0.000982 0.0
1.729289 0.916491 -0.002600 0.0
3.528635 0.408055 0.002909 0.0
3.140331 0.358085 -0.003636 0.0
4.488141 1.029698 0.001620 0.0
3.057336 1.064158 -0.001925 0.0
1.690458 0.017744 -0.000216 0.0
0.999354 1.696442 0.000511 0.0
3.123186 1.793108 -0.002031 0.0
1.608032 0.783884 0.001018 0.0
0.211263 0.175069 0.001091 0.0
2.917712 0.936073 -0.004735 0.0
2.653525 1.661094 -0.004738 0.0
0.269900 1.513659 0.002699 0.0
4.208945 0.946970 -0.001540 0.0
3.882575 0.895842 -0.001245 0.0
2.343072 1.804017 0.002100 0.0
4.136060 0.122001 0.000933 0.0
4.345046 0.532525 0.000043 0.0
3.381610 1.175413 0.002064 0.0
2.409022 0.202139 0.000339 0.0
2.307666 1.697891 0.000149 0.0
1.813076 1.155748 -0.001431 0.0
2.478317 1.187127 -0.001539 0.0
4.180652 0.311610 0.003830 0.0
2.256215 1.660473 0.000866 0.0
0.745092 0.407138 0.005393 0.0
2.373790 1.104131 -0.001033 0.0
1.473011 1.759894 -0.002961 0.0
2.116567 1.151544 0.002071 0.0
-0.002777 1.380917 0.000984 0.0
4.616542 1.165907 -0.002021 0.0
3.491432 0.090949 0.000612 0.0
1.879456 0.554375 -0.000990 0.0
0.142990 0.674073 0.004411 0.0
2.076399 1.221479 0.005832 0.0
1.351591 1.599106 0.004500 0.0
3.593055 1.685232 0.001114 0.0
1.974715 0.120294 0.000608 0.0
3.666136 1.580097 -0.000693 0.0
2.072652 1.768455 0.003849 0.0
4.534427 0.193552 0.002539 0.0
4.521818 1.388043 -0.003873 0.0
3.295842 0.249239 0.001420 0.0
2.741920 0.257004 0.001808 0.0
3.032353 1.281293 -0.001059 0.0
0.041131 0.335499 -0.000438 0.0
1.346572 0.015067 0.000996 0.0
0.349869 0.834245 -0.003010 0.0
4.105627 0.074395 0.002188 0.0
2.981461 1.228208 0.003985 0.0
3.091730 0.248339 0.002233 0.0
3.100679 1.099547 -0.004548 0.0
3.906617 0.267719 0.002774 0.0
2.741448 0.404219 -0.002484 0.0
4.342530 0.380657 0.001657 0.0
4.173955 1.655694 0.001130 0.0
1.575579 1.210274 0.001691 0.0
1.943633 0.219539 0.001646 0.0
2.755791 0.196420 0.001091 0.0
4.633971 1.344480 -0.002571 0.0
1.048611 1.078351 0.001736 0.0
2.676403 0.665071 -0.001495 0.0
1.105908 1.137712 0.001944 0.0
3.763019 0.321337 0.001316 0.0
0.438879 1.383260 -0.002011 0.0
3.769735 1.196058 0.007447 0.0
0.199213 1.277840 -0.000562 0.0
1.804944 0.746884 -0.003261 0.0
1.807551 1.305344 0.000844 0.0
0.571082 0.751175 -0.004057 0.0
2.095037 0.797401 -0.001118 0.0
2.872433 0.952625 0.000997 0.0
1.349245 0.988486 0.003878 0.0
1.470827 1.556517 0.000008 0.0
0.880176 1.003863 -0.000429 0.0
3.192767 1.647691 0.002858 0.0
2.334091 0.630691 0.000925 0.0
0.597957 0.502407 -0.003871 0.0
1.058563 1.740690 0.002015 0.0
0.161912 0.151095 0.000656 0.0
3.109705 1.043206 -0.001191 0.0
4.550274 0.505885 -0.001674 0.0
3.586412 1.484437 -0.003240 0.0
2.288288 1.730145 0.000240 0.0
1.012522 1.467739 -0.003744 0.0
3.026647 0.835451 0.001715 0.0
1.653038 1.334354 -0.003048 0.0
1.111645 0.633677 0.002935 0.0
3.331382 1.099833 -0.004079 0.0
2.270755 1.768137 0.001301 0.0
1.246853 0.819233 -0.000083 0.0
2.395662 1.628764 -0.002584 0.0
0.882412 0.183554 -0.001056 0.0
1.886333 0.183965 0.000628 0.0
3.802150 1.307154 0.001132 0.0
3.536846 0.465475 0.001352 0.0
2.595493 0.240879 0.003202 0.0
1.089071 1.095720 -0.000422 0.0
0.708088 1.456662 0.000781 0.0
1.404706 0.770781 0.005335 0.0
3.041118 1.405239 0.000824 0.0
0.263580 1.836276 0.001022 0.0
1.560271 1.296563 -0.000420 0.0
0.269942 1.500444 -0.000361 0.0
1.136114 1.078140 0.000843 0.0
3.422694 0.331392 -0.001113 0.0
2.416255 1.086861 0.003537 0.0
3.234700 0.496664 -0.001408 0.0
0.895801 0.146807 -0.002132 0.0
1.442654 0.601628 -0.001016 0.0
1.882138 0.697904 -0.003179 0.0
4.413839 0.594219 -0.001675 0.0
1.890274 1.441829 -0.000504 0.0
1.836350 0.876542 -0.002833 0.0
2.035035 1.802026 -0.000320 0.0
2.894852 0.467569 -0.000729 0.0
1.230343 0.468966 0.004183 0.0
0.560316 0.632433 0.003385 0.0
3.551531 1.212379 0.002002 0.0
1.983350 0.280821 -0.003266 0.0
3.119034 0.177645 0.001445 0.0
2.024676 0.003662 0.003275 0.0
2.263934 0.418400 0.000815 0.0
0.353796 1.765370 0.002087 0.0
3.129237 0.961341 -0.002190 0.0
4.158751 0.178339 -0.000306 0.0
0.086487 0.618998 -0.004049 0.0
1.554157 0.177570 -0.000261 0.0
4.020802 1.126347 -0.001191 0.0
0.087206 0.610598 -0.000318 0.0
0.389275 0.242972 -0.000221 0.0
1.806793 0.234065 0.001846 0.0
1.981187 0.542270 0.000334 0.0
0.092910 0.009431 0.001765 0.0
1.541857 0.414580 0.004067 0.0
2.601950 0.870249 -0.001769 0.0
0.939235 0.984166 0.001685 0.0
4.045158 0.694478 -0.000461 0.0
0.191371 0.459494 0.003227 0.0
3.375606 0.688821 0.005228 0.0
1.996187 0.789078 0.001129 0.0
2.228503 0.321950 0.002128 0.0
1.685198 0.812705 -0.001715 0.0
2.014536 1.027632 0.000086 0.0
1.951606 0.984510 0.000573 0.0
0.895709 0.079508 -0.005530 0.0
3.477333 1.784056 0.002417 0.0
3.849188 0.183946 0.000135 0.0
2.196245 1.610204 0.000277 0.0
1.583246 1.606089 0.000659 0.0
3.595403 1.151687 -0.002292 0.0
4.082639 0.746795 -0.006443 0.0
4.553699 0.035843 0.000456 0.0
2.649448 0.605149 -0.003850 0.0
3.341127 0.662000 -0.000694 0.0
1.111308 0.213909 -0.000649 0.0
0.253167 1.314721 -0.005408 0.0
4.285900 1.521525 -0.003073 0.0
2.316880 0.105848 -0.003999 0.0
0.216908 1.509180 0.000456 0.0
1.519177 0.391251 -0.006324 0.0
2.084719 1.468852 0.001441 0.0
0.138812 1.406610 0.003476 0.0
4.183434 0.675835 -0.000261 0.0
4.108421 0.016783 0.004327 0.0
4.212930 1.304998 -0.001209 0.0
0.728264 1.590203 0.004489 0.0
2.269980 1.386794 -0.003380 0.0
2.454761 1.570707 -0.001805 0.0
1.886826 1.017098 -0.001219 0.0
3.893722 1.616317 -0.002209 0.0
2.766560 0.844748 -0.000024 0.0
0.239059 0.982530 -0.002379 0.0
1.080781 1.197789 0.000790 0.0
3.690636 1.527642 -0.003846 0.0
0.466844 0.173713 0.005375 0.0
3.320382 1.348900 0.000742 0.0
4.352827 0.818463 -0.000209 0.0
2.685126 0.429533 0.001406 0.0
3.336794 0.409357 -0.001363 0.0
4.003643 1.138854 0.004804 0.0
4.025932 1.241439 -0.002811 0.0
2.747787 0.236573 -0.005996 0.0
0.933206 0.336297 0.002162 0.0
1.538434 1.617626 0.000184 0.0
3.365564 0.348652 -0.000838 0.0
1.568512 0.993556 -0.000443 0.0
3.109944 0.933334 -0.001154 0.0
1.271658 0.625913 -0.004580 0.0
0.879575 0.653084 0.000690 0.0
3.779243 1.060951 0.000716 0.0
2.021154 1.022002 -0.001998 0.0
1.737755 1.047353 -0.004025 0.0
1.281389 0.087810 0.002600 0.0
3.011930 1.063888 0.002755 0.0
4.466715 1.312885 0.003107 0.0
3.851184 0.685976 0.004440 0.0
3.098137 1.560501 0.006204 0.0
1.392817 0.103365 0.001623 0.0
2.544990 0.355500 0.002169 0.0
4.555341 1.254008 -0.000920 0.0
1.425569 1.307220 -0.000128 0.0
1.298819 1.072669 0.003954 0.0
0.079637 0.857158 -0.002411 0.0
2.279897 0.747871 -0.000043 0.0
3.722094 1.060021 -0.002916 0.0
2.505350 0.143932 0.001813 0.0
3.370007 1.057529 -0.001431 0.0
0.179604 0.192054 0.004531 0.0
1.581382 0.880623 -0.006779 0.0
0.860171 1.611177 0.002738 0.0
4.461545 0.227854 -0.001434 0.0
1.049987 1.287851 -0.001445 0.0
4.624681 0.238648 -0.001969 0.0
3.520283 0.606247 0.000799 0.0
2.890121 1.656294 -0.000531 0.0
2.033177 0.450312 -0.004015 0.0
2.306905 0.547755 0.002044 0.0
3.853971 0.429784 0.001583 0.0
3.840459 1.149390 -0.002218 0.0
2.177142 0.675072 0.000148 0.0
1.937703 1.649768 0.001770 0.0
0.447928 0.271191 -0.004690 0.0
1.246570 1.132313 -0.000101 0.0
1.840547 0.429583 -0.003563 0.0
3.720640 0.685065 -0.002278 0.0
0.561831 1.087743 -0.001970 0.0
2.467655 1.537472 0.000967 0.0
1.512928 1.591426 0.003433 0.0
1.329919 0.181255 -0.000147 0.0
1.585621 1.496593 0.003398 0.0
4.266724 1.802036 0.000848 0.0
2.727513 0.881985 0.000227 0.0
0.568842 0.173789 -0.003391 0.0
3.746041 1.081897 0.003592 0.0
3.351129 1.246760 0.000369 0.0
4.354364 0.464417 -0.001924 0.0
3.596308 1.706047 0.001614 0.0
3.077264 0.104264 -0.001577 0.0
0.663086 1.494876 -0.000488 0.0
2.201750 0.876983 0.002045 0.0
4.593475 0.189600 -0.007846 0.0
3.202742 1.688521 -0.001155 0.0
1.342124 1.062734 -0.002023 0.0
2.910104 0.134891 0.000794 0.0
3.466913 1.734150 0.002136 0.0
4.225138 0.331209 -0.001044 0.0
1.866841 0.050582 -0.000858 0.0
0.529257 1.273469 -0.003388 0.0
4.263991 1.787267 0.002925 0.0
4.071135 1.088006 -0.001718 0.0
2.103740 1.846526 -0.000835 0.0
0.401510 0.830254 -0.000301 0.0
2.595442 0.892448 -0.001449 0.0
2.570973 1.637099 0.002055 0.0
1.986933 0.650518 -0.004468 0.0
2.171177 0.416622 0.001999 0.0
3.848462 0.225291 0.000070 0.0
3.446540 1.695535 0.000527 0.0
3.994078 0.180306 0.001784 0.0
3.131592 1.683275 0.001379 0.0
3.714345 0.943840 0.000119 0.0
3.304162 0.082634 0.001314 0.0
0.198303 0.913043 0.003891 0.0
1.789491 1.005774 0.000418 0.0
3.968472 0.695128 -0.003472 0.0
0.840475 1.338882 -0.001214 0.0
2.694837 0.138411 0.001509 0.0
0.931760 0.098612 -0.000448 0.0
0.265952 0.142455 -0.000838 0.0
1.682834 0.764816 0.002902 0.0
2.455675 1.661423 -0.001700 0.0
2.191932 1.461137 0.000840 0.0
1.727636 1.566378 -0.003515 0.0
3.797099 0.961583 -0.001957 0.0
0.735958 0.215657 -0.004073 0.0
3.818227 0.160845 0.004690 0.0
2.742704 1.629632 0.000986 0.0
3.152606 1.685843 0.006253 0.0
2.968458 0.298270 0.000705 0.0
0.845343 0.187988 0.000467 0.0
0.465634 0.820552 -0.002032 0.0
1.244425 0.408912 0.001399 0.0
1.830864 0.286245 0.000664 0.0
1.543923 1.757978 -0.000294 0.0
0.232522 0.036868 -0.003930 0.0
3.590190 0.170546 -0.001795 0.0
3.562495 0.822955 0.001771 0.0
1.461909 1.820843 -0.000926 0.0
1.047454 0.431433 0.002785 0.0
3.617948 0.407360 -0.004131 0.0
4.261671 0.124283 0.000613 0.0
4.053487 0.443879 0.001440 0.0
0.142631 0.105145 0.001834 0.0
1.713194 0.928868 -0.001912 0.0
3.807597 1.429607 0.000100 0.0
1.293054 1.415335 0.003004 0.0
2.447131 0.422263 0.003898 0.0
0.128982 0.988095 -0.003877 0.0
4.432769 0.862633 -0.002504 0.0
1.679047 0.279633 -0.002717 0.0
4.005541 1.666721 0.002893 0.0
2.089070 1.033358 -0.002971 0.0
0.916312 0.299574 -0.000428 0.0
0.362930 0.253490 -0.000144 0.0
0.441978 0.919239 0.002939 0.0
1.619876 0.067839 0.001931 0.0
4.005723 0.577130 0.000549 0.0
1.358106 0.257003 -0.000534 0.0
0.886200 1.192284 -0.002515 0.0
3.093707 1.264481 -0.004041 0.0
1.588932 0.691734 -0.002384 0.0
0.444133 0.018071 -0.001197 0.0
1.798056 0.705040 -0.001113 0.0
2.574326 1.482686 -0.001985 0.0
4.319605 0.655565 0.005635 0.0
1.062247 1.798900 -0.001958 0.0
1.450015 1.080423 -0.000420 0.0
1.382390 0.609096 0.003327 0.0
2.194653 0.766873 -0.001165 0.0
2.008927 0.757362 -0.000373 0.0
1.365497 0.094334 -0.001615 0.0
0.301327 0.479645 -0.000069 0.0
1.985195 1.647079 -0.002547 0.0
0.302643 1.644575 -0.000523 0.0
3.504156 1.543868 0.000809 0.0
3.122050 0.380945 -0.002882 0.0
3.337911 0.064825 0.000945 0.0
3.799940 0.764154 -0.000347 0.0
2.985943 1.247000 0.000822 0.0
4.191574 1.176763 -0.001603 0.0
2.200631 0.711332 0.004750 0.0
2.283839 1.528642 0.002891 0.0
3.996536 0.252072 -0.001372 0.0
3.935128 1.524274 -0.001051 0.0
3.374857 0.984317 0.000021 0.0
2.581079 0.998802 -0.001510 0.0
3.801844 1.564521 -0.000820 0.0
4.474561 1.671467 -0.004129 0.0
1.212921 0.344785 0.004168 0.0
3.621834 0.857838 0.000651 0.0
0.726725 0.507522 0.003125 0.0
3.038067 0.131768 -0.003995 0.0
3.647577 1.355582 -0.002299 0.0
1.524398 1.068480 0.000097 0.0
3.794203 1.258921 0.003015 0.0
2.673516 0.434954 0.001965 0.0
2.029752 1.022591 0.003312 0.0
0.342422 1.847671 -0.005007 0.0
3.301991 0.072651 -0.002856 0.0
3.550863 0.342769 -0.000610 0.0
4.116585 1.516213 0.001834 0.0
0.461354 0.406791 0.001770 0.0
0.846966 1.151784 -0.002586 0.0
4.338247 1.078767 0.001347 0.0
1.638386 0.136596 -0.002216 0.0
1.372502 0.589345 -0.000291 0.0
1.367997 0.367915 -0.001341 0.0
2.341080 0.597803 -0.002964 0.0
2.332957 0.426298 0.001971 0.0
2.440685 0.368335 0.001286 0.0
0.457323 1.563222 0.001341 0.0
1.215476 1.301681 -0.002770 0.0
1.171766 0.065445 -0.006339 0.0
2.041542 0.211562 -0.000297 0.0
0.770744 1.504407 -0.000731 0.0
1.586597 1.787189 -0.001561 0.0
3.412797 0.359647 -0.004295 0.0
3.283030 0.875106 -0.000566 0.0
3.012933 1.445949 0.000904 0.0
0.098681 1.078637 0.001906 0.0
4.296442 0.120773 -0.001891 0.0
0.162429 1.497183 -0.004047 0.0
-0.001018 0.688844 -0.003030 0.0
2.013721 0.120107 -0.002806 0.0
0.737226 1.396911 0.005609 0.0
3.706767 0.469364 -0.000027 0.0
4.517693 0.119325 0.006744 0.0
0.777961 0.816675 -0.001110 0.0
2.664210 1.805164 0.001096 0.0
1.829556 1.652185 -0.002229 0.0
4.066289 0.588799 0.002479 0.0
4.182496 1.168413 -0.001287 0.0
2.452699 0.793034 0.002187 0.0
0.191417 0.464177 0.001601 0.0
2.449558 1.093120 0.004800 0.0
2.315885 0.013600 0.002089 0.0
4.148224 0.261422 -0.000141 0.0
1.902685 1.105446 0.006163 0.0
3.952312 0.825152 0.001235 0.0
2.940555 1.543800 0.002361 0.0
0.722471 0.036672 0.000774 0.0
0.063272 0.742575 0.000104 0.0
2.057431 1.243809 0.003814 0.0
3.397961 0.683416 -0.001027 0.0
2.552861 1.020968 -0.003638 0.0
3.101788 1.277676 -0.002186 0.0
2.291888 1.141729 0.003320 0.0
2.814359 0.516342 -0.001991 0.0
2.782748 0.366708 0.002627 0.0
0.571593 1.533605 0.001154 0.0
2.287353 1.241549 -0.002707 0.0
4.630544 0.289068 0.003729 0.0
0.763188 0.285747 0.002762 0.0
1.566486 0.081353 -0.001936 0.0
4.342001 1.838060 -0.002014 0.0
1.195268 1.239057 0.002459 0.0
3.274013 1.583306 -0.003319 0.0
0.859610 0.797901 -0.006316 0.0
1.343737 0.501838 0.004681 0.0
1.570905 0.151815 0.000007 0.0
0.981812 0.485825 -0.005078 0.0
2.597115 1.706804 0.004438 0.0
2.046440 0.530935 -0.000322 0.0
2.323713 1.442895 0.000296 0.0
3.952510 1.507538 0.000227 0.0
1.466967 0.060705 -0.005567 0.0
0.745069 0.963204 -0.000096 0.0
0.212586 1.344377 0.001309 0.0
1.892890 1.732983 -0.002745 0.0
4.534873 0.202882 0.006402 0.0
1.444218 1.091982 0.000439 0.0
1.710387 0.969230 0.001791 0.0
4.484986 0.555239 -0.000284 0.0
4.532127 1.551695 -0.000442 0.0
3.850725 1.624678 -0.001678 0.0
4.039758 0.225645 -0.000945 0.0
4.158224 0.918022 0.000047 0.0
4.283045 1.166572 -0.000603 0.0
0.301382 0.037627 0.002391 0.0
1.526342 0.587856 0.001820 0.0
3.714612 0.192487 -0.000905 0.0
0.085115 1.198521 -0.002735 0.0
0.052830 1.262127 0.002139 0.0
3.752952 1.090572 0.002039 0.0
2.269638 1.664873 -0.000946 0.0
4.267707 1.350586 0.001101 0.0
3.065738 0.178245 -0.000131 0.0
2.863451 0.402947 0.005674 0.0
4.336501 1.212601 0.001544 0.0
3.794652 0.461219 -0.002408 0.0
2.761109 0.623844 0.003182 0.0
0.792197 1.722803 -0.000615 0.0
4.524185 0.598397 0.000226 0.0
0.435366 1.685560 -0.003363 0.0
1.495181 1.400675 -0.001980 0.0
2.790571 1.493774 0.003193 0.0
0.963506 1.219416 0.003397 0.0
4.189870 0.910090 -0.002323 0.0
1.780582 1.700175 0.001776 0.0
4.138090 0.397161 -0.002313 0.0
3.613981 0.996052 0.005412 0.0
3.144155 0.371122 -0.000392 0.0
4.192224 1.461154 0.000528 0.0
0.625599 0.043592 0.001567 0.0
1.608565 0.201803 0.005233 0.0
1.594685 0.176936 0.000925 0.0
0.136401 0.689786 0.004745 0.0
1.747622 0.784585 -0.004618 0.0
1.667441 0.191603 -0.001522 0.0
1.800283 1.027784 0.001548 0.0
0.279055 0.182063 0.000029 0.0
1.548626 0.897264 0.000372 0.0
1.867211 0.386866 -0.002531 0.0
4.296979 1.706437 -0.001600 0.0
3.168176 0.206353 -0.001941 0.0
0.204124 0.902720 0.002750 0.0
1.422099 0.672027 -0.003435 0.0
0.635010 1.087612 0.004232 0.0
4.432440 1.756198 0.002767 0.0
0.368348 1.749936 -0.004505 0.0
2.952705 0.519943 -0.001534 0.0
1.290686 1.761599 0.000966 0.0
4.549845 0.429706 -0.002635 0.0
2.884182 0.145052 0.000414 0.0
0.341343 0.240011 0.000492 0.0
0.648806 1.610176 0.003915 0.0
4.117675 0.934128 -0.001547 0.0
3.504784 0.003134 -0.001498 0.0
2.489150 1.537670 -0.002397 0.0
1.034083 0.682883 -0.001623 0.0
0.467656 0.061942 -0.004025 0.0
3.955321 0.240730 0.000250 0.0
0.237896 0.975322 -0.004552 0.0
1.059060 1.437315 -0.000308 0.0
1.800863 0.702230 0.001403 0.0
1.448810 1.452003 0.000716 0.0
3.122370 1.311402 -0.002096 0.0
1.380052 0.072071 -0.003513 0.0
3.620861 0.095538 -0.000598 0.0
3.057038 0.732035 -0.000379 0.0
0.180683 0.994878 0.000091 0.0
1.885664 1.773758 0.001502 0.0
0.174295 1.665278 -0.001869 0.0
3.845751 0.292360 0.004183 0.0
1.741776 0.820059 0.001820 0.0
4.423713 1.283983 -0.000276 0.0
2.266504 1.290731 -0.001333 0.0
4.620628 0.948752 -0.003504 0.0
4.577506 0.460561 0.001874 0.0
0.132110 0.552805 -0.000742 0.0
3.739992 1.625730 -0.003284 0.0
0.726527 0.919851 0.005399 0.0
2.881740 1.608034 0.001772 0.0
2.505806 1.026752 0.001046 0.0
0.690138 0.322945 -0.000963 0.0
0.316279 1.631726 -0.001722 0.0
1.981026 0.222419 0.000013 0.0
2.799232 1.680255 -0.000452 0.0
1.188920 1.570320 -0.004398 0.0
0.338062 0.205351 0.001082 0.0
2.761511 0.719872 0.000423 0.0
3.075470 0.704766 0.000691 0.0
3.724880 1.310219 0.003441 0.0
4.149260 0.421822 0.004809 0.0
0.872806 0.066357 -0.004787 0.0
1.238708 0.331302 -0.001406 0.0
4.647014 0.062626 0.001498 0.0
4.303720 0.724177 -0.003031 0.0
2.376235 1.672901 0.000347 0.0
1.645046 0.949854 -0.000314 0.0
1.775867 0.444926 -0.000463 0.0
1.574486 1.325121 0.001722 0.0
1.349846 1.807887 -0.001020 0.0
1.288772 0.073822 -0.003074 0.0
0.131150 0.183535 -0.000098 0.0
3.674745 0.623692 -0.002472 0.0
2.346637 0.344735 -0.002534 0.0
3.211780 1.654213 -0.004197 0.0
1.420512 0.699650 -0.005257 0.0
1.048450 0.770488 -0.000866 0.0
1.434160 0.718137 0.000199 0.0
0.893364 1.279172 -0.001108 0.0
1.253707 0.596377 -0.000856 0.0
3.519367 0.105436 0.003095 0.0
4.085729 0.745655 0.000558 0.0
1.009075 0.501244 0.000880 0.0
3.549796 1.442078 0.000560 0.0
1.878944 0.210645 -0.000539 0.0
4.257824 1.450732 0.000055 0.0
2.533983 0.436743 0.002849 0.0
2.987784 1.698663 -0.005855 0.0
2.810938 1.564579 -0.000057 0.0
3.633305 0.345887 -0.001452 0.0
1.696915 1.374694 -0.001646 0.0
0.410096 1.121928 0.000835 0.0
3.599796 0.723264 0.000585 0.0
1.950539 0.278559 0.000217 0.0
2.937775 1.446930 0.002140 0.0
3.489950 1.478172 -0.001683 0.0
1.347836 0.656425 -0.000217 0.0
3.098054 0.941109 -0.003349 0.0
0.059827 1.267210 0.004268 0.0
3.953269 1.208083 0.006616 0.0
0.576411 0.393323 -0.001175 0.0
1.483867 1.492726 -0.002705 0.0
2.318037 0.944093 -0.000602 0.0
2.143394 1.322977 0.000069 0.0
3.436397 1.758889 -0.006068 0.0
4.484470 0.971990 -0.005350 0.0
0.645878 0.907656 -0.003198 0.0
2.983519 1.265625 0.002604 0.0
1.000526 0.943930 -0.001260 0.0
2.008909 0.973926 -0.000633 0.0
1.717815 1.735528 -0.006954 0.0
1.866926 1.468666 0.001387 0.0
4.525935 1.512974 0.000713 0.0
4.466534 1.453274 -0.000953 0.0
0.986924 0.845613 -0.000231 0.0
3.074840 1.283061 -0.002075 0.0
1.284454 0.614606 -0.000686 0.0
2.298115 1.391605 0.001326 0.0
3.481639 0.778083 0.000062 0.0
3.554205 0.277341 -0.004837 0.0
0.425584 1.446371 -0.002322 0.0
0.544132 0.286380 -0.003023 0.0
1.513318 0.309292 -0.003047 0.0
4.375329 1.488582 -0.000183 0.0
1.369549 0.427124 0.002212 0.0
0.723577 1.413889 0.002276 0.0
0.378193 1.696523 0.002803 0.0
2.777753 0.767715 0.000405 0.0
0.430142 1.379452 -0.004185 0.0
2.777240 1.075935 0.003984 0.0
3.984213 0.828103 0.001704 0.0
3.753265 0.854150 -0.000175 0.0
1.882050 1.804766 -0.000298 0.0
0.650001 1.120336 -0.002885 0.0
0.881282 1.146444 -0.004792 0.0
0.307711 1.467018 -0.000216 0.0
2.165446 0.216370 -0.003028 0.0
0.826591 1.637933 -0.000175 0.0
1.812788 0.945639 0.005190 0.0
0.321423 1.267293 -0.002625 0.0
3.895281 1.416186 0.002897 0.0
4.215523 1.516669 0.002371 0.0
3.215699 0.297940 0.000539 0.0
4.637587 0.926843 -0.003482 0.0
3.631285 1.105584 0.001729 0.0
3.745066 0.318105 0.003573 0.0
2.239790 1.327945 0.001574 0.0
0.413274 0.236378 -0.005089 0.0
3.185115 1.172704 -0.002587 0.0
1.976854 0.580167 -0.003719 0.0
1.692338 0.869393 -0.003199 0.0
2.781450 1.256763 0.002058 0.0
3.361547 0.270624 0.002263 0.0
0.005358 0.951677 -0.000924 0.0
0.678566 0.010224 -0.002505 0.0
4.107176 0.131438 0.000907 0.0
1.167361 0.788293 0.000834 0.0
3.033006 0.453605 0.000755 0.0
1.936966 1.540864 0.001319 0.0
4.224913 1.376875 -0.000380 0.0
3.512977 1.049891 0.001758 0.0
1.261191 0.470126 -0.000753 0.0
3.765209 0.815024 -0.000463 0.0
1.947257 0.849808 0.006332 0.0
1.953075 0.104729 0.000806 0.0
2.391006 0.161604 0.002188 0.0
0.705791 0.642209 -0.001938 0.0
2.294504 0.490219 0.006542 0.0
1.373914 1.466243 -0.003726 0.0
1.320619 0.988762 -0.001476 0.0
0.093801 1.474166 -0.006545 0.0
4.050242 0.535613 -0.004013 0.0
0.299898 0.436759 -0.000060 0.0
3.963401 1.190851 0.000747 0.0
4.320196 1.267244 -0.002224 0.0
2.772064 0.366490 0.002515 0.0
3.504440 0.027245 -0.001817 0.0
3.729409 0.381617 -0.000942 0.0
1.585357 0.995881 -0.003473 0.0
3.531968 0.406423 -0.002209 0.0
4.289457 1.279306 -0.004833 0.0
4.506865 1.799955 -0.002427 0.0
1.067942 1.146372 -0.000074 0.0
1.939834 1.243619 0.000827 0.0
4.582673 1.215680 -0.001093 0.0
1.406549 1.198627 -0.001648 0.0
4.025816 1.420574 -0.001732 0.0
3.334172 1.495905 0.000171 0.0
3.718941 1.357643 0.001859 0.0
0.305394 0.464132 0.002910 0.0
2.218527 1.530286 -0.001480 0.0
2.986281 0.666289 -0.001168 0.0
3.082820 0.277472 -0.000054 0.0
1.786948 1.463612 -0.000488 0.0
4.461647 1.678751 -0.002767 0.0
0.342907 0.346244 -0.004394 0.0
3.584692 0.143750 0.000304 0.0
3.075065 1.104648 0.001438 0.0
1.824030 -0.002078 -0.002720 0.0
3.910520 1.018117 -0.000958 0.0
3.010500 0.397194 0.004113 0.0
4.552922 1.330064 0.000264 0.0
1.971398 0.160637 0.000545 0.0
3.643418 1.333008 0.000213 0.0
2.815621 0.166141 0.004432 0.0
4.408333 1.222592 -0.002441 0.0
1.661951 1.255480 -0.000629 0.0
1.974011 0.554040 -0.003149 0.0
0.296738 0.828177 0.001659 0.0
4.327320 1.274028 -0.004727 0.0
3.531352 0.378031 -0.001288 0.0
1.453553 0.657357 -0.002033 0.0
2.404349 0.001959 0.001599 0.0
0.185854 1.434203 -0.003551 0.0
4.033291 1.683649 0.001887 0.0
2.068721 0.894064 -0.000827 0.0
4.580298 0.133000 0.001227 0.0
3.873059 0.153932 0.001078 0.0
4.389645 1.703318 0.001964 0.0
0.217590 0.193439 -0.001605 0.0
0.290322 0.928486 -0.005414 0.0
1.949578 0.755785 -0.000438 0.0
0.974183 1.437894 0.002516 0.0
0.344325 1.107809 -0.000584 0.0
0.941215 1.054924 0.001030 0.0
3.203796 1.169193 -0.004240 0.0
3.411825 1.566330 0.002520 0.0
2.287621 0.247380 0.000173 0.0
2.092215 0.189650 0.002381 0.0
0.877074 0.117752 0.001859 0.0
0.229060 0.002801 -0.000394 0.0
1.865608 1.606819 -0.002390 0.0
4.068733 1.438057 0.000423 0.0
2.116470 0.234644 0.004572 0.0
1.297407 0.346421 0.001446 0.0
1.102015 0.580066 0.005013 0.0
3.838097 0.407112 0.001403 0.0
2.028726 1.843076 0.000039 0.0
3.049030 1.659987 -0.001843 0.0
1.155202 0.253477 0.002341 0.0
1.548957 0.286144 -0.002628 0.0
1.468871 0.097772 0.001712 0.0
2.224577 0.482107 0.002654 0.0
1.376368 1.523413 -0.001241 0.0
2.774457 1.721227 -0.000975 0.0
0.898870 0.471517 -0.004361 0.0
0.718104 0.877702 0.002331 0.0
2.962875 0.298441 0.000375 0.0
0.791562 1.316199 -0.002447 0.0
1.491659 0.741780 0.000649 0.0
0.163693 0.845541 0.004868 0.0
3.965314 1.439652 -0.005268 0.0
2.423574 0.432180 -0.000581 0.0
0.907561 0.624576 -0.000315 0.0
1.303498 1.376936 -0.003962 0.0
3.336343 0.580112 0.001420 0.0
0.613074 0.899159 -0.002209 0.0
2.608320 1.206522 0.001487 0.0
0.252635 0.436619 0.001485 0.0
2.573090 1.443947 0.001394 0.0
0.294971 1.106320 0.003242 0.0
4.041698 1.315997 -0.002520 0.0
3.397952 0.856428 -0.000762 0.0
0.018201 0.172158 -0.000129 0.0
1.337062 0.537543 -0.002182 0.0
3.348222 1.270815 0.000862 0.0
1.465864 0.939307 0.004097 0.0
2.799441 1.633878 -0.000072 0.0
1.459630 0.150584 -0.001257 0.0
1.306083 0.512012 -0.000890 0.0
2.280911 1.765277 -0.002152 0.0
4.307749 0.579854 -0.003747 0.0
4.053380 0.204132 0.004942 0.0
2.929339 1.404437 -0.000962 0.0
3.087153 0.017912 0.004566 0.0
2.664317 0.039875 -0.002790 0.0
3.042325 0.710692 -0.002082 0.0
1.933955 0.224354 0.000413 0.0
0.600003 1.275637 -0.001026 0.0
2.137092 1.381025 0.000691 0.0
2.814039 0.161194 -0.002286 0.0
0.935211 0.848138 -0.001868 0.0
3.359146 0.581296 -0.002092 0.0
0.947568 1.513318 0.003146 0.0
4.093261 1.529990 0.001440 0.0
1.757701 1.083458 -0.001583 0.0
0.196446 0.310767 0.000956 0.0
2.335533 0.338423 -0.002567 0.0
1.704781 1.042716 0.001164 0.0
3.817788 1.256034 -0.000810 0.0
0.821753 0.480566 -0.003754 0.0
2.914456 1.704500 0.001628 0.0
0.113438 0.960917 0.000646 0.0
2.446955 1.450606 0.005553 0.0
2.315885 0.595363 0.003194 0.0
2.857210 0.833476 0.001642 0.0
4.531683 0.157436 -0.002918 0.0
1.175810 1.510681 -0.000404 0.0
3.301477 0.401506 -0.001155 0.0
0.544418 1.636319 -0.000351 0.0
2.475129 0.648491 -0.001864 0.0
2.559021 0.491610 -0.001422 0.0
1.882846 0.574274 0.001355 0.0
1.774251 0.196033 0.000593 0.0
1.488046 1.801488 0.003591 0.0
0.154633 1.825785 -0.000326 0.0
1.999206 0.653603 -0.003635 0.0
3.874970 0.724228 -0.000700 0.0
0.051703 0.154317 -0.001496 0.0
2.061296 0.416578 0.002312 0.0
4.325377 1.627808 -0.002362 0.0
2.744892 1.652876 -0.001890 0.0
2.880489 0.763807 -0.000349 0.0
0.321930 1.797399 -0.005920 0.0
4.606823 1.585990 -0.003082 0.0
0.484523 0.226246 -0.003917 0.0
0.348403 1.446103 -0.003790 0.0
0.384743 1.794181 -0.000362 0.0
4.493303 1.619474 -0.000357 0.0
0.928569 1.704477 -0.002743 0.0
0.833868 0.265925 0.002130 0.0
3.549641 1.345506 0.000868 0.0
0.081894 0.485721 -0.001690 0.0
0.584247 1.583172 0.004857 0.0
0.473461 1.723490 -0.002220 0.0
4.087861 1.373864 -0.000926 0.0
3.164217 0.885747 0.000986 0.0
2.849640 0.493472 0.002309 0.0
0.322837 1.099328 0.002184 0.0
0.451133 0.454917 0.003681 0.0
3.654679 0.288492 0.003157 0.0
1.795553 0.320490 0.000711 0.0
3.604278 1.275203 -0.001556 0.0
2.642598 1.514340 0.001869 0.0
3.275464 0.226034 0.001215 0.0
1.869287 0.774042 0.002752 0.0
1.754703 1.270409 -0.003531 0.0
0.657287 1.809124 0.002393 0.0
2.816400 1.774481 0.000744 0.0
1.361576 0.397742 -0.001989 0.0
2.916046 0.602847 0.004128 0.0
2.209982 1.700447 0.003773 0.0
2.943131 0.090026 0.003380 0.0
1.976443 0.552404 0.000597 0.0
2.604646 0.909470 0.000515 0.0
0.534498 0.164493 0.001716 0.0
2.084917 0.311108 0.002736 0.0
4.603639 1.598874 0.001072 0.0
2.839307 0.707414 0.002010 0.0
1.487406 0.101138 0.002064 0.0
3.177311 0.716690 0.000606 0.0
1.053033 0.439428 0.003913 0.0
4.069672 0.239977 -0.007512 0.0
4.121133 0.285507 0.002353 0.0
3.570898 0.096467 0.000214 0.0
0.029985 1.649500 -0.000122 0.0
0.683585 0.791553 0.006863 0.0
4.403188 0.157692 0.003672 0.0
2.906971 1.088019 -0.001544 0.0
0.313933 0.800563 0.001477 0.0
0.244210 0.097634 0.000929 0.0
1.517594 0.215904 0.002313 0.0
1.881559 1.063849 0.000310 0.0
2.471552 1.338805 0.004370 0.0
3.038371 1.559660 0.003903 0.0
1.415638 1.694024 -0.000776 0.0
2.207898 0.899962 -0.001094 0.0
2.083401 1.621719 -0.000010 0.0
0.361385 0.746967 -0.002483 0.0
0.273921 0.782349 -0.002657 0.0
0.311046 0.134185 0.002241 0.0
4.325296 1.078720 0.001609 0.0
3.751018 0.706546 0.000753 0.0
2.997324 1.200259 0.005143 0.0
2.151974 1.745610 0.003145 0.0
3.938738 0.506793 0.003321 0.0
0.343040 0.458577 -0.000303 0.0
2.774902 1.278618 -0.002077 0.0
0.289260 1.303247 0.004747 0.0
1.765653 1.021530 0.003566 0.0
0.004840 0.932382 0.003231 0.0
3.505435 0.595677 0.001442 0.0
3.310188 1.244748 -0.003650 0.0
2.649220 0.853879 -0.000393 0.0
3.404052 1.577771 -0.000346 0.0
3.298628 0.951030 0.002056 0.0
0.962550 0.473395 -0.001792 0.0
0.559572 1.454038 -0.004040 0.0
3.140822 1.063024 -0.001738 0.0
1.609960 0.169669 -0.002461 0.0
1.504202 1.320578 -0.005199 0.0
1.155726 1.582057 0.003685 0.0
3.622974 1.284706 0.001165 0.0
3.874456 1.170129 0.002552 0.0
3.269894 0.926172 -0.005690 0.0
0.939795 1.668285 -0.001442 0.0
0.344764 0.154396 -0.006028 0.0
4.435976 1.764969 0.000924 0.0
0.996045 1.619843 -0.000349 0.0
4.025004 1.274386 -0.002004 0.0
1.527212 1.275656 0.003555 0.0
1.514266 1.840315 0.000629 0.0
3.652509 0.958488 0.003560 0.0
3.275678 0.439636 -0.001552 0.0
0.525019 1.638299 0.001088 0.0
2.521593 1.091762 -0.001000 0.0
3.184789 1.250544 0.004331 0.0
0.761753 0.756469 -0.002533 0.0
4.019196 1.675853 -0.002131 0.0
2.164022 0.951574 0.000299 0.0
0.043833 1.365642 -0.000535 0.0
0.944389 1.500980 -0.002376 0.0
1.130668 0.076766 -0.000011 0.0
3.202551 0.372161 -0.004600 0.0
4.520479 1.244067 -0.002081 0.0
2.382873 0.070968 -0.000726 0.0
3.213328 0.239561 -0.003927 0.0
1.617733 0.405103 -0.000749 0.0
3.906930 1.767955 -0.008283 0.0
1.996176 0.520849 0.000489 0.0
2.976746 0.623816 0.003007 0.0
1.483187 1.392760 -0.000178 0.0
1.470980 0.330202 0.001163 0.0
2.647314 0.408833 0.000340 0.0
4.029862 0.214273 0.002287 0.0
2.342191 1.830343 -0.002550 0.0
2.682087 1.230472 0.002975 0.0
3.798019 1.119933 -0.002151 0.0
3.531938 1.519216 0.001393 0.0
3.910582 0.074113 0.000787 0.0
0.162580 1.441403 0.000517 0.0
3.690498 0.267924 0.005037 0.0
0.132538 0.227469 -0.004028 0.0
1.171116 1.287433 -0.003878 0.0
2.891107 1.788180 -0.000030 0.0
0.673415 0.890156 -0.004139 0.0
4.478469 0.474474 0.002345 0.0
4.492216 1.442028 0.000500 0.0
0.862620 0.740043 -0.000172 0.0
1.849624 0.110039 -0.001821 0.0
0.004841 1.719715 0.000147 0.0
4.394461 0.088190 -0.001117 0.0
1.878124 0.754260 -0.001523 0.0
3.320448 0.678604 -0.000660 0.0
1.141924 1.170852 -0.002707 0.0
0.602479 0.076836 -0.000180 0.0
2.457572 0.359054 0.001603 0.0
3.051271 0.775801 -0.001796 0.0
3.044208 1.536383 0.002925 0.0
3.528104 1.587022 0.001811 0.0
3.050914 0.204962 0.002421 0.0
0.293248 1.745349 0.003845 0.0
3.869146 1.050829 0.001542 0.0
4.525653 1.073732 0.002365 0.0
0.228248 1.489225 0.001604 0.0
2.564696 1.208987 0.000409 0.0
4.233400 0.475052 0.000627 0.0
1.363224 1.100138 0.004590 0.0
1.296414 0.047185 -0.001180 0.0
1.199277 1.116550 -0.002502 0.0
2.133737 1.467283 0.000809 0.0
1.956465 0.045882 0.000150 0.0
0.684238 0.511682 0.001145 0.0
4.626831 1.339126 -0.001800 0.0
3.628247 0.603921 0.003616 0.0
0.657533 0.087540 0.004593 0.0
1.749126 1.118436 0.000113 0.0
3.167069 1.636739 0.001232 0.0
2.473158 0.041894 0.000172 0.0
2.631689 0.174056 0.000255 0.0
2.739622 0.922823 0.001516 0.0
2.264361 1.023245 0.003010 0.0
3.345681 0.025143 -0.000850 0.0
2.308874 1.026401 0.001729 0.0
2.307773 1.197454 -0.000308 0.0
4.233440 0.397224 0.002010 0.0
2.126984 0.079099 -0.002635 0.0
3.228862 1.174823 -0.007690 0.0
0.149009 0.882587 0.002028 0.0
3.570630 0.449039 0.002605 0.0
4.253836 1.099288 -0.000448 0.0
0.368611 1.611877 0.000001 0.0
1.082296 0.148018 0.000154 0.0
0.146596 1.566588 0.002069 0.0
2.228058 1.827257 0.002046 0.0
3.692523 1.379085 0.000838 0.0
3.747780 1.559988 -0.000928 0.0
0.131725 0.767667 0.001563 0.0
3.253376 0.640350 -0.000951 0.0
0.900143 1.315688 0.002732 0.0
4.377124 1.537626 0.000735 0.0
4.111554 1.061377 -0.000681 0.0
0.476630 0.632887 -0.003384 0.0
2.002465 1.501756 -0.001280 0.0
3.437556 1.257223 0.001014 0.0
3.651254 0.330802 0.001954 0.0
3.234826 1.152066 -0.000170 0.0
2.423167 1.368862 0.003511 0.0
2.307814 0.922740 0.001661 0.0
3.413800 0.745469 0.001512 0.0
0.182409 1.037414 -0.003377 0.0
0.775363 0.339057 -0.002961 0.0
3.258751 1.317555 -0.002201 0.0
0.707831 1.335847 -0.002028 0.0
0.527323 1.651191 0.001246 0.0
0.676034 1.213591 0.000619 0.0
2.578200 0.619845 -0.005130 0.0
2.799138 0.366778 0.001265 0.0
2.793685 1.101701 -0.001440 0.0
2.843633 0.476718 0.002205 0.0
1.621793 0.458763 -0.000896 0.0
4.340009 0.557658 -0.003181 0.0
4.281987 0.290150 -0.000226 0.0
2.201218 0.608116 0.001798 0.0
1.561483 0.536040 -0.002181 0.0
3.812451 1.740505 -0.001833 0.0
3.629859 0.907594 0.001175 0.0
0.616853 0.866398 -0.000830 0.0
1.305897 1.042969 0.000713 0.0
2.397501 0.737516 -0.004855 0.0
2.616386 0.699571 0.002632 0.0
1.098352 0.863608 -0.004625 0.0
2.213764 0.629333 -0.000957 0.0
3.501678 1.300669 0.001282 0.0
1.348328 0.989203 -0.004474 0.0
3.040912 1.189196 -0.002657 0.0
4.054384 0.364778 0.004324 0.0
0.675294 1.251558 -0.001792 0.0
3.209478 1.523133 -0.001157 0.0
2.901789 1.350238 0.001237 0.0
2.678272 0.506880 -0.000135 0.0
1.414707 1.247163 -0.004761 0.0
1.696011 1.430942 0.006360 0.0
1.991806 0.601792 -0.000022 0.0
0.035904 1.403855 -0.002246 0.0
2.450845 1.135857 -0.003545 0.0
4.523927 1.562889 -0.002631 0.0
2.713703 1.134002 0.002583 0.0
3.838766 0.422228 0.002669 0.0
3.546161 0.984520 0.000867 0.0
1.179619 0.045415 0.000404 0.0
2.579657 0.888509 0.001509 0.0
3.754175 1.070261 0.002078 0.0
4.522985 0.534491 -0.001870 0.0
2.867286 0.696867 0.000174 0.0
2.891154 0.293233 0.005270 0.0
2.200633 1.284900 -0.001277 0.0
2.232097 1.836658 -0.002077 0.0
1.249132 1.137481 -0.001667 0.0
0.396903 1.646837 0.000925 0.0
0.971987 0.167402 -0.000453 0.0
2.467384 1.413037 0.000374 0.0
1.750588 0.123741 -0.002791 0.0
4.365976 0.630627 -0.001614 0.0
2.199592 1.166952 -0.003028 0.0
3.543394 0.555811 0.002212 0.0
4.015288 1.584780 0.000204 0.0
2.279254 1.061268 0.002069 0.0
1.782414 0.200576 -0.003171 0.0
4.552906 0.657860 0.002112 0.0
0.653013 0.969433 -0.000403 0.0
2.978285 1.531740 -0.003323 0.0
0.811229 1.300185 -0.000399 0.0
2.079018 1.199505 0.002320 0.0
3.023596 0.175054 0.000728 0.0
4.213807 1.769332 0.000734 0.0
1.552093 1.019944 0.001212 0.0
1.623055 0.751511 -0.001159 0.0
0.228871 1.059752 0.000022 0.0
2.243088 0.986681 -0.001857 0.0
1.910092 0.736419 0.000365 0.0
3.924956 0.889341 0.000227 0.0
3.737698 1.363545 -0.002272 0.0
4.178463 0.506384 0.002925 0.0
0.317962 1.328625 -0.002367 0.0
3.280433 0.487893 0.001634 0.0
3.578594 0.810336 -0.001437 0.0
1.244120 0.757728 -0.001051 0.0
2.281092 1.000998 0.001060 0.0
2.610661 0.631487 -0.002305 0.0
2.668678 0.739814 0.003216 0.0
0.898843 1.640212 -0.001909 0.0
2.993702 0.302819 0.000390 0.0
1.040484 0.707209 0.000474 0.0
3.854743 1.393745 -0.000499 0.0
2.720963 0.674149 0.001464 0.0
2.113274 1.121260 0.003372 0.0
4.412223 0.856573 0.003255 0.0
2.976586 0.542515 0.002785 0.0
2.305482 1.702148 -0.001943 0.0
0.241655 1.322778 0.001974 0.0
0.528183 0.440933 -0.002714 0.0
2.158044 0.529948 0.003120 0.0
4.081020 0.904837 -0.000161 0.0
2.062035 1.513310 -0.002010 0.0
2.856367 1.581948 -0.002199 0.0
2.609215 1.483691 -0.006104 0.0
0.645064 1.470401 -0.001183 0.0
1.095148 0.701529 0.002326 0.0
2.570873 0.489022 -0.003207 0.0
3.921393 0.047385 -0.000597 0.0
3.749870 0.111198 0.003171 0.0
3.516475 1.217646 0.002905 0.0
3.943641 1.777376 -0.001381 0.0
0.222350 0.318119 0.002394 0.0
0.733247 0.893998 -0.000398 0.0
4.012495 1.847064 0.002460 0.0
3.647485 1.450642 0.000956 0.0
1.855243 0.963526 -0.000309 0.0
3.204779 1.601887 -0.003287 0.0
3.562921 1.756807 0.000494 0.0
3.207146 1.268072 -0.003812 0.0
3.155892 1.305319 -0.001934 0.0
2.429330 1.442595 -0.000597 0.0
1.812584 0.476080 -0.000931 0.0
0.900588 1.684400 -0.006441 0.0
1.455804 0.854148 0.000177 0.0
3.963776 0.486412 0.000001 0.0
2.429007 0.100181 0.002149 0.0
3.534395 0.942356 0.003768 0.0
2.260420 1.332412 -0.005138 0.0
1.749086 0.218662 -0.002707 0.0
3.546160 1.064759 -0.001838 0.0
4.033445 1.120976 -0.001406 0.0
0.197574 1.033963 0.000474 0.0
0.501057 0.192957 -0.002591 0.0
2.387896 1.708331 0.000506 0.0
2.139687 0.585775 0.001613 0.0
4.581981 0.357764 0.000857 0.0
2.669762 0.168914 -0.006400 0.0
2.373267 1.502997 -0.003030 0.0
0.495612 0.591099 0.000099 0.0
0.111024 0.855976 -0.000075 0.0
2.495344 0.760175 0.000596 0.0
1.591166 1.046871 -0.002561 0.0
1.814017 1.579021 -0.002317 0.0
2.426418 0.601934 0.001287 0.0
2.054420 0.822061 0.003598 0.0
3.743323 1.829308 -0.003548 0.0
3.260849 0.251889 0.001011 0.0
1.382584 1.496401 0.000038 0.0
0.953459 1.476236 0.001755 0.0
3.230916 1.058284 -0.000837 0.0
4.611783 1.199770 0.000962 0.0
2.040815 0.136558 -0.002216 0.0
2.609341 1.319840 -0.000565 0.0
1.252173 1.710424 0.002245 0.0
2.229916 1.838914 -0.001489 0.0
4.042286 0.526856 0.001543 0.0
4.463859 1.836425 -0.003063 0.0
3.588903 0.487302 -0.000998 0.0
0.851491 0.695837 -0.000265 0.0
2.506708 0.271023 0.001504 0.0
4.214797 1.125210 -0.002775 0.0
1.999794 0.483648 0.004641 0.0
3.088431 0.465198 -0.000741 0.0
3.587108 0.955834 -0.002840 0.0
3.845118 0.402990 0.002338 0.0
3.306887 1.755950 -0.002715 0.0
0.195271 1.100066 0.003626 0.0
2.622673 0.090286 0.001235 0.0
2.859503 1.518273 0.000160 0.0
0.043824 0.922774 0.001440 0.0
3.285725 1.301962 -0.000557 0.0
2.058852 1.823400 0.005853 0.0
1.427149 0.950171 0.002311 0.0
2.920267 1.412746 -0.002139 0.0
1.694763 0.119818 -0.005477 0.0
1.796357 0.966644 0.000429 0.0
2.070604 0.179720 0.001577 0.0
2.841177 0.161878 0.002611 0.0
2.809807 0.802089 -0.001456 0.0
1.540547 1.133565 0.000315 0.0
2.403172 0.634958 -0.004818 0.0
0.390815 0.502703 0.001437 0.0
1.088449 0.863156 0.004508 0.0
1.025099 1.156992 0.002368 0.0
4.064190 0.594728 0.002677 0.0
3.468244 1.775894 -0.002470 0.0
2.601571 0.544896 0.001789 0.0
0.220107 1.526233 0.002558 0.0
2.574437 1.003492 -0.001451 0.0
3.909243 0.660969 0.000127 0.0
2.581398 0.262303 -0.003932 0.0
3.605847 0.207663 0.002267 0.0
0.759781 0.569961 -0.004820 0.0
4.062820 0.976821 -0.002204 0.0
1.395479 0.360985 -0.000576 0.0
1.778454 0.097935 -0.000057 0.0
0.992598 0.618520 -0.000053 0.0
2.038627 0.584546 -0.002279 0.0
3.583581 0.211221 -0.004992 0.0
4.103171 0.147629 0.001028 0.0
1.020515 1.199929 -0.004022 0.0
3.148928 0.675628 0.000546 0.0
2.214715 0.649779 -0.001428 0.0
2.548360 0.766238 0.000677 0.0
1.409462 1.243607 0.000363 0.0
0.899809 0.480726 0.001616 0.0
1.374107 0.334385 -0.003529 0.0
0.082100 0.947598 -0.003243 0.0
0.934763 0.891306 -0.002565 0.0
0.444930 1.508999 0.001722 0.0
0.404567 0.473350 -0.002468 0.0
0.479472 0.741181 -0.000104 0.0
2.241049 1.646779 0.001287 0.0
3.396288 0.866824 -0.004945 0.0
3.230018 1.683021 -0.000909 0.0
4.158513 1.389628 0.001662 0.0
3.701677 0.087158 -0.000383 0.0
3.887145 0.223858 0.001409 0.0
1.084275 1.073878 -0.002467 0.0
2.486120 0.118517 0.003249 0.0
2.403435 0.180752 -0.001482 0.0
1.191648 1.232099 -0.002040 0.0
2.418941 0.288953 0.000304 0.0
3.368362 0.438317 -0.000881 0.0
2.170494 0.165429 0.002069 0.0
2.010134 0.093005 -0.001531 0.0
1.139464 0.637670 -0.003534 0.0
0.244590 1.171070 0.002170 0.0
0.159988 0.578711 -0.000369 0.0
0.595998 0.711944 0.002918 0.0
2.003106 1.660661 -0.001278 0.0
1.776687 0.994952 -0.000628 0.0
1.700902 0.103347 0.002362 0.0
3.825423 0.756295 -0.000161 0.0
4.136784 0.446406 0.004112 0.0
0.391013 1.320689 0.001774 0.0
4.413412 0.515438 0.001758 0.0
3.498511 1.616594 -0.001671 0.0
3.547319 0.907935 -0.000282 0.0
3.831614 1.079141 -0.002798 0.0
3.474838 0.556287 -0.001078 0.0
0.866269 0.343633 0.001405 0.0
2.468406 0.614913 0.000719 0.0
3.546140 0.725630 -0.001624 0.0
0.994883 0.918075 -0.000966 0.0
2.035434 1.372846 0.002372 0.0
1.853368 1.330077 -0.005604 0.0
1.122001 0.435303 0.001070 0.0
3.428715 1.303777 0.002304 0.0
3.986384 0.449656 -0.003130 0.0
3.888290 0.857115 0.003902 0.0
1.196703 0.324530 0.004300 0.0
3.851214 0.032669 0.003153 0.0
1.431295 0.319440 0.001550 0.0
1.164042 1.832407 0.002730 0.0
1.715772 0.830159 0.000719 0.0
2.865866 1.156814 -0.001089 0.0
1.914692 0.465231 -0.000630 0.0
1.117967 1.213406 -0.003884 0.0
3.488489 0.805979 -0.004461 0.0
4.471069 1.836190 -0.000041 0.0
2.460168 1.250284 -0.003271 0.0
3.335327 1.616206 0.000101 0.0
3.947765 1.313524 0.003997 0.0
2.466817 1.128299 0.000524 0.0
0.556788 0.664399 0.000565 0.0
1.050242 1.335830 -0.004808 0.0
2.883139 1.426034 0.001930 0.0
3.670831 1.156125 -0.001704 0.0
0.594830 1.061394 0.001759 0.0
1.872888 0.636212 0.000145 0.0
0.628149 1.025062 -0.004660 0.0
2.489955 1.812580 0.001282 0.0
2.066057 1.654684 0.001101 0.0
1.851535 0.801012 0.000456 0.0
2.983721 0.182949 0.002534 0.0
3.364034 1.616884 -0.001203 0.0
0.600219 1.181983 -0.001480 0.0
0.218279 1.351846 0.001398 0.0
3.457381 0.216707 0.001246 0.0
1.774603 0.687181 0.001398 0.0
0.182596 0.064990 0.000856 0.0
0.384000 1.086977 0.002929 0.0
0.691838 1.413449 -0.001454 0.0
3.870751 0.283914 -0.004329 0.0
0.761961 1.054109 -0.001892 0.0
3.132015 0.734392 0.002563 0.0
0.423525 1.298141 -0.004714 0.0
0.928570 1.341971 0.001987 0.0
4.286078 1.130614 0.000459 0.0
0.926624 1.135846 0.001220 0.0
2.257144 0.538863 -0.003859 0.0
1.032872 1.440457 -0.002676 0.0
2.160068 1.340003 -0.002482 0.0
0.271630 0.815014 -0.000024 0.0
3.332256 1.302762 0.001418 0.0
1.871875 1.672004 -0.000083 0.0
1.125381 0.025544 -0.003019 0.0
2.254300 0.179353 -0.000353 0.0
2.077044 1.389722 0.003014 0.0
2.404194 1.004966 0.002523 0.0
2.860762 1.171945 -0.002704 0.0
0.446912 1.318207 -0.002598 0.0
0.242045 0.067218 -0.000428 0.0
0.279935 0.423885 -0.001984 0.0
1.313626 0.748195 -0.001464 0.0
4.312114 0.096699 -0.001170 0.0
0.598266 1.119841 0.007063 0.0
0.979840 0.520716 0.001992 0.0
2.661649 1.706211 -0.004713 0.0
4.124349 1.736345 -0.005564 0.0
2.855027 0.456081 0.001024 0.0
4.592902 0.888987 -0.006739 0.0
1.902199 0.702405 0.004003 0.0
0.168804 1.408042 -0.000658 0.0
3.455266 1.005967 0.000295 0.0
3.732541 1.194323 -0.001960 0.0
4.104818 0.517734 -0.000746 0.0
3.352618 1.018589 -0.002731 0.0
1.118143 1.021205 -0.003014 0.0
