2.15229593 0.17607857 -0.00074843 0.00000000
4.75418968 0.93466185 0.00402916 0.00000000
4.41228966 0.72767391 -0.00288261 0.00000000
0.05715730 2.02692625 0.00059789 0.00000000
1.42722042 1.66762461 0.00028540 0.00000000
2.38351746 1.28119544 0.00264891 0.00000000
0.75108069 0.23712433 -0.00666652 0.00000000
1.33126614 1.08875398 0.00211812 0.00000000
2.17645070 0.13261071 -0.00116018 0.00000000
1.73648320 0.51727741 0.00145709 0.00000000
2.10279229 1.95262752 -0.00116943 0.00000000
4.79007733 1.32324872 0.00026819 0.00000000
0.08255925 0.52138466 -0.00056178 0.00000000
3.39301551 0.90918352 -0.00028198 0.00000000
3.11103495 0.19722593 -0.00080099 0.00000000
1.59257955 2.00834920 0.00094036 0.00000000
4.36753156 0.69812452 0.00162272 0.00000000
4.82151915 1.64774367 0.00254879 0.00000000
3.26129556 1.62512698 0.00727511 0.00000000
4.64560152 0.41835327 -0.00222650 0.00000000
0.89122882 0.02550670 -0.00235118 0.00000000
3.77500064 0.56678407 0.00278465 0.00000000
2.24051292 0.59352115 -0.00236005 0.00000000
4.01745227 1.98031332 -0.00123616 0.00000000
1.40504055 1.88200415 -0.00292106 0.00000000
3.20595780 1.81945402 0.00436571 0.00000000
1.72854543 1.80669589 0.00392065 0.00000000
3.62461966 0.06053769 0.00439699 0.00000000
2.74171695 1.81585112 -0.00255013 0.00000000
1.63956606 0.79178017 0.00085490 0.00000000
3.86886407 1.46437869 0.00113763 0.00000000
2.11846873 0.34298515 -0.00307447 0.00000000
3.48234128 0.85989071 -0.00029036 0.00000000
4.82318424 1.12053796 0.00142190 0.00000000
3.59946875 1.70527619 0.00015459 0.00000000
2.00302834 0.88506553 0.00173108 0.00000000
2.18712998 2.01311945 0.00111822 0.00000000
3.35036183 1.22762395 0.00209731 0.00000000
0.33206671 0.56382072 0.00179067 0.00000000
4.76344888 0.08488304 -0.00166830 0.00000000
0.03992105 1.42533613 -0.00045444 0.00000000
4.57748127 1.54521510 0.00295748 0.00000000
1.03932783 0.44058999 -0.00230248 0.00000000
2.58071885 1.25976292 0.00154889 0.00000000
1.04810747 0.17631534 0.00082705 0.00000000
0.38420384 1.14207463 -0.00169068 0.00000000
3.40067728 1.78642875 -0.00244384 0.00000000
3.13340981 1.56843310 -0.00320781 0.00000000
3.21114625 1.73569662 0.00103755 0.00000000
0.49555196 1.47077251 -0.00270332 0.00000000
4.57537757 0.32823105 0.00301810 0.00000000
3.54277662 0.44178572 -0.00261530 0.00000000
4.61913933 0.39162151 -0.00357285 0.00000000
4.05751934 0.20540980 -0.00106184 0.00000000
3.36410432 1.86383098 0.00417005 0.00000000
0.73843608 2.06921956 0.00096666 0.00000000
2.27767357 0.99929317 0.00186695 0.00000000
0.77515317 0.93291679 0.00020958 0.00000000
4.42398979 0.19434110 0.00052858 0.00000000
3.84059140 1.63393642 0.00105248 0.00000000
1.38689788 0.95165596 0.00028673 0.00000000
2.72380994 1.46891170 0.00118218 0.00000000
3.34881593 1.73539496 -0.00109732 0.00000000
3.52704599 0.44982446 0.00352820 0.00000000
2.04081001 0.70758806 0.00199473 0.00000000
0.30934305 1.72016260 -0.00160989 0.00000000
1.10178045 0.88262114 0.00189392 0.00000000
4.81224158 0.56602758 0.00466502 0.00000000
3.50207068 0.70455938 -0.00381775 0.00000000
2.95827057 0.94887327 0.00021728 0.00000000
3.44954545 0.23772667 0.00004050 0.00000000
2.65750129 0.92608898 -0.00220652 0.00000000
3.15033587 0.48266991 0.00046192 0.00000000
2.80011247 0.61737978 -0.00418355 0.00000000
3.75848355 0.53721344 -0.00102406 0.00000000
2.22735186 1.66279774 -0.00253352 0.00000000
0.18446851 0.76692981 -0.00037375 0.00000000
4.63222505 0.68642964 0.00003867 0.00000000
0.39693318 2.04649541 0.00084171 0.00000000
0.21530062 0.96500418 0.00143975 0.00000000
4.04145581 1.63347664 0.00127910 0.00000000
4.65841464 1.08965027 -0.00187304 0.00000000
3.39450724 0.30558522 0.00057185 0.00000000
4.78895702 0.73456820 0.00152004 0.00000000
0.99764645 1.48663676 -0.00097085 0.00000000
2.35537552 1.97778083 -0.00060950 0.00000000
3.13890371 1.28673198 -0.00043335 0.00000000
3.86743590 0.79355955 -0.00124463 0.00000000
4.29975506 0.97897762 0.00091109 0.00000000
2.99596991 2.04682988 -0.00134128 0.00000000
2.03910506 1.51603119 0.00338213 0.00000000
1.67888178 1.78346213 -0.00349929 0.00000000
4.64678593 1.88997900 -0.00056737 0.00000000
1.48969490 0.00230077 -0.00068313 0.00000000
0.78321978 0.14428770 -0.00495280 0.00000000
3.34584775 1.99430941 -0.00306737 0.00000000
2.34066465 1.79296617 0.00377141 0.00000000
3.06569992 0.67746238 -0.00161832 0.00000000
2.39859507 0.68260881 -0.00327772 0.00000000
3.15734643 1.81373391 0.00022359 0.00000000
1.72956813 0.63771877 0.00118240 0.00000000
0.67200726 1.67120153 0.00042612 0.00000000
3.15341092 0.79068546 0.00361996 0.00000000
2.13969203 1.24149986 -0.00227046 0.00000000
4.01594979 1.47970742 -0.00145527 0.00000000
2.67305524 0.93403696 -0.00450838 0.00000000
3.10222366 0.28880162 -0.00187530 0.00000000
0.60970286 1.70475349 -0.00052391 0.00000000
4.00534666 0.37499043 -0.00166243 0.00000000
4.53117128 1.61518093 0.00149269 0.00000000
3.54566732 0.36335757 0.00067287 0.00000000
2.33213470 0.83887111 -0.00176907 0.00000000
0.60542943 0.12416636 -0.00253604 0.00000000
0.65006064 1.61923594 -0.00334522 0.00000000
4.46530653 1.79041398 -0.00133485 0.00000000
2.76693683 0.27913405 0.00034649 0.00000000
4.34972787 0.73055245 0.00177656 0.00000000
2.93303312 0.07475235 -0.00252476 0.00000000
2.80364844 1.99632381 -0.00062635 0.00000000
1.51687610 0.88546907 -0.00057594 0.00000000
2.42491266 0.84575827 0.00019285 0.00000000
0.68729791 0.48198275 -0.00200588 0.00000000
1.74936480 2.07458021 -0.00156301 0.00000000
1.91386774 0.38103977 0.00124292 0.00000000
4.12783948 0.83856405 0.00117661 0.00000000
4.26046280 0.48533546 -0.00448337 0.00000000
2.06582895 0.62012679 0.00254432 0.00000000
3.63270070 0.56336189 -0.00041033 0.00000000
1.33412401 0.35772790 -0.00382702 0.00000000
4.73016042 1.98709421 0.00110754 0.00000000
2.81358690 1.50341824 -0.00119971 0.00000000
3.66286467 0.42875191 -0.00162507 0.00000000
1.87690849 1.81204826 -0.00206808 0.00000000
0.72925064 1.35006303 -0.00268645 0.00000000
1.01752721 0.03433095 0.00535304 0.00000000
4.25150565 1.17057212 -0.00180511 0.00000000
0.44551890 0.70224402 -0.00198889 0.00000000
4.78822814 1.84420842 0.00185180 0.00000000
0.28036291 0.05917846 0.00032280 0.00000000
0.73292967 0.11678781 0.00126510 0.00000000
2.38142961 1.12530282 -0.00084407 0.00000000
2.60908265 0.51935905 0.00097499 0.00000000
2.09922041 0.68063101 -0.00013363 0.00000000
0.16107371 1.35328250 0.00232104 0.00000000
3.78526327 1.92891616 -0.00082795 0.00000000
1.10562894 1.70055192 0.00165185 0.00000000
3.43191575 0.16002465 0.00224059 0.00000000
0.43869921 1.61852203 -0.00250927 0.00000000
0.63562666 0.91504697 0.00088221 0.00000000
3.92775058 1.76077799 -0.00488472 0.00000000
2.58393709 1.44590638 0.00195436 0.00000000
3.20965980 0.34455045 -0.00606685 0.00000000
0.41906275 1.02353831 0.00322043 0.00000000
0.23538614 1.37024605 -0.00181096 0.00000000
3.03712670 0.55018941 0.00008322 0.00000000
2.63305767 0.20647039 -0.00605660 0.00000000
3.71274772 0.94317701 -0.00080358 0.00000000
0.80812029 1.36017815 -0.00172956 0.00000000
2.40136047 0.70535662 0.00165987 0.00000000
4.30737971 1.23070826 -0.00037563 0.00000000
2.84909282 0.54682026 0.00255777 0.00000000
4.08630688 1.63218539 0.00161916 0.00000000
2.80762818 0.64578407 0.00052435 0.00000000
4.66317656 1.53717524 0.00279419 0.00000000
3.05073404 1.34818639 -0.00005497 0.00000000
1.13648900 0.25397910 -0.00138849 0.00000000
2.39110542 1.17926537 -0.00116439 0.00000000
0.08252237 1.66487194 0.00083337 0.00000000
3.63249190 0.85850340 0.00081856 0.00000000
4.60588713 1.29201585 0.00110382 0.00000000
3.24489093 0.69099144 -0.00213405 0.00000000
1.51607383 1.16882402 0.00363726 0.00000000
2.52760099 0.81358242 -0.00170459 0.00000000
1.70120139 1.76067783 -0.00126136 0.00000000
4.60663624 1.62090554 -0.00319205 0.00000000
1.17746752 0.96499682 0.00084574 0.00000000
0.05906944 0.15635745 0.00284103 0.00000000
2.90889040 1.35539447 -0.00104326 0.00000000
4.07933816 0.26966570 -0.00046216 0.00000000
0.19529936 1.66562240 0.00234560 0.00000000
0.77190418 1.28032439 0.00227239 0.00000000
0.64969675 1.29531407 0.00126544 0.00000000
0.60463431 1.48928717 -0.00025724 0.00000000
2.54276225 0.70864033 -0.00209106 0.00000000
3.02645285 0.99363366 0.00193315 0.00000000
2.29994310 1.69934833 -0.00174898 0.00000000
1.92969911 1.37880276 -0.00101009 0.00000000
3.12398695 1.38923929 -0.00064645 0.00000000
0.42760375 0.73628541 -0.00040642 0.00000000
3.32717068 1.72089488 0.00222662 0.00000000
0.26209203 1.82763166 -0.00036421 0.00000000
2.32261062 1.60165472 -0.00242738 0.00000000
4.15261283 0.69488962 0.00266718 0.00000000
4.55696386 1.55083257 0.00102800 0.00000000
1.27373032 0.66389750 -0.00037528 0.00000000
0.82733294 0.61156771 -0.00325089 0.00000000
1.22611429 0.03344240 0.00288606 0.00000000
2.91408020 0.35294917 0.00241099 0.00000000
3.44902142 1.71293368 -0.00217906 0.00000000
3.70635274 0.29268552 0.00279047 0.00000000
4.83167575 2.05102055 0.00122336 0.00000000
3.88576504 0.53918239 -0.00032954 0.00000000
0.67319742 0.99945890 -0.00104198 0.00000000
0.83446085 0.46757937 -0.00184868 0.00000000
1.91581354 1.48142372 0.00061774 0.00000000
1.91433639 0.33680278 -0.00256725 0.00000000
1.05526872 1.27262758 -0.00070706 0.00000000
3.21058923 1.22797445 -0.00130859 0.00000000
1.09793446 1.68733498 0.00033878 0.00000000
1.75085753 1.45128946 0.00050126 0.00000000
0.92909510 0.38834318 -0.00123226 0.00000000
2.30901322 1.71878953 0.00002911 0.00000000
3.41997132 1.78884592 0.00255360 0.00000000
1.07377361 1.36504025 0.00041855 0.00000000
4.30681508 0.11289886 0.00279380 0.00000000
3.35825368 0.29261718 0.00315170 0.00000000
2.11792340 2.04767393 -0.00033760 0.00000000
0.26019031 0.73022635 -0.00278734 0.00000000
3.08158188 0.65250312 -0.00038450 0.00000000
0.90867789 0.68307068 -0.00129204 0.00000000
4.79353046 0.21493865 -0.00060927 0.00000000
2.13780195 0.15858640 -0.00378613 0.00000000
1.66083614 0.14474717 0.00646792 0.00000000
2.05173880 0.72687997 -0.00123669 0.00000000
4.41125434 1.13186077 0.00199624 0.00000000
2.99487095 1.65830305 0.00140338 0.00000000
1.07670867 1.52892039 0.00135246 0.00000000
1.47614792 1.12765494 -0.00083373 0.00000000
0.61041675 1.08741106 0.00039572 0.00000000
0.21140761 0.17793480 0.00261169 0.00000000
0.96061551 1.54719197 -0.00144224 0.00000000
2.73533579 0.09241117 -0.00256766 0.00000000
3.49719809 0.71787014 0.00203910 0.00000000
0.15702724 1.40240745 0.00012027 0.00000000
2.10950012 1.74239582 -0.00009276 0.00000000
1.77286101 2.03917331 -0.00020530 0.00000000
4.45739407 1.26346915 0.00059439 0.00000000
1.98625815 0.90016095 -0.00046687 0.00000000
4.58936271 0.50408097 -0.00104249 0.00000000
3.88078397 1.73388155 0.00057669 0.00000000
4.16057151 1.98158735 0.00159868 0.00000000
1.55059686 0.78221650 -0.00216725 0.00000000
0.62809448 0.37087488 0.00048150 0.00000000
3.34432225 1.69937726 0.00010142 0.00000000
3.58938847 0.41401466 -0.00084058 0.00000000
4.31943973 1.43966256 0.00065924 0.00000000
3.79678831 0.61356507 0.00046438 0.00000000
1.89676449 1.14822453 -0.00063374 0.00000000
2.15013384 1.12190213 0.00039008 0.00000000
0.90788642 0.13951043 -0.00018994 0.00000000
4.80502885 0.30223538 -0.00083835 0.00000000
2.47501312 0.26974419 -0.00321002 0.00000000
1.67686315 0.15134947 0.00370737 0.00000000
2.76935145 0.16581462 0.00085392 0.00000000
3.83139939 1.00185230 0.00468872 0.00000000
0.25444117 1.50595225 0.00156027 0.00000000
3.87646657 0.01081331 0.00212667 0.00000000
4.01082329 0.78576749 0.00453658 0.00000000
3.97326621 0.67729658 0.00479657 0.00000000
1.25747471 1.99687026 -0.00162510 0.00000000
2.92814748 0.01473067 0.00011848 0.00000000
2.19734774 0.14435898 -0.00185239 0.00000000
1.58646134 1.35442789 -0.00062115 0.00000000
2.33596676 0.19412421 0.00223352 0.00000000
3.85844108 1.32435971 -0.00258239 0.00000000
0.53595840 0.70302726 -0.00319451 0.00000000
4.68336801 1.35741449 -0.00238939 0.00000000
0.97961082 1.89475782 -0.00040030 0.00000000
2.54705314 1.19995718 0.00318922 0.00000000
3.62300916 1.91970512 0.00100609 0.00000000
2.02353493 0.79220371 0.00298754 0.00000000
3.77186712 0.36736901 -0.00240157 0.00000000
3.78643326 0.18000950 -0.00281867 0.00000000
3.48426789 0.66962850 0.00086838 0.00000000
2.54565749 1.23498302 -0.00176120 0.00000000
2.53991158 0.20104055 0.00327581 0.00000000
3.38722487 1.37864781 0.00747414 0.00000000
2.00776114 1.25435271 0.00151615 0.00000000
3.56418437 0.00853361 -0.00102516 0.00000000
0.21062925 1.76982920 -0.00231276 0.00000000
0.73942166 2.03322779 -0.00183637 0.00000000
4.82595842 1.74989638 -0.00082078 0.00000000
0.51776919 1.31882951 0.00414404 0.00000000
0.23924024 1.06479850 0.00168414 0.00000000
1.95910040 1.33742735 -0.00020545 0.00000000
0.89913045 1.95867375 0.00605566 0.00000000
0.65272449 1.76261453 -0.00153645 0.00000000
2.90703059 0.43579791 -0.00341845 0.00000000
4.53525175 1.09207498 -0.00545669 0.00000000
3.33994681 0.58181002 -0.00126782 0.00000000
3.27597497 1.02535399 0.00027418 0.00000000
3.84048660 1.14251602 0.00559139 0.00000000
1.86804853 0.81036736 0.00006010 0.00000000
3.02097732 1.20214129 0.00275792 0.00000000
3.12379213 0.55749008 -0.00186356 0.00000000
2.40344841 0.89256168 0.00043010 0.00000000
3.25090814 1.42982589 -0.00434827 0.00000000
1.25940821 1.95601603 0.00056024 0.00000000
0.98141323 0.14261445 -0.00115697 0.00000000
2.14959934 0.67694936 0.00308109 0.00000000
3.71175684 1.78227703 0.00500617 0.00000000
1.62421619 1.08983474 -0.00163388 0.00000000
4.76437621 1.77113132 -0.00041224 0.00000000
2.40742480 1.05454224 0.00051177 0.00000000
2.42080970 0.76647884 0.00324352 0.00000000
1.63883467 1.19926497 0.00038821 0.00000000
2.40046837 2.05421755 0.00254443 0.00000000
1.42239185 0.34461308 -0.00198413 0.00000000
4.54429807 1.75328663 0.00276366 0.00000000
1.42922016 0.20972322 -0.00197401 0.00000000
4.52570083 2.03643245 -0.00028971 0.00000000
0.40700531 1.61725958 -0.00198533 0.00000000
2.50710302 1.77410526 0.00139084 0.00000000
0.11720058 0.45984132 -0.00060473 0.00000000
2.66784402 1.74976147 -0.00217479 0.00000000
1.21658100 1.54873282 -0.00268723 0.00000000
2.77478421 0.72710137 -0.00189161 0.00000000
1.83333123 2.04690830 -0.00071582 0.00000000
1.54139636 1.42170893 0.00506556 0.00000000
0.02797507 0.47423873 -0.00193595 0.00000000
1.95926691 1.87362693 -0.00072677 0.00000000
2.01577791 1.63790640 0.00299187 0.00000000
3.74333853 0.90196285 0.00418543 0.00000000
2.77387352 0.36709494 -0.00079286 0.00000000
4.41522305 0.96191757 -0.00023357 0.00000000
3.59719427 0.76215428 0.00364153 0.00000000
1.46397392 0.75515182 0.00098987 0.00000000
3.26094994 1.13076787 -0.00080755 0.00000000
2.36509113 1.39143742 -0.00049079 0.00000000
0.77144481 1.59348896 -0.00605061 0.00000000
3.87873168 1.32375020 -0.00216197 0.00000000
3.62437930 1.44244752 -0.00126990 0.00000000
0.47712594 1.05158991 0.00083847 0.00000000
0.70288224 0.22038687 0.00094385 0.00000000
3.70784986 0.46858684 -0.00272952 0.00000000
1.05110738 1.46753780 -0.00290283 0.00000000
0.56669124 2.06357871 0.00348335 0.00000000
0.79593279 1.14552087 -0.00245559 0.00000000
2.33263447 1.69559715 0.00247627 0.00000000
0.34335094 0.02488015 -0.00380373 0.00000000
2.78472568 1.31087196 0.00033088 0.00000000
0.79000667 1.27248746 -0.00142557 0.00000000
1.89745354 1.94415243 0.00157315 0.00000000
3.33283255 0.46517270 -0.00205180 0.00000000
2.18709072 1.27173182 -0.00044635 0.00000000
3.28893072 1.48258353 0.00120742 0.00000000
0.69039915 0.27721904 -0.00141271 0.00000000
0.95473485 1.06043987 0.00119976 0.00000000
1.21530176 1.31578728 0.00188549 0.00000000
4.19223907 0.25176625 -0.00340378 0.00000000
0.02722315 1.35005287 -0.00316640 0.00000000
1.22228549 2.05494895 0.00156150 0.00000000
0.91168267 0.55525169 -0.00186416 0.00000000
1.91066736 1.97486045 0.00202055 0.00000000
2.25350195 0.86863210 -0.00141467 0.00000000
0.38376207 0.13813943 0.00159337 0.00000000
1.26495259 1.21557481 -0.00059048 0.00000000
0.88279778 0.12657639 -0.00158320 0.00000000
4.41322355 1.75632826 -0.00137228 0.00000000
2.72602527 1.66078333 0.00344147 0.00000000
0.02744296 0.51735985 -0.00194373 0.00000000
4.55300729 0.50261203 -0.00311476 0.00000000
0.22621242 1.58050545 0.00682183 0.00000000
0.54467021 1.03139192 0.00275411 0.00000000
3.33996896 1.21051779 -0.00293246 0.00000000
2.72425311 1.84946533 0.00519560 0.00000000
3.25486018 1.50160578 0.00135112 0.00000000
3.36881405 0.24786415 0.00071691 0.00000000
3.35905428 0.04586567 0.00353628 0.00000000
4.23996640 0.78681459 -0.00644089 0.00000000
1.18593513 0.74001240 0.00261050 0.00000000
3.66443602 1.77249694 0.00001462 0.00000000
2.54485200 1.18786151 -0.00107639 0.00000000
3.72722123 0.68685617 0.00246974 0.00000000
1.79012584 0.23305074 0.00208184 0.00000000
2.92131990 1.75245280 -0.00092235 0.00000000
1.82657220 1.60196189 -0.00093140 0.00000000
4.26028790 1.20206852 -0.00072305 0.00000000
0.19439136 1.77845519 -0.00078651 0.00000000
3.99980606 0.59802156 -0.00209963 0.00000000
0.94686243 1.68317053 0.00498131 0.00000000
0.34284130 0.42361962 -0.00022186 0.00000000
3.68759220 1.93196620 -0.00168860 0.00000000
1.68494860 1.12055509 -0.00255555 0.00000000
0.89001391 1.76982004 -0.00073201 0.00000000
0.16740011 0.12313708 -0.00100475 0.00000000
3.71949538 1.49599917 0.00336015 0.00000000
0.42475524 0.17109391 0.00301364 0.00000000
0.10504830 0.93316913 -0.00022071 0.00000000
1.73623820 0.18571186 0.00540944 0.00000000
3.06275789 1.79395915 0.00027707 0.00000000
2.81516037 0.09233877 0.00049736 0.00000000
0.42760059 0.10300274 -0.00205202 0.00000000
2.40582195 1.26381153 0.00023077 0.00000000
2.36682335 0.04259999 0.00095861 0.00000000
2.84130333 1.29671038 0.00140719 0.00000000
1.63453824 1.09036559 -0.00309177 0.00000000
0.71224061 0.22332168 -0.00388142 0.00000000
1.76320639 1.35773451 0.00285029 0.00000000
4.67592039 1.73596708 -0.00467299 0.00000000
1.09903418 0.86047173 -0.00212154 0.00000000
3.60197190 1.28423776 -0.00470143 0.00000000
2.80678886 0.95689480 0.00509297 0.00000000
1.58670192 0.25505545 -0.00197297 0.00000000
1.48369929 1.05946386 0.00430340 0.00000000
3.14133570 0.32380601 -0.00106218 0.00000000
2.80392736 1.69953092 0.00060069 0.00000000
3.65634316 0.38839533 -0.00621553 0.00000000
3.51056763 1.65041755 -0.00033801 0.00000000
3.91425346 0.82565376 -0.00072359 0.00000000
1.62556997 1.14268898 -0.00108725 0.00000000
2.35199454 1.45048882 0.00353695 0.00000000
0.50622583 0.50293737 -0.00286396 0.00000000
3.41280303 0.15040470 0.00053754 0.00000000
0.92813852 1.73138792 -0.00122640 0.00000000
2.26849636 0.16923117 -0.00435230 0.00000000
2.91789568 1.67984852 0.00430684 0.00000000
3.65115074 1.05347722 0.00046329 0.00000000
1.04636733 0.57477551 -0.00163517 0.00000000
3.96625315 1.78508964 0.00285466 0.00000000
4.71884008 1.13538772 0.00252652 0.00000000
1.88150033 0.21196960 0.00041623 0.00000000
1.72231718 0.75293263 -0.00017768 0.00000000
1.77131158 0.17829866 -0.00015420 0.00000000
0.21182630 0.62308633 -0.00140253 0.00000000
0.50819731 0.76032447 -0.00142164 0.00000000
4.34796922 1.09713876 -0.00385959 0.00000000
1.23892651 1.81938247 -0.00914169 0.00000000
3.75587325 1.79606059 -0.00067668 0.00000000
2.47511139 1.44570936 0.00183782 0.00000000
4.43728483 0.84056091 -0.00372456 0.00000000
4.59500150 1.38872149 0.00129009 0.00000000
3.20458343 2.02578694 0.00193468 0.00000000
0.67006191 0.67429580 -0.00216192 0.00000000
4.66705660 1.25519399 -0.00137909 0.00000000
3.02351933 1.33242948 -0.00053192 0.00000000
3.49901623 0.63321874 0.00295062 0.00000000
4.51399456 1.73698296 0.00043321 0.00000000
4.25206635 2.07772509 -0.00010632 0.00000000
3.41061176 1.76161508 -0.00009189 0.00000000
1.51115985 0.12223546 -0.00130824 0.00000000
0.88462145 2.01585163 0.00143190 0.00000000
2.48562600 1.05747868 -0.00545529 0.00000000
2.34592209 0.18164939 -0.00120639 0.00000000
2.52663558 0.15611788 -0.00045881 0.00000000
1.70496250 0.15221584 -0.00343954 0.00000000
2.46319869 0.73223601 0.00004067 0.00000000
0.81539976 1.41593403 0.00310224 0.00000000
1.88937100 0.63510240 0.00271088 0.00000000
3.23648258 1.27742815 0.00074800 0.00000000
3.41085398 0.53780477 -0.00049127 0.00000000
4.57276211 1.87641029 0.00158620 0.00000000
3.46918176 0.54927504 0.00317567 0.00000000
1.94896523 1.96647262 -0.00283412 0.00000000
2.82877308 1.83259708 -0.00209819 0.00000000
2.93431599 1.39538120 -0.00260559 0.00000000
0.61976732 0.75033885 -0.00053637 0.00000000
4.38073203 0.48526402 -0.00170814 0.00000000
2.60349719 0.13123789 0.00230208 0.00000000
2.65001016 1.37029353 0.00109997 0.00000000
0.47464227 1.69041232 -0.00264769 0.00000000
2.87097652 1.24161615 -0.00047293 0.00000000
0.95911027 1.99892097 0.00259434 0.00000000
4.00532599 1.70736822 -0.00570210 0.00000000
3.41177997 1.91598491 0.00507759 0.00000000
0.98171614 1.84460773 -0.00293328 0.00000000
1.44869771 0.85424575 -0.00149276 0.00000000
0.67979152 1.12020165 0.00206304 0.00000000
4.63672225 1.26275328 -0.00061257 0.00000000
2.07618244 1.36318001 0.00032688 0.00000000
0.01451802 0.86380558 -0.00229706 0.00000000
1.62459858 0.88450456 -0.00246996 0.00000000
2.65000903 0.60213009 0.00218478 0.00000000
1.09494833 0.85328151 -0.00003295 0.00000000
3.49165298 1.88685415 -0.00024171 0.00000000
2.06575379 0.76708780 0.00005569 0.00000000
3.24505468 0.08314747 -0.00094134 0.00000000
3.14458581 0.91883794 -0.00323613 0.00000000
2.56905334 1.45442576 0.00042076 0.00000000
3.88194595 1.02180445 0.00530620 0.00000000
0.50146402 1.91005549 0.00167015 0.00000000
3.33704567 0.34027948 -0.00075647 0.00000000
1.76378408 1.52672756 -0.00071781 0.00000000
4.47426401 2.03502361 0.00015952 0.00000000
3.52781846 0.70956794 0.00113966 0.00000000
2.95320484 1.75705793 0.00326314 0.00000000
2.83752294 0.44397925 0.00198872 0.00000000
2.29210646 0.35441468 0.00016014 0.00000000
2.41911720 1.47724928 -0.00059728 0.00000000
3.79112628 1.43003317 0.00208870 0.00000000
2.04854260 1.01882493 -0.00161847 0.00000000
2.65396767 1.31094217 -0.00039129 0.00000000
3.97606862 1.61041807 -0.00044303 0.00000000
1.11602762 2.05539492 -0.00079409 0.00000000
3.13320033 1.12284887 0.00549157 0.00000000
4.06644144 1.98960978 -0.00477969 0.00000000
0.53919582 0.19518763 0.00149199 0.00000000
0.43388832 1.87140293 -0.00057693 0.00000000
0.90666701 1.94880396 -0.00256083 0.00000000
1.81355138 1.18256957 0.00431292 0.00000000
3.12885411 0.52056601 0.00345678 0.00000000
0.98660351 0.44744373 0.00155509 0.00000000
0.29755410 1.88762987 0.00431507 0.00000000
4.39983588 0.94045151 0.00577511 0.00000000
2.52661403 1.78221102 0.00029463 0.00000000
2.08015388 0.79752530 0.00167173 0.00000000
4.32156074 1.43070230 -0.00092612 0.00000000
4.13406012 1.44218649 0.00160378 0.00000000
0.95733634 0.36406149 0.00153105 0.00000000
0.06038349 0.53975238 -0.00129183 0.00000000
0.93174951 1.07423654 0.00286399 0.00000000
0.95853237 0.73036192 0.00230554 0.00000000
4.02075895 1.75613556 0.00216412 0.00000000
1.02659505 1.36339820 0.00030242 0.00000000
1.84664403 0.26535336 0.00124026 0.00000000
0.22579977 1.52827763 -0.00163435 0.00000000
3.40966766 1.05758243 0.00363158 0.00000000
1.99406738 1.86102913 0.00451190 0.00000000
3.79283654 1.31256079 0.00516690 0.00000000
3.83465096 2.01460574 0.00054441 0.00000000
3.65584824 1.61177704 -0.00313297 0.00000000
2.00780673 0.50346781 0.00033756 0.00000000
3.61366112 1.68964349 -0.00224085 0.00000000
3.43474038 1.32597150 -0.00298935 0.00000000
0.59099099 0.83405197 -0.00000554 0.00000000
3.62892041 1.38724058 0.00033698 0.00000000
4.13920471 1.05023625 0.00088065 0.00000000
0.34548616 1.54815345 -0.00126355 0.00000000
0.15387470 0.48061174 0.00050285 0.00000000
1.68039837 0.75546772 -0.00418087 0.00000000
0.45118898 1.75553241 0.00109110 0.00000000
1.80604901 1.19797231 0.00136007 0.00000000
0.96581628 0.66324854 -0.00094781 0.00000000
1.60151268 0.59601419 -0.00522441 0.00000000
2.78560923 1.77751788 0.00209472 0.00000000
2.23204231 1.81600304 -0.00083724 0.00000000
0.56932245 1.36029553 -0.00219673 0.00000000
3.28455279 1.76197191 -0.00037847 0.00000000
3.70234231 0.76937945 -0.00205373 0.00000000
4.64954480 1.66888353 0.00030111 0.00000000
0.80330304 1.20781944 -0.00161971 0.00000000
0.87269551 0.98382302 0.00026758 0.00000000
3.83136304 1.63643900 0.00296889 0.00000000
3.78781792 0.98986251 0.00136767 0.00000000
2.51959409 0.20587966 0.00104421 0.00000000
1.77599347 0.56440311 -0.00096202 0.00000000
0.10830890 1.75836377 0.00117573 0.00000000
3.55958839 0.78575115 -0.00304344 0.00000000
2.17697783 1.66352205 0.00016257 0.00000000
2.58994032 2.05593632 0.00123096 0.00000000
1.22384345 1.30460067 -0.00355307 0.00000000
4.78455244 1.70636872 -0.00159891 0.00000000
0.23444583 1.62140037 0.00077642 0.00000000
2.56924524 0.99617340 -0.00236560 0.00000000
3.25199203 0.36152683 -0.00396632 0.00000000
0.14841066 1.22608515 -0.00122521 0.00000000
1.75500067 1.19637176 0.00531087 0.00000000
3.58334794 0.84928512 -0.00058196 0.00000000
1.21471243 0.97751245 -0.00253628 0.00000000
4.52161416 1.26294598 0.00052082 0.00000000
3.36994223 1.68904453 0.00097636 0.00000000
3.14011896 1.90344129 -0.00316971 0.00000000
1.13488669 1.47892604 0.00052959 0.00000000
3.44493896 0.66390365 -0.00192744 0.00000000
4.01098033 0.59344472 -0.00201501 0.00000000
0.97749974 0.37606183 -0.00232356 0.00000000
1.38275093 0.41852913 0.00527540 0.00000000
4.77265822 1.21151020 0.00115200 0.00000000
2.91216439 0.42594625 -0.00063040 0.00000000
4.12377814 0.26273215 0.00098376 0.00000000
0.57287986 0.87340981 0.00278320 0.00000000
0.72925392 0.81934895 -0.00045641 0.00000000
2.26977405 1.47820968 -0.00146926 0.00000000
0.77729064 0.52669221 -0.00009162 0.00000000
1.32710631 1.51809083 -0.00111542 0.00000000
3.61002035 0.54211433 -0.00080893 0.00000000
4.57222088 0.96915640 -0.00284438 0.00000000
3.89036406 1.37457949 -0.00055414 0.00000000
3.35237396 0.22724594 0.00272081 0.00000000
3.82478768 0.91483922 0.00049915 0.00000000
1.49934997 0.57867316 -0.00268867 0.00000000
1.17265073 1.56211257 -0.00054885 0.00000000
3.08833220 1.22932507 0.00144002 0.00000000
0.01151896 1.58986663 0.00100805 0.00000000
0.67713558 0.15890177 0.00168194 0.00000000
0.82131484 1.17715004 0.00323000 0.00000000
2.97988354 0.35046450 -0.00100245 0.00000000
0.88839633 0.49629776 -0.00555135 0.00000000
1.10361465 0.53335446 -0.00104267 0.00000000
3.55582775 0.99420420 -0.00516114 0.00000000
1.37206353 1.71411766 -0.00289857 0.00000000
2.18053736 0.48922941 0.00201129 0.00000000
4.22940306 1.18977931 -0.00182614 0.00000000
1.77875471 1.79909202 -0.00341513 0.00000000
0.52234435 0.03651093 -0.00199281 0.00000000
2.21333030 1.20292477 0.00101110 0.00000000
1.72785286 0.77528636 -0.00017195 0.00000000
1.55632559 0.85439558 0.00248621 0.00000000
2.85478738 1.91420105 -0.00137956 0.00000000
0.63621899 1.56825669 -0.00259032 0.00000000
0.47910006 1.26380434 0.00136759 0.00000000
0.00766310 1.37360988 0.00260876 0.00000000
1.47274173 0.46356533 -0.00104337 0.00000000
3.31991538 1.70942189 0.00111252 0.00000000
0.44407112 0.24942404 -0.00005758 0.00000000
3.53479778 0.89467267 0.00083103 0.00000000
3.24653505 0.50298695 -0.00135714 0.00000000
3.88139872 0.15676133 0.00478366 0.00000000
3.86051075 1.51966057 0.00231470 0.00000000
3.24140919 0.99922736 0.00140408 0.00000000
4.00416113 1.47586252 -0.00109441 0.00000000
0.14166019 0.58421996 0.00269782 0.00000000
1.73546322 1.45976478 0.00308732 0.00000000
2.31487033 1.27182960 -0.00146891 0.00000000
1.55178008 1.11948463 0.00406862 0.00000000
2.66227201 0.45622666 0.00230734 0.00000000
3.88314875 1.30387459 0.00024476 0.00000000
3.85861577 1.58054446 0.00021061 0.00000000
1.49488558 0.01367520 0.00194264 0.00000000
1.48116842 1.94161536 0.00122011 0.00000000
4.51875592 0.35509162 0.00364953 0.00000000
2.75291450 0.09256717 0.00044205 0.00000000
0.86000784 0.66660600 -0.00093088 0.00000000
3.80624846 0.67599075 0.00111748 0.00000000
0.58204404 2.04282988 -0.00083773 0.00000000
1.19117820 0.17875719 -0.00090826 0.00000000
0.81065348 1.13407582 -0.00329190 0.00000000
0.05216587 1.35391987 -0.00304793 0.00000000
4.40295251 0.15227214 -0.00244602 0.00000000
2.15337541 0.24367537 -0.00117006 0.00000000
1.73404252 1.64777705 0.00063827 0.00000000
3.63812308 1.73545466 -0.00109856 0.00000000
0.78331121 1.65370356 0.00157774 0.00000000
2.56830716 1.09108100 -0.00127140 0.00000000
0.52433059 1.12416375 -0.00241463 0.00000000
4.27889403 1.60388928 0.00164832 0.00000000
4.01811358 0.42288497 0.00094420 0.00000000
4.79949208 0.49738048 0.00181163 0.00000000
0.82048803 2.03690007 -0.00131159 0.00000000
0.46270910 0.78903806 0.00458133 0.00000000
3.06453305 0.23322944 -0.00435785 0.00000000
1.28974790 1.92206342 -0.00017265 0.00000000
1.28940432 1.33877668 0.00162506 0.00000000
4.30267286 0.30766836 -0.00069562 0.00000000
2.24238751 1.41095981 0.00024188 0.00000000
1.81686497 0.96091151 -0.00210207 0.00000000
4.46069476 0.56597365 -0.00138602 0.00000000
2.30978221 0.98553976 -0.00054830 0.00000000
3.42414174 0.68112816 -0.00022155 0.00000000
4.74058924 1.29770135 0.00357747 0.00000000
4.59115671 1.93546439 -0.00130549 0.00000000
1.07798510 1.11411607 0.00275500 0.00000000
2.25365671 0.08047883 -0.00395040 0.00000000
2.03070657 1.56819430 0.00154416 0.00000000
2.86359349 1.76707410 -0.00197757 0.00000000
2.15988996 1.57150997 0.00648909 0.00000000
3.48462706 1.59415416 -0.00097406 0.00000000
1.72396699 0.67968914 -0.00156531 0.00000000
2.32686992 0.70174885 -0.00179650 0.00000000
4.41866171 0.60000488 0.00381407 0.00000000
3.03966236 1.25607289 -0.00089882 0.00000000
2.03481472 1.35212445 0.00654838 0.00000000
0.08874460 1.43203681 -0.00265353 0.00000000
1.87181012 1.89434429 -0.00193135 0.00000000
3.09799073 1.02243048 0.00133066 0.00000000
3.81060079 0.39300328 0.00148464 0.00000000
1.81750569 0.10343703 0.00096198 0.00000000
0.60877034 1.07014661 0.00238243 0.00000000
4.80181358 1.08566331 -0.00135735 0.00000000
1.05785050 0.65678103 -0.00095197 0.00000000
0.73664603 0.72216270 -0.00260936 0.00000000
1.50510205 0.15335458 -0.00459398 0.00000000
1.50201886 1.11294782 -0.00185476 0.00000000
3.65423859 0.87220802 0.00047277 0.00000000
1.40288098 0.23080132 0.00027426 0.00000000
3.30300665 1.96299596 0.00171468 0.00000000
0.69608358 0.79324269 -0.00193082 0.00000000
1.77943000 1.01463544 0.00191681 0.00000000
0.54478273 1.06790501 -0.00166950 0.00000000
2.92919772 0.03854472 0.00055851 0.00000000
1.92647189 0.82438905 0.00233148 0.00000000
2.78072009 0.34697395 0.00027797 0.00000000
1.97392565 1.70933651 0.00062602 0.00000000
1.33002786 1.76768457 -0.00161617 0.00000000
1.95555431 0.70883759 -0.00238806 0.00000000
1.50286822 1.12118509 0.00045408 0.00000000
4.67654167 0.84144054 0.00091844 0.00000000
0.61363982 0.09334461 -0.00275509 0.00000000
3.74137331 0.34870607 0.00188057 0.00000000
1.39527843 0.48416402 -0.00196883 0.00000000
3.28972900 0.45155943 0.00158760 0.00000000
0.73676932 1.75586063 0.00219982 0.00000000
2.83744930 0.51762255 0.00124475 0.00000000
2.30362949 1.59155544 -0.00300330 0.00000000
1.76892547 0.57286674 -0.00071079 0.00000000
0.12099071 0.53200300 -0.00065053 0.00000000
3.00355396 1.35390870 -0.00142532 0.00000000
2.35177134 1.83018640 0.00130768 0.00000000
0.80718275 0.18681110 -0.00027698 0.00000000
1.53673753 1.51589693 -0.00400553 0.00000000
4.81236927 1.09984904 -0.00106779 0.00000000
3.65828204 0.14574558 -0.00070776 0.00000000
3.18667914 1.63797386 0.00042909 0.00000000
1.17294965 0.91416155 -0.00093297 0.00000000
2.35747685 0.68076252 -0.00079041 0.00000000
4.22288609 0.94174437 -0.00167001 0.00000000
4.82879282 1.60103270 0.00057935 0.00000000
1.62472592 0.85425521 0.00146545 0.00000000
0.79153811 1.42841160 0.00214289 0.00000000
2.50656710 1.16600777 0.00065168 0.00000000
2.18761430 1.13289395 -0.00152744 0.00000000
4.05098305 1.91386390 0.00302211 0.00000000
1.37154447 0.82078638 0.00169912 0.00000000
4.21780222 1.66190819 0.00328366 0.00000000
2.85196844 0.14455286 0.00464082 0.00000000
3.48843237 1.75146911 0.00238529 0.00000000
3.70525216 0.72470795 0.00288195 0.00000000
4.66114697 1.04770011 0.00250307 0.00000000
3.09042961 1.28358418 0.00239607 0.00000000
3.85060398 0.46228579 -0.00034482 0.00000000
0.68599918 0.79236977 -0.00016995 0.00000000
2.25178564 0.60163637 0.00112592 0.00000000
1.70695400 1.61971250 0.00044992 0.00000000
3.64052690 2.02962994 0.00277011 0.00000000
4.35456727 0.26532586 0.00062545 0.00000000
4.14900882 0.51455477 0.00094588 0.00000000
3.86181251 1.36040910 0.00302845 0.00000000
3.57570233 0.71039070 -0.00515351 0.00000000
4.66157791 1.06334942 0.00016462 0.00000000
3.23195909 1.32448301 0.00351495 0.00000000
0.41171837 1.46741893 -0.00040015 0.00000000
2.73732036 1.35734583 0.00243215 0.00000000
3.40172313 0.79054790 -0.00302577 0.00000000
1.84240848 0.93852405 0.00245560 0.00000000
4.78165437 1.20062831 -0.00560395 0.00000000
0.25655866 1.27899854 -0.00281043 0.00000000
1.81558146 2.04145268 -0.00129425 0.00000000
3.70290035 1.76207543 -0.00039834 0.00000000
3.60259744 1.47734041 -0.00018384 0.00000000
4.34493520 1.81957437 -0.00124313 0.00000000
1.12688836 1.91487329 -0.00317227 0.00000000
2.01859551 1.07118173 -0.00286093 0.00000000
3.73866858 0.76038733 -0.00051157 0.00000000
4.70616795 1.70446666 0.00104410 0.00000000
3.74634205 1.58291440 -0.00197868 0.00000000
2.43522241 0.50018082 -0.00301707 0.00000000
2.96884045 1.74684735 -0.00235116 0.00000000
4.66624671 1.96160130 0.00362699 0.00000000
3.45174196 0.90339632 -0.00315530 0.00000000
2.91609706 1.20045740 -0.00432844 0.00000000
0.03307323 1.87593730 0.00047034 0.00000000
0.54336558 0.25629078 -0.00157519 0.00000000
0.02229960 0.72302881 -0.00043551 0.00000000
1.45163538 0.78979602 -0.00052545 0.00000000
2.67766024 0.62974861 -0.00073815 0.00000000
3.07279644 1.11198514 -0.00325144 0.00000000
0.38545855 1.06166262 0.00508570 0.00000000
1.55497042 0.92567126 0.00026653 0.00000000
1.63584963 1.74271708 0.00221290 0.00000000
0.79518718 1.48250923 0.00129809 0.00000000
1.26553349 0.23133617 -0.00399876 0.00000000
1.74157865 0.43086146 0.00286710 0.00000000
1.22285434 0.96026668 -0.00332663 0.00000000
0.44474393 1.52180166 -0.00357041 0.00000000
2.66832295 1.11001370 -0.00187441 0.00000000
1.99101871 0.63500668 -0.00049337 0.00000000
2.19946449 1.16031684 0.00362978 0.00000000
1.11944958 0.63384050 -0.00101115 0.00000000
2.26296689 0.08998043 -0.00035766 0.00000000
4.57778413 1.17961999 -0.00264993 0.00000000
4.41777920 0.99922219 -0.00213819 0.00000000
1.75719962 1.61628989 0.00771738 0.00000000
3.52019077 1.22508130 0.00097670 0.00000000
4.04885042 0.80285917 0.00094852 0.00000000
3.90251254 1.03182277 0.00084622 0.00000000
2.57242190 1.28787332 0.00092276 0.00000000
4.58484425 1.27977239 0.00141594 0.00000000
2.52381363 0.77725331 -0.00155370 0.00000000
2.09351518 1.00059428 0.00076183 0.00000000
1.35579882 1.47642145 -0.00107576 0.00000000
1.82547337 1.85215708 -0.00104172 0.00000000
0.27527937 1.64043520 -0.00071975 0.00000000
2.45049352 1.56598424 -0.00012661 0.00000000
0.42749775 0.11292495 -0.00119880 0.00000000
3.08136481 0.57795012 0.00185475 0.00000000
4.34920389 0.83787615 -0.00051217 0.00000000
0.60152139 1.09628619 0.00037345 0.00000000
2.56865847 0.18328911 -0.00628258 0.00000000
4.05305789 1.34783387 0.00105758 0.00000000
1.77336950 0.98649228 -0.00215724 0.00000000
1.94577140 1.38144773 0.00019005 0.00000000
0.35632239 0.72611739 0.00074508 0.00000000
1.39302113 1.30459729 0.00060252 0.00000000
4.51023243 1.04026246 0.00206016 0.00000000
4.28441110 1.93170330 0.00189432 0.00000000
4.61487797 0.42812269 0.00032368 0.00000000
2.84751865 2.03409881 0.00198765 0.00000000
0.28367048 1.42374114 -0.00063633 0.00000000
4.03236486 1.23883946 -0.00154778 0.00000000
4.38453249 0.30940982 -0.00144587 0.00000000
3.20089522 1.86123455 0.00279496 0.00000000
2.03104742 1.20712029 -0.00510952 0.00000000
4.27858840 1.10418981 -0.00155749 0.00000000
0.44501783 1.77856624 0.00125130 0.00000000
0.54100073 1.97202328 -0.00208588 0.00000000
1.03209781 0.19301850 0.00002975 0.00000000
0.37838130 0.28451712 -0.00199011 0.00000000
2.28130851 0.44809726 -0.00039765 0.00000000
2.37181800 0.37412447 -0.00310132 0.00000000
1.22019709 0.46808439 -0.00148091 0.00000000
2.18627387 0.52667106 -0.00306113 0.00000000
4.63944656 1.75721697 0.00527274 0.00000000
4.08682280 1.39004101 0.00156151 0.00000000
1.03407161 0.75644623 -0.00480677 0.00000000
2.02157886 0.37150479 0.00044308 0.00000000
1.52305940 0.42455438 -0.00285100 0.00000000
3.64294788 0.17058841 -0.00088551 0.00000000
3.44676866 0.13058765 0.00423768 0.00000000
2.73639299 1.14211142 0.00141411 0.00000000
0.16503052 1.43962824 0.00020834 0.00000000
4.35689177 0.54771279 -0.00542529 0.00000000
1.70611526 1.51909762 -0.00074603 0.00000000
2.96496475 1.73492849 0.00256912 0.00000000
0.91911375 0.90112715 0.00132128 0.00000000
3.40167456 1.43438033 -0.00316314 0.00000000
4.07941501 2.01344427 0.00020410 0.00000000
0.88161168 0.49679310 -0.00257133 0.00000000
3.72400827 1.91998169 -0.00041013 0.00000000
4.58668085 1.38922622 0.00058230 0.00000000
0.52385185 0.48267340 0.00122854 0.00000000
4.48719301 1.81058937 0.00183233 0.00000000
0.40273544 1.17685610 0.00349410 0.00000000
3.41807801 0.21336070 -0.00255022 0.00000000
1.88922000 1.61738502 -0.00202510 0.00000000
0.40280343 0.01763004 0.00141185 0.00000000
3.17928494 0.05634719 -0.00388237 0.00000000
3.48400684 0.20258740 -0.00172983 0.00000000
2.17634967 1.45570728 -0.00101185 0.00000000
0.93686066 0.91309946 -0.00289749 0.00000000
1.43004791 0.03558533 -0.00021153 0.00000000
4.82997800 2.01541643 -0.00116408 0.00000000
0.15930654 1.55362735 -0.00135103 0.00000000
4.14330104 0.03504445 0.00156042 0.00000000
3.98640219 1.53858586 -0.00054437 0.00000000
4.46245107 1.94625261 -0.00171637 0.00000000
3.59424813 0.08620283 -0.00174153 0.00000000
2.57472667 0.51906964 -0.00384213 0.00000000
3.92840234 1.04703557 0.00010995 0.00000000
2.04447914 1.93399479 0.00096441 0.00000000
3.80571562 0.33510035 0.00138266 0.00000000
3.71916553 0.63661513 0.00456040 0.00000000
0.76563266 0.26191805 -0.00091045 0.00000000
3.53902431 0.08439798 0.00070113 0.00000000
3.03475719 1.36282461 0.00216791 0.00000000
4.59468519 1.17803563 0.00324568 0.00000000
4.71360952 0.98250687 0.00037647 0.00000000
0.69266235 0.54076142 0.00051054 0.00000000
3.42810624 1.23150972 0.00167894 0.00000000
4.10437947 1.67563739 -0.00519308 0.00000000
4.03925989 0.20307608 -0.00361325 0.00000000
0.72016915 0.56996074 0.00076048 0.00000000
3.52276731 1.67352715 -0.00020843 0.00000000
1.52053047 0.37633935 -0.00003782 0.00000000
2.72527044 0.55308985 0.00302975 0.00000000
2.13628468 1.69876258 -0.00117275 0.00000000
1.20648934 1.13180544 -0.00399986 0.00000000
1.27709123 1.31550750 0.00195709 0.00000000
4.42671312 2.05147938 0.00517555 0.00000000
0.62549674 2.03628355 0.00181549 0.00000000
0.49052664 0.84147616 -0.00583157 0.00000000
0.83884282 0.48717534 0.00092459 0.00000000
1.59475303 1.42178912 -0.00451871 0.00000000
0.18349263 0.16685905 0.00507396 0.00000000
1.24211900 0.29203627 -0.00047091 0.00000000
1.98655765 0.76608598 -0.00344620 0.00000000
2.38153481 0.24057710 0.00087893 0.00000000
3.24156778 0.95075684 0.00069376 0.00000000
3.26673936 0.79142932 0.00151018 0.00000000
0.74441678 0.74459639 -0.00314398 0.00000000
3.15452062 0.57196015 0.00085550 0.00000000
4.76188971 1.54584153 -0.00340397 0.00000000
1.75101779 1.49229177 -0.00177739 0.00000000
3.76196759 1.03773431 0.00081560 0.00000000
0.34266938 0.02477320 0.00274120 0.00000000
2.87737590 0.54668077 0.00223947 0.00000000
1.62308108 0.18390544 -0.00075953 0.00000000
2.37096885 2.06198875 -0.00202949 0.00000000
1.10894824 1.68670813 -0.00021994 0.00000000
2.00676260 1.23519450 0.00088693 0.00000000
2.53481775 0.43422744 -0.00242174 0.00000000
1.75644645 1.01531107 0.00093135 0.00000000
2.78919549 0.66424162 0.00351299 0.00000000
2.82203764 1.28080245 -0.00281431 0.00000000
2.11822008 1.71498900 0.00069402 0.00000000
2.57306054 1.02872754 0.00071077 0.00000000
2.21649418 0.74845253 0.00313428 0.00000000
0.04097001 1.24615370 -0.00175026 0.00000000
2.37779331 1.78543822 0.00229679 0.00000000
3.38184643 1.74433167 -0.00152885 0.00000000
3.67946308 1.29460698 -0.00324767 0.00000000
0.94810935 1.06864240 0.00411832 0.00000000
0.35505186 0.65955974 -0.00141878 0.00000000
3.16798639 0.96833257 -0.00109796 0.00000000
3.31248814 0.86745834 -0.00035963 0.00000000
4.81543263 0.85935428 -0.00150489 0.00000000
1.34146098 0.79248241 0.00165003 0.00000000
0.51082197 1.74603684 0.00205128 0.00000000
3.68286003 1.49182126 -0.00172886 0.00000000
3.95196895 1.12802812 0.00120089 0.00000000
4.10985777 0.15351822 0.00166621 0.00000000
3.78792106 1.29249973 -0.00336476 0.00000000
4.46903282 1.58917003 -0.00219596 0.00000000
0.46279274 2.03076487 -0.00209830 0.00000000
4.74550396 0.77352494 0.00129214 0.00000000
1.35738704 0.93548587 0.00466447 0.00000000
0.04685942 0.56150124 -0.00233344 0.00000000
0.09747809 0.17969692 -0.00191634 0.00000000
3.50813258 0.20594566 -0.00290920 0.00000000
2.94128048 0.14430123 -0.00011275 0.00000000
3.71394475 1.01001353 0.00317843 0.00000000
4.30176980 2.03393735 0.00425341 0.00000000
0.71483695 1.07633216 -0.00112052 0.00000000
1.00891719 0.85256082 -0.00218904 0.00000000
1.35302049 0.83524552 0.00060805 0.00000000
1.87911044 1.15237588 0.00256484 0.00000000
3.23039920 0.58250211 0.00083137 0.00000000
1.58023579 1.15526006 0.00087517 0.00000000
4.02986389 0.05174021 0.00073904 0.00000000
3.63744315 0.74886400 0.00152711 0.00000000
4.21634360 1.87387914 0.00012512 0.00000000
2.20390113 0.62244165 -0.00028783 0.00000000
4.02486527 1.36973366 0.00096739 0.00000000
1.27371368 1.01433936 0.00389196 0.00000000
3.58403218 1.58894909 0.00155549 0.00000000
3.73858127 1.23373266 -0.00137413 0.00000000
3.83784182 1.65529556 0.00241536 0.00000000
2.76853409 2.00366131 0.00151201 0.00000000
2.80185040 1.81274099 0.00144236 0.00000000
0.53123325 0.55363943 -0.00070376 0.00000000
1.52347839 1.94252122 -0.00106771 0.00000000
3.34968435 0.52130002 -0.00156182 0.00000000
1.85244828 0.58141129 -0.00104481 0.00000000
1.36678369 1.11099543 -0.00028221 0.00000000
1.17873502 1.62204877 -0.00308802 0.00000000
4.71529590 1.50405966 -0.00085250 0.00000000
0.82915977 0.51656420 -0.00103073 0.00000000
3.57748683 0.80268880 -0.00204144 0.00000000
1.39872372 0.49527252 -0.00004689 0.00000000
4.22768320 1.20511631 -0.00065650 0.00000000
4.56793170 0.26014263 -0.00028023 0.00000000
0.95214834 0.36846321 -0.00062778 0.00000000
1.98479121 1.94446080 0.00392325 0.00000000
3.55557487 0.43676507 -0.00076782 0.00000000
0.97430334 0.76071208 -0.00190948 0.00000000
3.29184701 0.70757756 -0.00623783 0.00000000
3.06144526 0.62319993 -0.00077900 0.00000000
4.09440979 1.42545062 0.00062424 0.00000000
1.54108332 1.88651613 0.00474901 0.00000000
3.10416965 0.96545311 0.00391072 0.00000000
1.94322210 0.97087497 -0.00135280 0.00000000
0.13775498 0.00316317 -0.00092604 0.00000000
2.22579332 0.18939904 0.00024569 0.00000000
0.38764991 1.37567777 0.00283799 0.00000000
1.93095506 0.78626596 0.00001597 0.00000000
0.93411039 0.01008856 0.00162597 0.00000000
4.21817723 1.26190066 -0.00593553 0.00000000
0.58296011 1.72104306 0.00379735 0.00000000
3.12896024 0.51536474 -0.00153923 0.00000000
1.51031389 0.09838172 0.00125477 0.00000000
2.26494497 0.52313034 0.00313601 0.00000000
3.16286039 0.59405141 -0.00546525 0.00000000
3.77559515 0.39820863 0.00185096 0.00000000
2.60547168 0.07535016 -0.00066500 0.00000000
2.77975357 1.32118004 0.00103552 0.00000000
0.75124751 0.93258583 0.00333361 0.00000000
1.90442727 1.51636533 0.00017373 0.00000000
4.58439701 0.12197043 0.00076614 0.00000000
0.97347112 2.05788425 -0.00239795 0.00000000
4.11623704 0.77292144 -0.00249004 0.00000000
4.32678386 1.05790823 -0.00568208 0.00000000
3.69160098 0.96973144 -0.00397758 0.00000000
0.90828966 1.86618174 0.00210575 0.00000000
3.91248237 0.00937303 -0.00165122 0.00000000
2.08122059 1.08672242 0.00004840 0.00000000
1.34615921 0.13655966 0.00090699 0.00000000
1.53675225 0.26353329 0.00174636 0.00000000
1.87149458 0.20638025 -0.00494713 0.00000000
4.74809484 1.82050336 0.00044417 0.00000000
1.48167753 1.89173905 0.00038403 0.00000000
0.55980643 1.97326991 -0.00418483 0.00000000
2.84981079 1.99764318 0.00169174 0.00000000
0.36984172 1.00505376 0.00255619 0.00000000
3.81828210 2.01679450 -0.00092809 0.00000000
0.04877913 0.14193695 -0.00065158 0.00000000
2.53409854 0.88991942 0.00366357 0.00000000
0.94135319 1.88980773 0.00089508 0.00000000
3.04339708 1.89895499 0.00399416 0.00000000
2.66987538 0.59957374 -0.00445772 0.00000000
0.11666650 1.15023979 -0.00100280 0.00000000
3.39511158 0.16800041 0.00176774 0.00000000
2.15092950 0.69283424 0.00171942 0.00000000
3.54903449 1.54002984 -0.00034419 0.00000000
4.66524331 1.77977203 0.00242608 0.00000000
0.74587932 0.45630987 -0.00207237 0.00000000
3.27010681 0.33473767 -0.00203231 0.00000000
3.01931521 0.78035759 -0.00315987 0.00000000
2.39530727 0.46051583 0.00000330 0.00000000
0.84187460 0.91672119 0.00249356 0.00000000
0.27346432 0.34758518 -0.00050040 0.00000000
3.37547565 1.40333766 -0.00504691 0.00000000
3.84623826 1.55240740 -0.00005506 0.00000000
0.98818214 0.22722103 -0.00008322 0.00000000
0.22451545 1.34003778 0.00103095 0.00000000
2.43468355 0.30914013 0.00161662 0.00000000
2.28283900 0.02949765 0.00051410 0.00000000
1.59332115 1.98724553 0.00001106 0.00000000
3.99139524 1.84367689 -0.00275497 0.00000000
4.67988541 0.92332624 0.00228022 0.00000000
3.85158889 1.08672178 0.00348522 0.00000000
1.73015951 0.49385759 0.00556118 0.00000000
2.11936740 0.29748956 -0.00073774 0.00000000
2.44631363 0.82569715 -0.00106594 0.00000000
3.97665180 1.98860572 -0.00000376 0.00000000
1.41813937 0.88476324 -0.00617586 0.00000000
3.71056780 2.02123219 -0.00184685 0.00000000
3.87327992 1.48990997 0.00121616 0.00000000
4.45983354 0.01749293 -0.00452245 0.00000000
4.74599036 1.35181874 0.00017442 0.00000000
3.00039133 1.67776202 -0.00822337 0.00000000
0.71080074 0.74798994 -0.00209936 0.00000000
0.24341506 1.73504062 -0.00011125 0.00000000
1.53197298 0.43794586 0.00292400 0.00000000
3.84097374 0.86713700 -0.00069158 0.00000000
2.43175955 0.14218558 -0.00132954 0.00000000
2.78347332 2.05826518 0.00115168 0.00000000
0.77752212 0.65386450 -0.00243459 0.00000000
3.88236876 2.04178669 -0.00520101 0.00000000
2.11052328 1.45011562 -0.00180998 0.00000000
2.75465769 0.25676968 -0.00095097 0.00000000
0.52771453 0.45664591 0.00301762 0.00000000
0.22586243 1.58889772 0.00287958 0.00000000
1.85177273 1.68866916 0.00214396 0.00000000
1.94218289 1.65950823 -0.00303622 0.00000000
1.66778156 0.22991488 -0.00093641 0.00000000
1.91883835 1.60052564 0.00197628 0.00000000
2.90510230 1.45250117 0.00035429 0.00000000
4.08001380 0.84527748 -0.00359511 0.00000000
4.21599892 1.27811086 0.00118239 0.00000000
1.42247140 1.60208047 -0.00262796 0.00000000
2.49285184 1.88373402 -0.00134598 0.00000000
4.18339419 1.20939176 0.00187053 0.00000000
0.10885910 0.02815936 -0.00146633 0.00000000
1.40851207 0.67410708 0.00160430 0.00000000
3.99523774 1.90030881 0.00152504 0.00000000
4.81025226 1.25277413 -0.00007298 0.00000000
3.65308359 1.47064869 0.00037206 0.00000000
4.76311551 0.30426877 0.00054032 0.00000000
4.32882855 1.15412604 -0.00235806 0.00000000
1.38453457 2.07365125 0.00361698 0.00000000
4.26556507 0.54228102 -0.00331281 0.00000000
4.23377100 1.03307399 0.00167439 0.00000000
3.35907984 1.14615607 -0.00090798 0.00000000
2.14377877 0.30009260 -0.00087334 0.00000000
2.90091957 0.33998226 -0.00441777 0.00000000
3.80233204 0.76944483 0.00186728 0.00000000
0.45635495 1.81022981 0.00093380 0.00000000
3.40216910 0.87493153 0.00241251 0.00000000
1.30273567 0.79988683 -0.00438236 0.00000000
3.68386547 1.15330009 0.00142176 0.00000000
2.58139839 0.19446095 -0.00152961 0.00000000
1.00257530 1.96954046 0.00158793 0.00000000
2.69102353 1.97621374 -0.00100663 0.00000000
1.77687373 1.03480277 0.00340006 0.00000000
2.69444462 0.87608874 -0.00236971 0.00000000
4.59480894 1.69976681 0.00104082 0.00000000
3.73625273 0.88797685 0.00035739 0.00000000
2.18221249 1.56098288 -0.00169503 0.00000000
2.86546922 0.82992275 0.00114565 0.00000000
